# .PCD v0.7 - Point Cloud Data file format
VERSION 0.7
FIELDS x y z
SIZE 4 4 4
TYPE F F F
COUNT 1 1 1
WIDTH 998
HEIGHT 1
VIEWPOINT 0 0 0 1 0 0 0
POINTS 998
DATA ascii
0.74327201 -0.3426531 0.82203132
0.79792553 -0.34529325 0.81251925
0.77808714 -0.33670843 0.80629271
0.73818785 -0.31944245 0.80785841
0.79148084 -0.32058278 0.79980296
0.80510944 -0.32610291 0.82792246
0.77176964 -0.31259894 0.80762219
0.76520801 -0.30994117 0.81485778
0.73896939 -0.29931349 0.80077189
0.73165387 -0.29635039 0.80855364
0.77514338 -0.29290235 0.78291821
0.76278472 -0.28823233 0.78229254
0.77645028 -0.29339612 0.81033552
0.75653332 -0.28587016 0.80345231
0.74336725 -0.28089514 0.80336982
0.71640861 -0.27070826 0.78960478
0.72929752 -0.27557862 0.81797403
1.3928404 -0.48913074 0.78079861
1.4112632 -0.49560046 0.80790848
0.82721335 -0.29049668 0.8193472
0.76532 -0.26876131 0.78673542
0.7781263 -0.27325851 0.81575072
0.75143063 -0.26388371 0.80163419
0.74480176 -0.26155579 0.80855364
1.3715372 -0.44563952 0.78095502
1.4184008 -0.42419183 0.77272254
1.4448557 -0.43210346 0.80608833
1.4044223 -0.4200114 0.80005497
1.4170115 -0.38765055 0.77292001
1.401955 -0.38353151 0.78097731
1.429154 -0.39097232 0.81287092
1.5012666 -0.37291664 0.79670048
1.4412692 -0.35801315 0.78547406
1.4251885 -0.35401875 0.79524082
0.6648978 -0.16516152 0.82190788
1.4348233 -0.32072103 0.7920351
1.4280235 -0.31920117 0.80483502
0.75498754 -0.16875972 0.8098852
0.74718475 -0.16701566 0.81744772
0.72697681 -0.16249861 0.80938178
0.71351022 -0.15948845 0.80843467
0.68631327 -0.15340923 0.79312021
0.65366155 -0.14611073 0.78248209
1.3955069 -0.27758366 0.77453721
1.4316895 -0.28478074 0.811212
0.9353174 -0.18604623 0.82350963
0.89224607 -0.17747883 0.79780835
0.88625211 -0.1762865 0.80472368
0.86564416 -0.17218737 0.7981928
0.86687201 -0.1724316 0.81166506
0.8527264 -0.16961785 0.81251925
0.83238077 -0.1655709 0.8053748
0.82545596 -0.16419344 0.81275022
0.79834318 -0.15880035 0.79814196
0.81141835 -0.16140117 0.82731485
0.77680892 -0.15451692 0.80597293
0.74853724 -0.14889337 0.80599183
0.73492914 -0.14618655 0.80530035
0.70815396 -0.1408606 0.78966844
0.70792311 -0.14081468 0.80337787
0.70751113 -0.14073275 0.81714272
0.65440077 -0.13016845 0.7846756
1.4501061 -0.25308406 0.80965436
1.0769662 -0.18796076 0.80895895
1.0463686 -0.18262063 0.80041391
1.0481462 -0.18293087 0.81457084
1.0108775 -0.17642643 0.798123
1.0125811 -0.1767237 0.81212574
0.98425478 -0.17178003 0.80008388
0.96291655 -0.16805585 0.79507804
0.94932014 -0.16568296 0.79614097
0.93661338 -0.16346522 0.79601163
0.92308676 -0.16110443 0.79677862
0.90961748 -0.15875368 0.7973665
0.88792938 -0.15496854 0.79219073
0.89015943 -0.15535773 0.80472368
0.87590837 -0.15287052 0.8058629
0.85446495 -0.14912803 0.80003154
0.8484152 -0.14807217 0.80663884
0.84857947 -0.14810084 0.82102311
0.81407064 -0.14207812 0.79975176
0.81330115 -0.1419438 0.81485778
0.80019683 -0.13965674 0.81405222
0.79316825 -0.13843007 0.82110971
0.76557297 -0.1336139 0.80650192
0.75183731 -0.13121666 0.80599183
0.72389114 -0.12633924 0.79146695
0.71127599 -0.1241376 0.78966844
0.7035979 -0.12279754 0.79672503
0.67718774 -0.11818822 0.78041548
0.66282231 -0.11568107 0.79302233
1.4165521 -0.21296917 0.77776867
1.4270844 -0.21455263 0.79993576
1.0643436 -0.16001697 0.79822761
1.0740734 -0.16147976 0.81846839
1.0443132 -0.15700553 0.80849195
1.0069476 -0.15138786 0.7919836
1.0164635 -0.15281855 0.81212574
0.99487031 -0.14957212 0.80744123
0.96489102 -0.14506491 0.79720867
0.94447714 -0.14199583 0.79082251
0.94605345 -0.14223282 0.80452013
0.92490488 -0.13905324 0.79882103
0.9188531 -0.13814344 0.80593133
0.89876169 -0.13512279 0.7987923
0.89269704 -0.13421102 0.80571675
0.88571 -0.13316058 0.81356376
0.87227923 -0.13114138 0.81359142
0.85254484 -0.12817444 0.80569136
0.83751661 -0.12591507 0.80722445
0.83850998 -0.12606438 0.82061487
0.81641954 -0.12274324 0.81485778
0.7814846 -0.117491 0.80769897
0.78133863 -0.11746906 0.82177305
0.7606346 -0.11435633 0.81409925
0.73253995 -0.11013251 0.79959744
0.72561187 -0.10909092 0.80603135
0.70544273 -0.10605859 0.79749745
0.67809898 -0.10194765 0.78191334
1.4245298 -0.17996 0.77151096
1.4351922 -0.181307 0.79363137
1.1041181 -0.1394826 0.81600726
1.0819995 -0.13668837 0.81252271
1.021282 -0.12901793 0.77745569
1.0232267 -0.12926365 0.79138982
1.0172087 -0.1285034 0.79923296
0.98778397 -0.12478619 0.78842324
0.9903807 -0.12511425 0.80118197
0.96035796 -0.12132146 0.79088157
0.94671077 -0.11959746 0.79185557
0.92550534 -0.11691853 0.7862379
0.91952902 -0.11616354 0.79332995
0.920973 -0.11634596 0.80695254
0.90082377 -0.11380058 0.79979122
0.87256187 -0.11023026 0.7866925
0.88039094 -0.11121925 0.80780083
0.85880762 -0.10849269 0.80192202
0.85358208 -0.10783251 0.80757034
0.8465578 -0.10694518 0.81504762
0.83322996 -0.10526147 0.81458443
0.81115597 -0.10247286 0.80871838
0.80499876 -0.10169505 0.81494486
0.79702955 -0.10068827 0.82286435
0.76926965 -0.097181372 0.80819547
0.74949056 -0.094682716 0.7995618
0.74167377 -0.093695216 0.80693316
0.71462315 -0.090277933 0.79124182
1.4605958 -0.14964984 0.77450925
1.4546633 -0.149042 0.78571051
1.4303439 -0.14655034 0.78882146
1.1276246 -0.11553424 0.82165343
1.0884361 -0.11151906 0.80775636
1.073431 -0.10998171 0.81126422
1.034752 -0.10601871 0.79633415
1.0374042 -0.10629048 0.80925566
1.0077829 -0.10325553 0.79863113
0.98616409 -0.10104048 0.7938332
0.98694575 -0.10112058 0.80877239
0.95777971 -0.098132305 0.79720008
0.93560952 -0.095860742 0.79268247
0.92956805 -0.095241778 0.79983264
0.92258924 -0.09452673 0.80795658
0.89320987 -0.091516577 0.79611605
0.90191507 -0.092408471 0.81633925
0.8874597 -0.090927415 0.81746411
0.86577851 -0.088706009 0.81157798
0.83965415 -0.086029373 0.795726
0.84707153 -0.086789362 0.81690723
0.80540061 -0.082519762 0.81671309
0.78421944 -0.080349647 0.82349485
0.75659233 -0.077519022 0.80849171
0.73603964 -0.07541322 0.80041146
0.72151351 -0.073924892 0.80022085
0.701307 -0.071854584 0.79158407
0.6736232 -0.069018178 0.78934669
1.4532207 -0.11437099 0.77302557
1.437674 -0.11314742 0.78095502
1.4386737 -0.11322617 0.79993576
1.1068019 -0.087107234 0.81963515
1.0526744 -0.08284732 0.79209399
1.0298988 -0.081054859 0.78913784
1.0151252 -0.079892121 0.7919836
1.0090739 -0.07941588 0.7997269
0.99517494 -0.078322016 0.80118197
0.96587324 -0.076015942 0.78981674
0.95982581 -0.075539969 0.79720008
0.93847668 -0.073859803 0.79164785
0.91725492 -0.072189562 0.78583211
0.91125315 -0.071717225 0.79282677
0.90606064 -0.071308605 0.7987923
0.9148218 -0.071998082 0.8190344
0.87902081 -0.069180481 0.79914743
0.88669103 -0.069784157 0.82037133
0.86586088 -0.068144761 0.81347477
0.85153455 -0.06701728 0.81412381
0.83099216 -0.065400593 0.80670613
0.81595451 -0.064217053 0.80783314
0.80274677 -0.063177578 0.80697346
0.79569584 -0.062622659 0.81396961
0.77474946 -0.06097414 0.80650192
0.74714023 -0.058801282 0.79146945
0.74701732 -0.058791567 0.80530035
0.73325598 -0.05770855 0.80442864
0.72043341 -0.056699384 0.80259633
0.71255064 -0.056079019 0.80964601
1.4450135 -0.079523906 0.77149969
1.4294662 -0.078668341 0.77931827
1.4479184 -0.079683773 0.80794942
1.0987388 -0.060467295 0.81609839
1.0526061 -0.057928432 0.79439574
1.0385975 -0.057157535 0.79633415
1.0412595 -0.057304014 0.80925566
1.0115281 -0.055667777 0.79863113
0.989829 -0.054473657 0.7938332
0.96911424 -0.053333659 0.78770113
0.96221381 -0.052953888 0.79614097
0.93995625 -0.051728982 0.79164785
0.91870111 -0.050559241 0.78583211
0.91268986 -0.050228376 0.79282677
0.90661162 -0.049893904 0.79979122
0.89217347 -0.049099375 0.80100924
0.89343119 -0.04916852 0.81453252
0.87165028 -0.047969867 0.80871797
0.85730511 -0.047180403 0.80944544
0.8430143 -0.04639389 0.80998433
0.83592445 -0.046003751 0.81732118
0.80752051 -0.044440616 0.80345231
0.79959863 -0.044004638 0.8113603
0.80035615 -0.044046275 0.82461506
0.77244991 -0.042510528 0.8098852
0.75853002 -0.041744459 0.80931425
0.73877496 -0.040657271 0.80041146
0.72505909 -0.039902467 0.7994355
0.70476812 -0.038785774 0.79082078
1.4675176 -0.046118606 0.77450925
1.4519069 -0.04562806 0.78254968
1.4625416 -0.045962263 0.80483502
1.0900612 -0.034256566 0.81252271
1.0590444 -0.033281852 0.8038764
1.044955 -0.032839049 0.80584782
1.014298 -0.031875599 0.79641908
0.99950427 -0.031410743 0.79900223
0.98562342 -0.030974558 0.80030435
0.96319431 -0.030269612 0.79614097
0.94856381 -0.029809881 0.79808402
0.94332272 -0.029645165 0.80427825
0.92203456 -0.028976131 0.79838127
0.91592145 -0.028784087 0.80539393
0.89396232 -0.028093955 0.80002624
0.89522201 -0.028133532 0.81356376
0.88164693 -0.027706912 0.81359142
0.86988151 -0.027337184 0.81157798
0.85641164 -0.026913842 0.81131667
0.84930253 -0.026690474 0.81876302
0.84302181 -0.026493093 0.82523477
0.81454283 -0.025598129 0.81139672
0.80041343 -0.025154075 0.8113603
0.79330611 -0.024930706 0.81831771
0.77323699 -0.02429997 0.8098852
0.75930303 -0.023862084 0.80931425
0.71822047 -0.022571016 0.79281139
0.70548636 -0.02217086 0.79082078
0.68505961 -0.021528888 0.79544318
0.66346353 -0.0208502 0.78757942
1.4656477 -0.011511434 0.77932268
1.4228024 -0.011174905 0.77453727
1.4509523 -0.011396041 0.80635446
1.0682399 -0.008390178 0.79227072
1.0621524 -0.008342375 0.80041391
1.0233941 -0.0080379136 0.78530216
1.0182327 -0.007997443 0.7919836
1.0278553 -0.0080730226 0.81212574
0.9982214 -0.0078402655 0.80118197
0.97658062 -0.0076702731 0.79613531
0.96364015 -0.0075686174 0.79614097
0.93454546 -0.0073400922 0.78420085
0.94375926 -0.0074124536 0.80427825
0.93090695 -0.0073115132 0.80390227
0.91721636 -0.0072040162 0.80440181
0.90358692 -0.0070969663 0.80472368
0.89740914 -0.0070484485 0.81160778
0.88382775 -0.0069417562 0.81166506
0.86940545 -0.0068285074 0.81251925
0.8622821 -0.0067725391 0.82007545
0.84790736 -0.0066596181 0.82061487
0.80607694 -0.0063311062 0.80610168
0.79113048 -0.0062137148 0.80682951
0.78493977 -0.0061650779 0.81285393
0.77093333 -0.0060550775 0.81241924
0.75017506 -0.0058919988 0.80448902
0.72285932 -0.0056774807 0.78888667
0.70925659 -0.0055706394 0.78773344
0.68910366 -0.0054123583 0.77891392
1.4575346 0.022896718 0.77302563
1.4507341 0.022789847 0.78571701
1.461324 0.022956321 0.80802548
1.0850729 0.017045686 0.8030107
1.0540688 0.016558599 0.79439574
1.0470972 0.016449044 0.80356503
1.025167 0.016104588 0.79923296
1.0016148 0.015734594 0.79681867
0.97908312 0.015380601 0.79294366
0.9644118 0.01515014 0.79509771
0.94384092 0.014826994 0.78857118
0.93779975 0.014732073 0.79574782
0.91654062 0.014398109 0.78983927
0.90382034 0.014198314 0.78924471
0.89029378 0.013985794 0.78948176
0.8842333 0.013890575 0.79626536
0.89199561 0.014012555 0.81746411
0.85645503 0.013454179 0.79699665
0.86487383 0.013586501 0.81725675
0.84418577 0.013261477 0.80998433
0.84424067 0.01326234 0.82430685
0.81573606 0.012814531 0.81050014
0.80863297 0.012702951 0.81758875
0.79449904 0.012480924 0.81744444
0.76661682 0.01204289 0.80265409
0.76552898 0.012025842 0.81744772
0.73128265 0.011487822 0.79466575
0.71090764 0.011167776 0.78618419
0.70316309 0.011046152 0.79312021
1.4726523 0.057860684 0.80644107
1.1227826 0.04411418 0.81823784
1.0683054 0.041973781 0.79111427
1.0782187 0.042363238 0.81126422
1.0490479 0.0412171 0.80012453
1.0350047 0.040665369 0.80200458
1.0131546 0.039806914 0.79751676
0.99142033 0.038952928 0.79276001
0.9629181 0.037833076 0.78035724
0.96466017 0.037901532 0.79403669
0.95089811 0.037360858 0.79498231
0.92870516 0.036488872 0.79030079
0.90752965 0.03565691 0.7842949
0.9081617 0.035681706 0.7987923
0.90203351 0.035440933 0.80571675
0.88018054 0.034582358 0.80011642
0.86583251 0.034018617 0.8009848
0.8678686 0.034098607 0.81347477
0.85262841 0.033499815 0.81504762
0.81768686 0.032126945 0.79369766
0.81697261 0.032098901 0.80871838
0.81077129 0.031855203 0.81494486
0.78965801 0.031025657 0.80769897
0.776546 0.030510494 0.80650192
0.75574309 0.029693166 0.79873061
0.7623632 0.02995331 0.81994218
0.71472812 0.028081667 0.78228837
0.70034283 0.027516466 0.78183293
0.71331292 0.028026083 0.81043148
1.478704 0.093032129 0.79194647
1.4542296 0.091492362 0.7952643
1.0882874 0.068469174 0.79589087
1.0813143 0.068030484 0.80537635
1.0592242 0.066640712 0.80156285
1.0522028 0.066198923 0.81079394
1.0215275 0.064268984 0.8014679
0.99195117 0.06240819 0.7905935
0.97814125 0.061539363 0.79186648
0.96435648 0.060672145 0.79299152
0.94295949 0.059325915 0.78753275
0.93017071 0.058521312 0.78724688
0.9165625 0.057665151 0.78783751
0.91053879 0.057286214 0.79481906
0.89611417 0.056378704 0.79611605
0.88914645 0.055940341 0.80392116
0.86740917 0.054572713 0.79813731
0.87500829 0.055050828 0.8193472
0.84064966 0.05288912 0.79756558
0.83367151 0.052450102 0.80488563
0.84088194 0.052903779 0.82614696
0.80623919 0.050724246 0.81847751
0.77808869 0.048953183 0.81797403
0.76322943 0.048018254 0.81827569
0.74257237 0.046718638 0.8101874
0.71542913 0.045010936 0.79437715
0.6943782 0.04368652 0.78640342
0.66761154 0.04200254 0.78321809
1.4874843 0.12883003 0.79176569
1.4367411 0.12443526 0.78095508
1.1310835 0.097962327 0.81917846
1.0918065 0.094560601 0.80536741
1.0625641 0.09202797 0.79459941
1.0564814 0.091501124 0.80272937
1.0503511 0.090970226 0.81079394
1.0136119 0.087788261 0.79308504
1.0075423 0.087262578 0.80083936
0.97727305 0.084640957 0.79080546
0.9626593 0.083375283 0.79299152
0.93279094 0.080788448 0.78216004
0.92595536 0.080196358 0.79030079
0.90484244 0.078367807 0.7842949
0.9054727 0.078422345 0.7987923
0.89280468 0.077325203 0.79807305
0.90059608 0.078000017 0.81929398
0.88611561 0.076745905 0.82037133
0.86529893 0.074942924 0.81347477
0.84465402 0.073154904 0.80629271
0.83761197 0.072544999 0.8136605
0.83139068 0.072006173 0.82006377
0.79605061 0.068945386 0.7990306
0.78122896 0.06766168 0.79968947
0.76733381 0.066458263 0.79930103
0.76122391 0.065929063 0.80516547
0.74740022 0.064731814 0.80448902
0.72691619 0.062957712 0.79625946
0.70749563 0.061275672 0.78695309
1.4429951 0.15930809 0.78414649
1.099911 0.12143127 0.80768186
1.0689322 0.11801109 0.79941058
1.0549091 0.11646298 0.80156285
1.0321581 0.11395124 0.79860157
1.0112624 0.11164436 0.79308504
1.0052067 0.11097581 0.80083936
0.98361641 0.10859225 0.79599404
0.96214515 0.10622177 0.79088157
0.94082361 0.10386784 0.78546959
0.92638141 0.10227344 0.78724688
0.92879134 0.1025394 0.79983264
0.91432393 0.10094226 0.80138785
0.89246362 0.09852884 0.79611605
0.8790018 0.097042657 0.79626536
0.87206167 0.09627641 0.80395228
0.85051638 0.093897827 0.79793805
0.85253209 0.094120331 0.81038904
0.82397538 0.090967692 0.79705042
0.82413518 0.090985365 0.81124771
0.79593611 0.087872095 0.7972855
0.78200805 0.086334415 0.79712588
0.78802401 0.086998619 0.81917608
0.76033884 0.083942153 0.80432487
0.74654657 0.082419433 0.80366361
0.73282415 0.080904461 0.80282205
0.71251464 0.078662284 0.79437715
0.69154942 0.076347716 0.78640342
0.67818099 0.074871816 0.78489792
1.4919505 0.20039393 0.78988987
1.458855 0.19594868 0.78882575
1.4780605 0.1985283 0.81604153
1.1269817 0.15137257 0.81669968
1.080734 0.14516066 0.79589087
1.0667256 0.14327912 0.79822761
1.0448163 0.14033629 0.79439574
1.0309113 0.13846867 0.79633415
1.0178938 0.1367202 0.79699421
0.99625915 0.13381432 0.79244018
0.98250377 0.13196672 0.7938332
0.96194237 0.12920497 0.78770113
0.94829863 0.12737234 0.78873694
0.92711037 0.12452646 0.78317273
0.92784488 0.12462509 0.79779214
0.90593553 0.12168229 0.79282677
0.8775906 0.11787508 0.77996165
0.88557094 0.11894698 0.80100924
0.8868193 0.1191147 0.81453252
0.85792893 0.11523423 0.80192202
0.84548241 0.11356244 0.80072653
0.83939111 0.11274428 0.80722445
0.83237755 0.11180223 0.81458443
0.81119293 0.10895679 0.80783314
0.79718238 0.10707495 0.80785841
0.77630246 0.10427041 0.80055118
0.76247984 0.10241381 0.80014741
0.7487238 0.1005661 0.7995618
0.73417944 0.098612584 0.79959744
0.72056395 0.096783794 0.79863656
0.70702159 0.09496481 0.79749745
1.567342 0.24824257 0.80635864
1.4885137 0.23575737 0.78660387
1.1176884 0.17702444 0.80717707
1.0787264 0.17085345 0.79351002
1.0568254 0.16738461 0.78993821
1.0508302 0.16643511 0.79809469
1.0447874 0.16547801 0.80618608
1.0152414 0.16079842 0.7958824
1.0023049 0.15874945 0.79641908
0.98083013 0.15534817 0.79166859
0.95863122 0.15183221 0.78770113
0.94503456 0.14967878 0.78873694
0.93820041 0.14859627 0.79705656
0.90876341 0.14393391 0.78583211
0.89450151 0.14167507 0.78727078
0.88114029 0.13955884 0.78753734
0.88166606 0.13964213 0.80197561
0.87472028 0.13854201 0.80973488
0.85410458 0.13527678 0.80287331
0.84715194 0.13417561 0.81038904
0.84102255 0.13320486 0.81690723
0.81981486 0.1298459 0.81033552
0.79177862 0.12540536 0.79640454
0.79094934 0.12527402 0.8113603
0.76321417 0.12088121 0.81073534
0.73509139 0.11642698 0.79635763
0.73488021 0.11639351 0.8101874
0.71463513 0.11318702 0.80180126
0.68803889 0.10897461 0.78563797
0.68124115 0.10789794 0.79168707
1.4808543 0.27045202 0.78988987
1.0963427 0.20022772 0.79676944
1.0735564 0.19606619 0.79469138
1.0508907 0.19192667 0.79227072
1.0457672 0.19099091 0.79924548
1.0154331 0.18545096 0.79025531
0.99309343 0.18137096 0.78693706
0.98630011 0.18013038 0.7957167
0.97177988 0.17747842 0.79815114
0.94293636 0.17221065 0.78664762
0.93700677 0.17112772 0.79393548
0.93187499 0.17019059 0.80015254
0.90343142 0.1649958 0.78783751
0.89749408 0.16391148 0.79481906
0.88498265 0.16162644 0.7941553
0.87165982 0.15919326 0.79433411
0.8720749 0.15926908 0.80877608
0.8454929 0.15441437 0.80851585
0.83851999 0.15314092 0.81598532
0.80948907 0.14783891 0.80334985
0.79643792 0.14545535 0.80257672
0.79039305 0.14435138 0.80872828
0.78342038 0.14307792 0.81570899
0.77549785 0.14163099 0.82349485
0.75491828 0.13787253 0.81577545
0.72117621 0.1317101 0.79306823
0.70027649 0.12789316 0.78540194
0.67372936 0.12304477 0.78265488
0.65972644 0.12048741 0.78175682
1.5581849 0.32268453 0.79770553
1.4637195 0.30312163 0.78850645
1.1009989 0.22800584 0.80013418
1.0870426 0.22511567 0.80284578
1.0643722 0.22042082 0.80064124
1.0339903 0.21412908 0.79209399
1.0349638 0.21433069 0.80734873
1.004837 0.20809163 0.798123
0.98262513 0.20349182 0.7946313
0.97751129 0.20243277 0.80118197
0.94872969 0.19647239 0.78981674
0.92770499 0.19211845 0.78444493
0.92181939 0.19089957 0.79164785
0.90927303 0.18830134 0.79130602
0.8885144 0.18400241 0.7852931
0.88262361 0.18278252 0.79219073
0.87752759 0.18172719 0.79807305
0.87152779 0.18048467 0.80490029
0.84385377 0.17475365 0.79137343
0.85222834 0.17648797 0.81157798
0.83192134 0.17228259 0.80444115
0.82414097 0.17067133 0.81275022
0.81716448 0.16922657 0.82006377
0.78935325 0.16346712 0.80610168
0.78157282 0.16185589 0.81396961
0.74740905 0.15478094 0.79210013
0.74734467 0.15476762 0.80599183
0.73289078 0.15177433 0.80612379
0.7193746 0.1489753 0.80523688
0.68632078 0.14213015 0.78183293
0.69255877 0.14342196 0.80292743
0.66644675 0.13801445 0.78638458
1.4937866 0.34624112 0.77917802
1.4871058 0.34469253 0.79252952
1.0995498 0.25486189 0.79399973
1.0936184 0.25348708 0.80258524
1.071847 0.24844076 0.79938787
1.0658764 0.2470568 0.80775636
1.0286584 0.23843013 0.79209399
1.0080771 0.2336597 0.7868821
1.0099105 0.23408465 0.80086517
0.98859 0.2291428 0.79641908
0.98349088 0.22796087 0.80304384
0.95476323 0.2213022 0.79186648
0.92624682 0.2146924 0.78030366
0.92705435 0.21487959 0.79498231
0.89799643 0.20814432 0.78382289
0.88477331 0.20507936 0.7842949
0.89270681 0.20691828 0.80539393
0.87130433 0.20195745 0.80002624
0.87974304 0.20391341 0.82028747
0.85842896 0.19897307 0.81456083
0.85235184 0.19756447 0.82125795
0.81715983 0.18940745 0.80123323
0.82428825 0.19105972 0.8224628
0.80253875 0.18601842 0.81665701
0.77499068 0.17963316 0.80250943
0.78173429 0.1811962 0.82374716
0.73339075 0.16999079 0.80202311
0.72654468 0.16840394 0.80856222
0.69263273 0.16054361 0.78618419
0.67945194 0.15748848 0.78488368
1.4732918 0.378277 0.78129232
1.4992173 0.38493353 0.81650078
1.1309447 0.2903772 0.80811197
1.09324 0.2806963 0.79399973
1.0794634 0.27715904 0.79676944
1.0570281 0.27139866 0.79469138
1.042491 0.26766607 0.79822761
1.0210793 0.26216853 0.79439574
1.0220101 0.26240754 0.80965263
1.000721 0.25694141 0.80538094
0.97194856 0.2495539 0.7946313
0.965195 0.24781989 0.8033579
0.93675011 0.24051647 0.79192859
0.93085915 0.23900397 0.7992987
0.91752785 0.23558109 0.80015254
0.90338516 0.23194982 0.80186939
0.89012539 0.22854532 0.8023988
0.86799282 0.22286265 0.79807305
0.86121422 0.22112213 0.8058629
0.84725022 0.21753682 0.80681151
0.82647866 0.21220358 0.81504762
0.81955814 0.2104267 0.8224628
0.78418142 0.20134352 0.81671309
0.75782627 0.19457667 0.80139828
0.75102365 0.19283004 0.80819547
0.74501759 0.19128795 0.81409925
0.73151797 0.18782182 0.81345218
0.71155834 0.18269707 0.80523688
0.70387405 0.18072407 0.81240392
0.69058615 0.17731236 0.81120348
1.5081604 0.42534512 0.7791236
1.4827493 0.4181785 0.78707105
1.46755 0.41389191 0.79585803
1.1509861 0.3246116 0.81997454
1.1046052 0.31153086 0.80174547
1.0838236 0.30566975 0.79767931
1.0623009 0.2995998 0.79457951
1.0409014 0.2935645 0.79116619
1.03505 0.29191425 0.79941058
1.0223057 0.28832 0.80041391
1.0087583 0.28449923 0.80241305
0.98763084 0.27854061 0.798123
0.97419155 0.27475035 0.7997269
0.94659501 0.26696733 0.78758258
0.93248433 0.2629877 0.78981674
0.91840863 0.25901794 0.79185557
0.8978371 0.25321618 0.7862379
0.8993513 0.25364321 0.79983264
0.8925994 0.251739 0.80795658
0.8577953 0.24192326 0.78851777
0.85914165 0.24230297 0.80197561
0.8452701 0.23839076 0.8029871
0.83313334 0.23496784 0.80192202
0.80701154 0.22760074 0.78703886
0.82124978 0.23161633 0.81504762
0.80141169 0.22602139 0.80762219
0.76651722 0.21618019 0.80163419
0.77320224 0.21806552 0.82286435
0.75207192 0.21210615 0.81627125
0.72540379 0.20458497 0.80120802
0.72518003 0.20452185 0.81509793
0.69159633 0.19505031 0.79281139
0.69131225 0.19497018 0.80651963
0.65915984 0.18590222 0.78265494
0.65172631 0.18380575 0.78934675
1.4623389 0.4498741 0.78586125
1.1081514 0.34091184 0.80242103
1.0771456 0.33137316 0.79646033
1.0549475 0.32454422 0.79457951
1.0491245 0.32275277 0.80297464
1.0202146 0.31385893 0.79344481
1.029655 0.31676316 0.81361645
0.99252349 0.30533999 0.79860157
0.97829938 0.30096412 0.8014679
0.94915628 0.29199851 0.79166859
0.92767423 0.28538975 0.78770113
0.91370034 0.28109086 0.78977185
0.90707833 0.27905366 0.79808402
0.87941676 0.27054384 0.78583211
0.88088298 0.2709949 0.79937905
0.87501663 0.26919016 0.80640101
0.87537414 0.26930019 0.82103443
0.84815949 0.26092789 0.80780083
0.84138948 0.25884512 0.81551391
0.83626992 0.25727016 0.82125795
0.82247657 0.25302675 0.82195479
0.79502851 0.24458264 0.80852276
0.78739673 0.24223481 0.81665701
0.76709729 0.23598985 0.80961126
0.75364596 0.23185168 0.80942112
0.73281747 0.225444 0.80265409
0.72693139 0.22363327 0.80849171
0.70718443 0.21755828 0.80041146
0.68120217 0.20956507 0.78463119
0.674312 0.20744538 0.80446857
1.4909987 0.49743477 0.81386781
1.1204407 0.37380725 0.80608958
1.0833861 0.36144489 0.79229546
1.062117 0.35434899 0.78945822
1.0417594 0.34755716 0.78513777
1.0437098 0.34820786 0.79938787
1.0073695 0.33608383 0.78399879
1.0016549 0.33417729 0.79209399
0.98161405 0.32749113 0.7868821
0.96838552 0.32307777 0.78863823
0.94771373 0.31618118 0.78407151
0.95024931 0.31702709 0.79681867
0.91494244 0.30524781 0.77929717
0.90193182 0.30090711 0.78030366
0.89626008 0.29901487 0.78753275
0.87036121 0.2903744 0.78883088
0.85665923 0.28580302 0.79022241
0.8367222 0.27915153 0.78381783
0.84427315 0.28167075 0.80490029
0.83143818 0.27738869 0.80490118
0.81088239 0.27053076 0.79886347
0.81111234 0.27060744 0.81318408
0.7983681 0.26635563 0.81275022
0.79160976 0.26410091 0.82006377
0.76466829 0.25511259 0.80610168
0.73802745 0.24622452 0.80566055
0.72480035 0.24181163 0.80516547
0.71163821 0.2374204 0.80448908
0.68572563 0.22877531 0.78888673
0.6728217 0.22447024 0.7877335
0.65370399 0.21809208 0.77891397
0.62114108 0.20722827 0.78207433
1.0810342 0.38919622 0.7822988
1.0599155 0.38159302 0.7796573
1.0542769 0.37956294 0.78824615
1.0340806 0.37229189 0.78394896
1.0360428 0.3729983 0.7981776
0.99996954 0.36001113 0.78284919
0.99512732 0.35826778 0.78978842
0.98860472 0.35591951 0.79898798
0.96712804 0.34818745 0.7958824
0.94659799 0.34079617 0.79133445
0.94006461 0.33844405 0.80008388
0.91887426 0.33081496 0.79613531
0.89138025 0.3209165 0.78444493
0.88490552 0.31858549 0.79268247
0.86489552 0.31138149 0.78682727
0.84421378 0.30393556 0.7816816
0.84480363 0.3041479 0.79611605
0.81807655 0.29452556 0.78288275
0.83242816 0.29969248 0.81070817
0.82573998 0.2972846 0.818398
0.80617899 0.29024222 0.81131667
0.77916092 0.2805151 0.79794699
0.78601581 0.28298301 0.81914568
0.75927919 0.27335724 0.80521482
0.73363739 0.26412565 0.79000878
0.73367369 0.2641387 0.80396128
0.7270447 0.26175213 0.8107354
0.70749676 0.25471443 0.80285048
0.70005351 0.25203469 0.81018746
0.68707126 0.2473608 0.80922538
0.65543199 0.23596998 0.78563803
1.1407645 0.44132844 0.81534374
1.0885949 0.42114559 0.79101032
1.0744412 0.41566989 0.79548395
1.067926 0.41314942 0.805507
1.0394045 0.40211526 0.79676944
1.0253409 0.39667442 0.800578
1.0112952 0.39124057 0.80418456
0.99063545 0.38324782 0.80041391
0.96928519 0.37498805 0.79747742
0.96275777 0.37246281 0.80651647
0.93507701 0.36175391 0.7957167
0.92937654 0.3595486 0.8033579
0.90198737 0.3489525 0.79192859
0.88117957 0.34090257 0.78753275
0.86130267 0.33321276 0.78180993
0.85490698 0.33073848 0.78983927
0.84844619 0.32823893 0.79780835
0.8497113 0.32872844 0.81137425
0.82234412 0.31814083 0.79914743
0.82266426 0.31826472 0.81359142
0.79641867 0.30811107 0.79980296
0.78987908 0.30558109 0.80722445
0.78997391 0.30561778 0.82154673
0.77661967 0.3004514 0.82188249
0.73699933 0.28512344 0.7936855
0.72970331 0.28230083 0.80139834
0.71669644 0.27726883 0.8009795
0.70375246 0.2722612 0.80037886
0.67739141 0.26206291 0.78572506
0.67724162 0.26200491 0.79943556
0.6582889 0.25467271 0.79082084
0.63952899 0.24741504 0.7819134
1.1536856 0.4778721 0.81286383
1.1101972 0.45985863 0.79346836
1.0876218 0.45050761 0.79405385
1.0591359 0.43870842 0.78604454
1.0383943 0.43011695 0.78334945
1.0260906 0.42502055 0.78491741
1.02053 0.4227173 0.79336536
1.0074344 0.41729295 0.79589087
0.97953486 0.40573657 0.78631377
0.96657437 0.40036815 0.78837764
0.96018147 0.3977201 0.79747742
0.93996114 0.38934454 0.79308504
0.91182125 0.37768865 0.78328365
0.89109892 0.36910519 0.77929717
0.86580664 0.35862872 0.78113008
0.86731595 0.35925394 0.79473245
0.84687757 0.35078812 0.78983927
0.83353138 0.3452599 0.79121494
0.82793188 0.34294057 0.79807305
0.82146603 0.34026226 0.80586296
0.79375792 0.32878518 0.79419684
0.78813857 0.32645756 0.80072659
0.78833365 0.32653844 0.81504768
0.75523317 0.31282771 0.79458278
0.75536662 0.31288299 0.80871844
0.72930384 0.30208743 0.8085537
0.72915334 0.30202511 0.8226276
0.70428741 0.29172528 0.80683059
0.68518358 0.28381225 0.79879546
0.68494415 0.28371304 0.81262445
0.60257995 0.24959673 0.78421867
1.1159221 0.49334398 0.8018288
1.0874693 0.48076507 0.79446536
1.075119 0.47530511 0.79662031
1.0770627 0.4761644 0.81123567
1.0256288 0.45342568 0.78701359
1.0424342 0.46085531 0.81298405
1.0063086 0.44488427 0.79938787
0.98598677 0.43590006 0.79587758
0.96497619 0.42661142 0.79323614
0.95860833 0.42379621 0.80241305
0.93131173 0.4117285 0.7919836
0.93212527 0.41208819 0.80704743
0.89638382 0.39628702 0.79186648
0.87668115 0.38757664 0.78664762
0.87036926 0.3847861 0.79498231
0.84927303 0.37545958 0.79130608
0.83067352 0.36723679 0.78429496
0.83891851 0.37088186 0.80440187
0.8196224 0.36235118 0.79807311
0.81322157 0.35952139 0.80586296
0.78658968 0.34774759 0.79325169
0.78769594 0.34823662 0.8066389
0.7746073 0.34245026 0.80722451
0.7689538 0.3399508 0.81366056
0.76243043 0.33706689 0.82096636
0.73646826 0.32558912 0.80697352
0.73640293 0.32556024 0.82110977
0.7044363 0.31142795 0.79930109
0.69174141 0.30581561 0.79873067
0.6798991 0.30058014 0.79717553
0.65497363 0.28956074 0.78151399
0.65563035 0.28985107 0.79437721
0.63712943 0.28167188 0.78563803
1.0569186 0.49734804 0.78972638
1.0095571 0.47506148 0.77763158
1.0115448 0.47599682 0.79189903
1.0060377 0.47340533 0.80042195
0.99318188 0.46735582 0.80297464
0.95778018 0.45069703 0.788625
0.9530893 0.4484897 0.79553604
0.94038033 0.44250929 0.79747742
0.90552711 0.4261086 0.78189009
0.9134813 0.42985159 0.80304384
0.88679862 0.41729569 0.79186654
0.86808866 0.40849143 0.78559321
0.86262947 0.40592256 0.79290438
0.84330773 0.39683044 0.78724694
0.83175355 0.39139339 0.78682733
0.81945801 0.3856076 0.78727084
0.80643374 0.37947884 0.78851783
0.8076995 0.38007444 0.80197567
0.78875989 0.37116212 0.79529655
0.78908116 0.3713133 0.80967742
0.77688664 0.36557502 0.8094455
0.77699512 0.36562607 0.82383025
0.75751162 0.35645783 0.81732124
0.73177207 0.34434569 0.80345237
0.71188116 0.33498573 0.79712594
0.71185958 0.3349756 0.81113952
0.68669951 0.32313621 0.79625797
0.68657142 0.32307592 0.81014913
0.66176599 0.31140336 0.79466581
0.64332783 0.30272704 0.78618425
0.6318658 0.29733336 0.78411639
0.59556055 0.28024942 0.77920979
0.98734528 0.49334833 0.79457951
0.98189545 0.49062526 0.80297464
0.94047952 0.46993089 0.78151339
0.95017219 0.474774 0.80041397
0.92337489 0.46138418 0.79025537
0.9101156 0.45475888 0.7930851
0.89063984 0.44502741 0.7884233
0.87748706 0.43845534 0.79080552
0.87128037 0.43535405 0.79933554
0.84441197 0.42192864 0.78857124
0.83140916 0.41543153 0.79030085
0.8124522 0.40595925 0.78429496
0.80629879 0.40288454 0.79219079
0.80164349 0.40055847 0.79807311
0.80863935 0.40405411 0.81929404
0.78248638 0.39098623 0.80681157
0.76388842 0.38169333 0.79980302
0.75761575 0.37855905 0.80722451
0.75208634 0.37579614 0.81366056
0.72579813 0.36266065 0.80080861
0.72583073 0.36267695 0.81494492
0.71318537 0.35635847 0.81484681
0.68819737 0.34387267 0.80014747
0.681925 0.34073848 0.80683059
0.66498506 0.33227408 0.79717553
0.62849557 0.31404138 0.78030205
0.62753898 0.31356338 0.79465264
0.61545038 0.30752307 0.79319
0.93319422 0.49410084 0.79209405
0.92782795 0.49125957 0.80012459
0.90067595 0.47688332 0.79086357
0.88760793 0.46996415 0.79352754
0.86843628 0.45981321 0.78866357
0.85547704 0.4529517 0.79088163
0.84934503 0.44970495 0.79929876
0.82965797 0.43928117 0.79473251
0.82427686 0.43643203 0.80186945
0.80629396 0.42691064 0.79481912
0.80674613 0.42715001 0.8093847
0.78811908 0.41728747 0.8029567
0.77616143 0.41095626 0.80298716
0.77640915 0.41108739 0.81743252
0.75801629 0.40134889 0.8103891
0.74536687 0.39465135 0.81091219
0.72013366 0.38129103 0.79726076
0.73274595 0.38796893 0.82550806
0.68910277 0.36486101 0.79000878
0.68298382 0.3616212 0.79678309
0.67759323 0.35876703 0.80265415
0.64642489 0.34226429 0.78095454
0.64037746 0.3390623 0.7873078
0.62242544 0.32955724 0.77876741
0.61564475 0.32596701 0.78563803
0.87854427 0.49200836 0.79024535
0.88008237 0.49286973 0.80413586
0.85360241 0.47804022 0.79400283
0.8340717 0.4671025 0.78977191
0.81467146 0.45623785 0.78521174
0.80941045 0.45329154 0.79232663
0.79676217 0.44620818 0.79383141
0.77837455 0.43591058 0.7875374
0.78532928 0.43980545 0.80865884
0.76626402 0.42912838 0.80298716
0.7537334 0.42211092 0.80380869
0.74124914 0.41511935 0.80444121
0.73509598 0.41167343 0.81182438
0.71019751 0.39772961 0.79814202
0.69098169 0.38696823 0.79195958
0.70327169 0.39385098 0.82023799
0.67352182 0.37719026 0.79761887
0.66141039 0.37040752 0.79707873
0.6314677 0.35363883 0.78809142
0.61375272 0.34371793 0.77952904
0.82283539 0.48662338 0.78977191
0.81176883 0.48007864 0.78959227
0.79999238 0.47311407 0.79030085
0.8012954 0.4738847 0.80390233
0.77009684 0.45543391 0.78462154
0.77777928 0.4599773 0.80472374
0.76532739 0.45261329 0.80586296
0.74733585 0.44197306 0.79909259
0.74835688 0.44257694 0.81251931
0.72975093 0.43157345 0.80629277
0.72366685 0.42797527 0.81366056
0.69373488 0.41027355 0.79202747
0.68093497 0.4027037 0.7928161
0.69303304 0.40985852 0.82110977
0.66892153 0.39559898 0.80650198
0.64433414 0.38105804 0.79229307
0.62073165 0.36709958 0.79046196
0.79081988 0.49319994 0.78724694
0.77852648 0.48553306 0.78883094
0.75349909 0.46992463 0.7770521
0.75405329 0.47027022 0.79142249
0.75445151 0.47051859 0.80586296
0.72974437 0.45510978 0.79325169
0.7315228 0.45621896 0.80569142
0.71323204 0.44481182 0.79940134
0.7072857 0.44110328 0.80670619
0.69448656 0.43312103 0.80783319
0.67051822 0.41817302 0.7936855
0.73580116 0.48333091 0.78574038
0.73696381 0.48409468 0.79914749
0.73725075 0.48428315 0.81359148
0.72593075 0.47684726 0.81347483
0.70786947 0.46498325 0.80722451
0.70270306 0.46158952 0.81366056
0.69598681 0.45717782 0.82188249
0.67301637 0.44208902 0.80697352
0.64297551 0.42235583 0.78625566
0.63142347 0.41476762 0.78573042
0.63140857 0.41475782 0.79956186
0.72247869 0.49933568 0.80298716
0.71066415 0.49117014 0.80380869
0.71156806 0.49179485 0.81725681
0.68195397 0.47132728 0.79705048
0.68796623 0.47548261 0.8182413
0.66386074 0.45882231 0.80521488
0.66455632 0.45930305 0.81847757
0.64720052 0.44730768 0.81113952
0.61936349 0.42806834 0.78819191
0.60165697 0.41583064 0.79466581
0.56620836 0.3913306 0.77965921
