# .PCD v0.7 - Point Cloud Data file format
VERSION 0.7
FIELDS x y z
SIZE 4 4 4
TYPE F F F
COUNT 1 1 1
WIDTH 1446
HEIGHT 1
VIEWPOINT 0 0 0 1 0 0 0
POINTS 1446
DATA ascii
0.7493661 -0.28316182 -1.7228668
0.76516604 -0.28913203 -1.7149122
0.78556204 -0.29683912 -1.7266091
0.79373032 -0.29992563 -1.71118
0.8118974 -0.30679035 -1.7126303
0.83444953 -0.31531212 -1.7227514
0.86675698 -0.32752007 -1.7611256
0.87487817 -0.33058882 -1.7451932
0.89181387 -0.33698833 -1.7467704
0.8997066 -0.33997074 -1.7307074
0.92764586 -0.35052806 -1.748343
0.95125461 -0.35944906 -1.7569324
0.96556056 -0.36485484 -1.7479914
0.99248576 -0.37502906 -1.7657647
1.01175 -0.38230836 -1.7649653
1.016205 -0.38399181 -1.7384987
1.0522462 -0.39761066 -1.7614721
1.0716887 -0.40495732 -1.7599696
1.0945688 -0.41360304 -1.7678381
1.1037275 -0.41706374 -1.7492694
1.128562 -0.42644799 -1.7553889
1.158945 -0.43792871 -1.7693685
1.1679124 -0.44131726 -1.7503484
1.1949295 -0.45152611 -1.7541858
1.2203485 -0.46113113 -1.7590359
1.2402991 -0.46866992 -1.7555646
1.2735082 -0.48121855 -1.7662122
1.2954358 -0.48950431 -1.7606338
0.50205827 -0.17631026 -1.7404747
0.51636952 -0.18133602 -1.7357649
0.53355706 -0.18737182 -1.7404335
0.54786676 -0.19239707 -1.7354323
0.55906296 -0.19632888 -1.7208438
0.57456994 -0.20177452 -1.7257046
0.59341532 -0.20839256 -1.7398076
0.59936762 -0.21048287 -1.7162037
0.62175679 -0.2183454 -1.7393515
0.62921488 -0.22096449 -1.7148945
0.64331067 -0.22591455 -1.7090095
0.66984224 -0.2352318 -1.7407979
0.6877889 -0.2415342 -1.7437624
0.69840521 -0.24526238 -1.7281424
0.71084929 -0.24963246 -1.7224333
0.74340928 -0.26106668 -1.7289265
0.76160371 -0.26745608 -1.731048
0.77809107 -0.27324605 -1.7338717
0.81072408 -0.28470594 -1.7281693
0.8249222 -0.28969201 -1.7206051
0.84775251 -0.29770941 -1.7306602
0.86196971 -0.30270216 -1.7227535
0.8761214 -0.30767187 -1.7147156
0.91303211 -0.32063395 -1.7503046
0.9274087 -0.32568267 -1.7417934
0.93700594 -0.32905298 -1.7244837
0.96850049 -0.34011307 -1.7513509
0.98107529 -0.34452903 -1.743471
1.0101032 -0.35472289 -1.7599611
1.0345027 -0.36329141 -1.7675474
1.0508397 -0.36902857 -1.7566884
1.0755063 -0.37769085 -1.7636994
1.086578 -0.38157895 -1.7440888
1.116699 -0.39215669 -1.7588623
1.1364739 -0.39910114 -1.7567143
1.1562979 -0.40606287 -1.7543341
1.1743797 -0.4124127 -1.7530681
1.1942981 -0.41940758 -1.7502426
1.2216462 -0.42901155 -1.7538328
1.2473799 -0.43804851 -1.758453
1.2636223 -0.4437525 -1.7453774
1.2953714 -0.45490196 -1.7572641
1.3233347 -0.46472201 -1.7593517
1.3701316 -0.48115593 -1.7577338
0.51428282 -0.16710053 -1.7482822
0.52877295 -0.1718087 -1.7434967
0.54322284 -0.17650373 -1.7385784
0.5877406 -0.19096841 -1.7331163
0.60029501 -0.19504762 -1.7283524
0.61617386 -0.20020692 -1.7328435
0.62712371 -0.20376477 -1.717788
0.65360355 -0.21236859 -1.7391382
0.66624254 -0.21647526 -1.7230377
0.6878348 -0.22349103 -1.7353199
0.70040232 -0.22757442 -1.7297533
0.72054237 -0.23411831 -1.7424141
0.73884428 -0.24006499 -1.744872
0.75329757 -0.24476112 -1.7380261
0.76989269 -0.25015327 -1.7410022
0.77845222 -0.2529344 -1.7257278
0.79689562 -0.25892702 -1.7275168
0.85274953 -0.27707499 -1.7316315
0.88049519 -0.28609014 -1.7275649
0.89758569 -0.2916432 -1.7292149
0.9193424 -0.29871237 -1.7394483
0.94312823 -0.30644086 -1.748343
0.95105636 -0.30901691 -1.7320509
0.96539521 -0.31367585 -1.7232585
0.99925375 -0.32467714 -1.7486215
1.0087589 -0.32776555 -1.7308596
1.0432451 -0.33897081 -1.7554597
1.0595707 -0.34427533 -1.7446159
1.0791981 -0.35065269 -1.7432081
1.1059695 -0.35935119 -1.7486275
1.1364464 -0.36925375 -1.7632474
1.151037 -0.37399456 -1.7527527
1.1673322 -0.37928915 -1.7407973
1.202113 -0.39059016 -1.7638774
1.2167064 -0.3953318 -1.7527801
1.2425548 -0.40373045 -1.7576005
1.2685748 -0.41218489 -1.7620788
1.3111769 -0.42602712 -1.7527739
1.3494529 -0.43846372 -1.7718991
1.3641073 -0.44322526 -1.7594496
1.3804835 -0.44854623 -1.7452711
0.50980628 -0.15246433 -1.7404747
0.52538049 -0.157122 -1.745906
0.53521132 -0.16006206 -1.7321458
0.55387324 -0.16564316 -1.7468219
0.57154626 -0.17092851 -1.7511762
0.58299696 -0.174353 -1.7364663
0.60257322 -0.18020752 -1.7398076
0.61526889 -0.18400434 -1.7349601
0.62951934 -0.18826613 -1.740075
0.64915103 -0.19413725 -1.7536572
0.66194654 -0.19796391 -1.7484384
0.67656165 -0.20233478 -1.7315383
0.69840318 -0.20886675 -1.7437624
0.70739132 -0.21155478 -1.7289424
0.73149395 -0.21876301 -1.7507596
0.74219728 -0.22196399 -1.7348992
0.76862144 -0.22986649 -1.7553582
0.77515131 -0.23181935 -1.7301735
0.79785514 -0.23860921 -1.7410896
0.80817223 -0.2416947 -1.7247729
0.83112997 -0.2485605 -1.7352351
0.84996486 -0.25419331 -1.7365038
0.86445081 -0.25852552 -1.7286959
0.89239204 -0.26688173 -1.7472295
0.91154671 -0.27261022 -1.7478176
0.93543261 -0.27975363 -1.7569302
0.94535929 -0.28272229 -1.7396448
0.96169078 -0.28760648 -1.7298652
0.99075878 -0.29629961 -1.7468554
1.0102782 -0.30213723 -1.746325
1.0348877 -0.30949694 -1.7540865
1.059703 -0.31691834 -1.7615312
1.0743902 -0.32131073 -1.751812
1.1047022 -0.33037594 -1.7670836
1.1194341 -0.33478174 -1.7569543
1.1448305 -0.34237683 -1.7632474
1.1667975 -0.34894636 -1.7596648
1.186986 -0.35498396 -1.7571428
1.1978729 -0.35823986 -1.7367685
1.2350086 -0.36934578 -1.7580494
1.2686923 -0.37941936 -1.7693392
1.2892442 -0.38556567 -1.7656695
1.305804 -0.39051816 -1.7523617
1.3363894 -0.39966506 -1.7654549
1.3571039 -0.4058601 -1.7610073
1.3778452 -0.41206291 -1.7563162
0.51325679 -0.14041108 -1.7404747
0.53767085 -0.14709 -1.7220262
0.5564338 -0.15222301 -1.7366949
0.57541466 -0.15741555 -1.7511762
0.60624844 -0.16585073 -1.7505873
0.61910933 -0.16936907 -1.7457427
0.62856585 -0.17195609 -1.731426
0.65354466 -0.17878951 -1.7536572
0.66642678 -0.18231367 -1.7484384
0.68297684 -0.18684122 -1.7307607
0.70497918 -0.19286038 -1.7429599
0.7272383 -0.1989498 -1.7548912
0.74198198 -0.20298325 -1.7482449
0.76063073 -0.20808499 -1.7505833
0.77348709 -0.21160208 -1.7445178
0.78586948 -0.21498947 -1.7275095
0.8129518 -0.22239833 -1.7473547
0.82152629 -0.2247441 -1.7319021
0.8342725 -0.22823106 -1.7253406
0.85390466 -0.23360176 -1.7374629
0.87110627 -0.23830764 -1.7395355
0.87939757 -0.24057586 -1.7237411
0.91220909 -0.24955209 -1.7509136
0.92691219 -0.25357437 -1.742594
0.9557389 -0.26146045 -1.7602845
0.9705193 -0.265504 -1.7515707
0.99681687 -0.27269819 -1.7588609
1.0165423 -0.27809447 -1.758353
1.0212426 -0.27938032 -1.7320249
1.0612946 -0.29033723 -1.765151
1.0657645 -0.29156011 -1.7386025
1.1065806 -0.30272609 -1.7708576
1.1469922 -0.3137815 -1.7671587
1.1618232 -0.31783879 -1.7567143
1.1894819 -0.3254053 -1.7611771
1.2154633 -0.33251303 -1.7666308
1.2377967 -0.33862278 -1.7622696
1.2659479 -0.346324 -1.7656261
1.2963399 -0.3546384 -1.7795041
1.3072546 -0.35762432 -1.758292
1.3357531 -0.36542061 -1.7606338
1.3686093 -0.37440902 -1.7718991
1.3975424 -0.38232428 -1.7733593
1.387745 -0.37964404 -1.7298943
0.52954364 -0.13153924 -1.7572367
0.53848833 -0.13376114 -1.7333604
0.54827392 -0.13619189 -1.7195777
0.58505952 -0.14532945 -1.7384431
0.60484964 -0.15024534 -1.7418619
0.62109399 -0.15428047 -1.7464362
0.63927984 -0.15879788 -1.7501441
0.65058005 -0.16160487 -1.7350012
0.65983701 -0.16390428 -1.7205378
0.681674 -0.16932864 -1.7330748
0.69451177 -0.17251752 -1.7276547
0.7072798 -0.17568912 -1.7221464
0.72388625 -0.1798142 -1.7257043
0.74055719 -0.1839553 -1.7291139
0.74937785 -0.18614633 -1.7141126
0.77642518 -0.19286491 -1.7453846
0.79747522 -0.19809379 -1.7131236
0.83757639 -0.208055 -1.7262906
0.8547653 -0.21232475 -1.7285528
0.87647891 -0.21771847 -1.7395355
0.88028383 -0.21866356 -1.7149013
0.91783535 -0.22799139 -1.7509136
0.92141449 -0.22888051 -1.7261255
0.95500326 -0.23722397 -1.7526534
0.98133934 -0.24376588 -1.7602419
0.99620968 -0.24745972 -1.7513509
1.0060239 -0.24989758 -1.7337437
1.0257218 -0.25479054 -1.7331696
1.0711108 -0.26606524 -1.7748327
1.0705113 -0.26591632 -1.7397971
1.1010092 -0.27349201 -1.7553008
1.1299601 -0.28068343 -1.771668
1.1341203 -0.28171691 -1.7448227
1.1707374 -0.29081261 -1.7675979
1.1856629 -0.29452008 -1.7570035
1.2061079 -0.29959869 -1.7544357
1.2284677 -0.30515289 -1.7502426
1.2605113 -0.31311256 -1.7632844
1.2772359 -0.31726697 -1.75046
1.3097109 -0.32533377 -1.7627295
1.3443826 -0.33394623 -1.7730243
1.365389 -0.33916438 -1.7686945
1.3742088 -0.34135514 -1.7485785
1.3951386 -0.34655416 -1.7438717
0.51090252 -0.11420016 -1.7326387
0.52091968 -0.11643928 -1.7190359
0.54259485 -0.12128425 -1.7434967
0.54951417 -0.12283088 -1.7201879
0.56851542 -0.12707819 -1.734803
0.58144104 -0.12996741 -1.730299
0.5924806 -0.13243504 -1.7263626
0.6204316 -0.13868281 -1.7586163
0.63198727 -0.14126584 -1.7436272
0.64167279 -0.1434308 -1.7185119
0.66341734 -0.14829127 -1.7313251
0.6817826 -0.15239637 -1.734603
0.6946488 -0.15527232 -1.718416
0.71319723 -0.15941839 -1.7321476
0.73179364 -0.16357516 -1.7348835
0.75232494 -0.16816445 -1.736585
0.76123083 -0.17015515 -1.7215326
0.79040408 -0.17667617 -1.7518411
0.79512441 -0.17773132 -1.7275095
0.81218994 -0.1815459 -1.7302569
0.84412146 -0.18868344 -1.7588228
0.84591901 -0.18908523 -1.7244036
0.86057258 -0.19236068 -1.7167739
0.90168607 -0.20155065 -1.7285658
0.93507433 -0.20901375 -1.7555481
0.97930509 -0.21890052 -1.7646371
0.99241138 -0.22183017 -1.7569324
0.99741185 -0.22294788 -1.7307698
1.0322553 -0.23073633 -1.7560495
1.0624956 -0.23749582 -1.7723145
1.0671877 -0.23854466 -1.7457969
1.0786158 -0.2410991 -1.7265455
1.1092778 -0.24795292 -1.7419592
1.129475 -0.25246748 -1.7403007
1.1533278 -0.25779921 -1.7479916
1.1737068 -0.26235446 -1.7458472
1.2016219 -0.26859421 -1.7503034
1.2221668 -0.27318653 -1.7476205
1.244599 -0.27820069 -1.7433238
1.2710594 -0.28411537 -1.7481666
1.3054835 -0.29181004 -1.7591646
1.3144406 -0.29381222 -1.7395172
1.3594142 -0.30386502 -1.7669632
1.3823797 -0.30899829 -1.7610073
0.50786859 -0.10102125 -1.7552105
0.52001464 -0.10343727 -1.7410587
0.53598201 -0.10661337 -1.7464985
0.55392009 -0.11018147 -1.7511803
0.58381081 -0.11612712 -1.7410569
0.60194373 -0.11973397 -1.7452298
0.61685801 -0.1227006 -1.7398076
0.63514006 -0.12633716 -1.7436272
0.63936937 -0.12717839 -1.7206488
0.66829073 -0.13293122 -1.7521747
0.67962754 -0.13518624 -1.7368739
0.70002735 -0.13924401 -1.7392448
0.71488667 -0.14219971 -1.7329501
0.73357284 -0.14591663 -1.735707
0.74656504 -0.14850093 -1.7299387
0.76350248 -0.15187 -1.7332048
0.78873515 -0.1568891 -1.754475
0.80372143 -0.15987007 -1.7473904
0.81676936 -0.16246547 -1.7410896
0.83221799 -0.16553839 -1.7445946
0.84091687 -0.16726868 -1.7290981
0.87303728 -0.17365785 -1.7237312
0.89233321 -0.17749603 -1.7247425
0.91916531 -0.18283327 -1.7441638
0.9368937 -0.18635966 -1.7457378
0.94995517 -0.18895777 -1.7383844
0.98419052 -0.1957676 -1.7646371
0.98448896 -0.19582699 -1.7298652
1.014246 -0.201746 -1.7468554
1.0523951 -0.2093343 -1.7467524
1.0691781 -0.2126727 -1.7361245
1.1104356 -0.2208793 -1.7686563
1.138134 -0.22638886 -1.7742038
1.1405406 -0.22686754 -1.7486275
1.1664679 -0.23202477 -1.7549692
1.1981626 -0.23832922 -1.7692105
1.2019733 -0.23908727 -1.7421244
1.2339767 -0.24545316 -1.755749
1.2565986 -0.24995293 -1.7513947
1.2930975 -0.257213 -1.7736516
1.3082287 -0.26022279 -1.7620788
1.3232603 -0.26321268 -1.7503717
1.346099 -0.26775563 -1.7449138
1.3793739 -0.27437449 -1.7562877
1.396233 -0.2777279 -1.7423836
0.51577836 -0.090017639 -1.753502
0.52793211 -0.092138827 -1.7393097
0.55369169 -0.096634574 -1.7625513
0.5770064 -0.10070367 -1.7442827
0.59333229 -0.10355296 -1.7492094
0.61492366 -0.10732127 -1.7627395
0.62668455 -0.10937385 -1.7478282
0.63823611 -0.11138995 -1.7328435
0.66016901 -0.11521785 -1.7457954
0.67515171 -0.11783274 -1.7398808
0.70303142 -0.12269852 -1.7608781
0.71058285 -0.12401645 -1.736114
0.72933936 -0.12729 -1.7389541
0.74634159 -0.13025735 -1.7424141
0.74958551 -0.13082354 -1.7191296
0.76840121 -0.13410743 -1.7215326
0.78731501 -0.13740836 -1.7237325
0.82784629 -0.14448224 -1.7374394
0.87504822 -0.15272029 -1.7246934
0.89442819 -0.15610261 -1.725726
0.90922952 -0.15868591 -1.7177371
0.92869985 -0.162084 -1.7183845
0.95119178 -0.16600944 -1.7286049
0.9739207 -0.16997625 -1.7385588
0.98388517 -0.17171536 -1.7212158
1.0136992 -0.17691873 -1.7382501
1.04388 -0.18218617 -1.7548854
1.0589262 -0.18481214 -1.7455715
1.0896074 -0.19016685 -1.7615312
1.099398 -0.19187562 -1.7433898
1.12511 -0.19636305 -1.750334
1.1474324 -0.2002589 -1.7473681
1.1679455 -0.20383902 -1.7454091
1.1978476 -0.20905779 -1.7609816
1.2242763 -0.21367039 -1.7666614
1.245155 -0.21731426 -1.7638774
1.2660786 -0.220966 -1.7608575
1.2870446 -0.22462513 -1.7576005
1.3258878 -0.23140444 -1.7780252
1.324937 -0.23123838 -1.7409971
1.3459433 -0.23490466 -1.7370539
1.37314 -0.23965122 -1.7406763
0.51679254 -0.077696204 -1.7433555
0.53286821 -0.080113046 -1.7488663
0.55093408 -0.08282914 -1.7536279
0.56912243 -0.085563637 -1.7582031
0.60261953 -0.090599723 -1.7573392
0.60923421 -0.091594145 -1.7337947
0.62232304 -0.093561992 -1.7290344
0.63879871 -0.096039012 -1.7335548
0.66245598 -0.099595733 -1.7565969
0.66664255 -0.10022514 -1.7335347
0.68700659 -0.10328673 -1.7469269
0.69271481 -0.10414492 -1.7122499
0.72276092 -0.10866217 -1.7429599
0.74948508 -0.11267997 -1.7640791
0.76069701 -0.11436561 -1.7482449
0.77981621 -0.11724002 -1.7505832
0.79299682 -0.11922164 -1.7445177
0.80616134 -0.12120081 -1.7383366
0.81498194 -0.12252699 -1.7230471
0.83850932 -0.12606414 -1.7337561
0.86646384 -0.13026692 -1.7196428
0.89763474 -0.13495325 -1.7484106
0.90157866 -0.13554622 -1.7237411
0.92581856 -0.13919054 -1.7333164
0.95856601 -0.14411385 -1.7264943
0.98140347 -0.14754735 -1.7363977
0.99944365 -0.15025951 -1.7374219
1.0600013 -0.15936397 -1.7708474
1.0804369 -0.16243635 -1.7699351
1.0904019 -0.16393445 -1.7518702
1.1054783 -0.16620113 -1.7421812
1.1312963 -0.17008264 -1.7490971
1.1628017 -0.17481934 -1.7640097
1.1724236 -0.17626594 -1.7454091
1.2043241 -0.18106188 -1.7596648
1.2194635 -0.183338 -1.74897
1.2402785 -0.18646742 -1.7462643
1.2728165 -0.1913593 -1.7594657
1.2957684 -0.19480993 -1.754746
1.3168474 -0.19797905 -1.7512045
1.3519577 -0.20325764 -1.7617595
0.50527275 -0.063830718 -1.7472907
0.51376921 -0.064904064 -1.734338
0.53168643 -0.067167506 -1.7393097
0.55160069 -0.069683284 -1.7434967
0.56789398 -0.071741588 -1.7486993
0.58110964 -0.073411122 -1.7442827
0.59109163 -0.074672148 -1.730299
0.61218834 -0.077337302 -1.7546636
0.62208521 -0.078587517 -1.7404982
0.63526732 -0.080252841 -1.735654
0.65889663 -0.083237894 -1.7587855
0.66692734 -0.084252462 -1.7342749
0.68558306 -0.0866092 -1.7376348
0.71188021 -0.089931287 -1.7484962
0.72699112 -0.091840222 -1.7421679
0.74989897 -0.09473414 -1.7540743
0.76505673 -0.096649066 -1.7474115
0.77607161 -0.098040536 -1.7315024
0.79519629 -0.10045658 -1.7336872
0.81865931 -0.10342063 -1.7447065
0.85622495 -0.10816629 -1.7262906
0.88872856 -0.11227246 -1.7208011
0.91756606 -0.11591546 -1.7394068
0.93259048 -0.11781351 -1.7312698
0.94754374 -0.11970256 -1.7230009
0.9951756 -0.1257198 -1.7418152
1.0303217 -0.13015984 -1.7674829
1.0455848 -0.13208802 -1.758353
1.05889 -0.13376881 -1.7502451
1.0616435 -0.13411672 -1.7250582
1.1083571 -0.14001794 -1.7663634
1.1236075 -0.14194454 -1.7565472
1.1442212 -0.1445487 -1.7549541
1.1704131 -0.1478575 -1.7614402
1.1912111 -0.15048487 -1.759338
1.2177253 -0.15383436 -1.7652138
1.2386965 -0.15648361 -1.7625959
1.2674474 -0.16011573 -1.7664485
1.2826926 -0.16204168 -1.7552329
1.3137708 -0.16596772 -1.7693392
1.3410667 -0.16941608 -1.7736229
1.3563713 -0.17134948 -1.7617595
1.3838735 -0.17482378 -1.7654549
1.3885638 -0.17541631 -1.7360932
0.50762272 -0.052009936 -1.7365811
0.52556658 -0.053848397 -1.7416314
0.5466072 -0.056004193 -1.7560421
0.55877733 -0.057251137 -1.741663
0.57889092 -0.059311908 -1.7455565
0.5921483 -0.060670268 -1.7410569
0.61192083 -0.062696107 -1.7553409
0.63050747 -0.064600445 -1.7593143
0.64230299 -0.065809026 -1.7443383
0.65364635 -0.066971198 -1.740075
0.66327465 -0.067957744 -1.7256733
0.68922848 -0.070616908 -1.7476777
0.70438528 -0.072169885 -1.7307607
0.7232303 -0.074100688 -1.7337378
0.74218035 -0.07604225 -1.7365154
0.75722694 -0.077583894 -1.7299387
0.7803874 -0.079956874 -1.7414654
0.79773259 -0.081734046 -1.7445177
0.8043794 -0.082415059 -1.7193549
0.8408345 -0.086150177 -1.757292
0.92381513 -0.094652191 -1.737385
0.96269137 -0.098635383 -1.7731036
0.96836352 -0.099216565 -1.74712
0.99332851 -0.1017744 -1.7559444
0.99854875 -0.10230927 -1.7298652
1.0287308 -0.10540159 -1.7468554
1.0624858 -0.10886014 -1.7731817
1.0778385 -0.11043314 -1.7637938
1.1036706 -0.11307982 -1.7712212
1.1190046 -0.11465091 -1.7614721
1.1524775 -0.1180805 -1.7754585
1.1678466 -0.1196552 -1.7652811
1.1775458 -0.120649 -1.7466911
1.2096214 -0.12393535 -1.7609816
1.2305863 -0.12608339 -1.7584825
1.2534887 -0.12842996 -1.7543864
1.2686709 -0.12998547 -1.7433238
1.3134731 -0.1345758 -1.7722239
1.3348206 -0.13676305 -1.7686011
1.3562049 -0.138954 -1.764738
1.3899235 -0.1424088 -1.7763537
1.4134465 -0.14481886 -1.7703379
1.4098788 -0.1444533 -1.7346396
0.51910853 -0.040854614 -1.7439201
0.53719568 -0.042278122 -1.7488663
0.55540824 -0.043711465 -1.7536279
0.56254399 -0.04427309 -1.7303133
0.57887739 -0.045558523 -1.7354323
0.5952912 -0.046850335 -1.7404118
0.60523003 -0.047632527 -1.7263626
0.63378257 -0.049879681 -1.7586163
0.64905775 -0.051081877 -1.7530016
0.6607312 -0.052000593 -1.7379097
0.67566967 -0.053176265 -1.7428547
0.69450033 -0.054658245 -1.7461619
0.71154147 -0.055999409 -1.7392448
0.72278011 -0.056883942 -1.7237322
0.74958396 -0.05899344 -1.7448907
0.76071036 -0.059869152 -1.7291139
0.77982843 -0.061373722 -1.7315024
0.79527307 -0.062589273 -1.7354317
0.81694114 -0.064294532 -1.7473904
0.82348877 -0.064809874 -1.7221398
0.86036974 -0.067712501 -1.7262905
0.88442612 -0.069605753 -1.7365037
0.90411222 -0.071155086 -1.737561
0.93326324 -0.073449321 -1.7560538
0.93420565 -0.073523507 -1.7214687
0.96367395 -0.075842664 -1.7394483
0.99352515 -0.078191973 -1.7570412
0.99691719 -0.07845898 -1.7320509
1.0100578 -0.07949315 -1.7243736
1.0570325 -0.083190151 -1.7778251
1.0672776 -0.083996482 -1.7599611
1.0878031 -0.085611828 -1.7590495
1.0924071 -0.085974231 -1.7325574
1.1290467 -0.088857777 -1.7565472
1.1552352 -0.090918846 -1.763311
1.1594362 -0.091249481 -1.7365141
1.1969775 -0.094204076 -1.759338
1.2160327 -0.095703728 -1.7583246
1.2427906 -0.09780962 -1.7639459
1.2774789 -0.10053969 -1.7759615
1.2948141 -0.10190404 -1.7632844
1.3201305 -0.10389645 -1.7693392
1.3475586 -0.10605509 -1.7736229
1.3751608 -0.10822744 -1.77756
1.4029332 -0.1104132 -1.7811478
1.4058784 -0.11064488 -1.7532152
0.51232421 -0.028194796 -1.7461755
0.53331667 -0.029350113 -1.7607702
0.54373908 -0.029923659 -1.7470982
0.56199574 -0.030928385 -1.7518002
0.57723844 -0.03176723 -1.7468219
0.59565687 -0.032780867 -1.7511762
0.61558986 -0.033877861 -1.7654464
0.61892551 -0.034061443 -1.7324464
0.63744301 -0.035080504 -1.736357
0.65771222 -0.036196005 -1.7501441
0.67102128 -0.036928426 -1.7450691
0.68987066 -0.037965786 -1.7484384
0.7050792 -0.038802784 -1.7423426
0.71835768 -0.039533507 -1.7368935
0.74516875 -0.04100902 -1.7581643
0.75249696 -0.041412305 -1.7332436
0.77975434 -0.042912375 -1.7540072
0.78707927 -0.043315481 -1.7397499
0.81060845 -0.044610392 -1.7509494
0.82583427 -0.045448285 -1.7437981
0.84287286 -0.046385985 -1.7356018
0.85796368 -0.047216516 -1.7281692
0.88655889 -0.048790168 -1.7473501
0.90175045 -0.049626242 -1.7395353
0.91687334 -0.050458472 -1.7315881
0.95094526 -0.052333605 -1.7586826
0.96623302 -0.053174954 -1.7503046
1.0010762 -0.055092495 -1.7766292
1.0015696 -0.055119585 -1.7418152
1.0318834 -0.056787889 -1.7588609
1.0452784 -0.05752508 -1.7509094
1.0967215 -0.060356092 -1.7663406
1.1120704 -0.061200809 -1.7566884
1.1400794 -0.062742241 -1.7624649
1.1663967 -0.064190634 -1.7691236
1.1817673 -0.065036483 -1.7588623
1.2102779 -0.066605516 -1.7636302
1.2255989 -0.067448683 -1.7529855
1.2601293 -0.069348998 -1.7652662
1.2950476 -0.071270712 -1.7770121
1.2985686 -0.071464427 -1.7495749
1.3277112 -0.073068209 -1.7526677
1.3734535 -0.075585611 -1.7805653
1.384675 -0.076203115 -1.7591101
1.4042724 -0.077281661 -1.7562877
1.4195222 -0.078120902 -1.7439479
0.50330424 -0.015816879 -1.7489524
0.52423805 -0.016474733 -1.7636617
0.54400879 -0.017096056 -1.7262276
0.57215112 -0.017980469 -1.7170963
0.59948683 -0.018839519 -1.7606421
0.60633135 -0.019054633 -1.7371238
0.61955619 -0.019470228 -1.7324464
0.63809258 -0.020052802 -1.736357
0.64968228 -0.020416988 -1.7213645
0.67362249 -0.021169346 -1.7443292
0.69617826 -0.021878194 -1.7569739
0.71150804 -0.022359949 -1.7400161
0.71704179 -0.022533847 -1.7160836
0.73798376 -0.023191942 -1.7289424
0.75513792 -0.023731066 -1.732427
0.76428747 -0.024018629 -1.7174655
0.77963126 -0.0245008 -1.7215326
0.80302584 -0.025235992 -1.7328048
0.84621602 -0.026593279 -1.7455117
0.86584878 -0.027210277 -1.7470161
0.88293451 -0.027747225 -1.738435
0.92528045 -0.029077988 -1.75026
0.93385583 -0.029347491 -1.7343447
0.96339864 -0.030275952 -1.7524116
0.98843336 -0.031062644 -1.7613729
1.0037588 -0.031544279 -1.752676
1.0341417 -0.032499146 -1.7697444
1.0495384 -0.032982957 -1.760648
1.0733306 -0.033730637 -1.7696677
1.0762895 -0.03382368 -1.7444073
1.1055318 -0.034742665 -1.7615312
1.1316317 -0.035562824 -1.7686563
1.1360914 -0.035703015 -1.7419592
1.1548632 -0.036292922 -1.7415723
1.1980003 -0.03764857 -1.7728446
1.2190881 -0.038311254 -1.7705526
1.228743 -0.038614701 -1.7516563
1.251709 -0.039336454 -1.7476205
1.2904748 -0.040554713 -1.7689347
1.3058547 -0.041038048 -1.7576005
1.3411466 -0.042147111 -1.7686011
1.3687426 -0.043014359 -1.7726516
1.3860861 -0.043559384 -1.7591101
1.4138889 -0.044433128 -1.762539
0.51207113 -0.0040218043 -1.7568913
0.52738273 -0.0041420269 -1.7523556
0.54073226 -0.0042468719 -1.7482822
0.54802525 -0.0043041534 -1.7250361
0.57740289 -0.0045349109 -1.7575793
0.58951414 -0.004630011 -1.7430007
0.60282081 -0.0047345278 -1.7384431
0.62804353 -0.0049326224 -1.7613735
0.63116813 -0.0049571819 -1.7283524
0.64246619 -0.0050459034 -1.7241843
0.66275382 -0.0052052555 -1.7379097
0.6815387 -0.0053528068 -1.7413719
0.70415986 -0.0055304575 -1.7539179
0.72324479 -0.0056803632 -1.7569532
0.73466176 -0.0057700393 -1.7413611
0.7537967 -0.0059203319 -1.7440629
0.76303911 -0.0059928717 -1.7291139
0.78855574 -0.0061933212 -1.7505832
0.80188411 -0.0062979572 -1.7445177
0.81519616 -0.0064025638 -1.7383366
0.82411563 -0.00647263 -1.7230471
0.84849596 -0.0066641085 -1.7445945
0.85736489 -0.0067337574 -1.729098
0.87242091 -0.0068520135 -1.7215501
0.91911817 -0.00721876 -1.742432
0.93428814 -0.0073379101 -1.7343447
0.97348297 -0.0076457658 -1.7699357
0.9742043 -0.0076514306 -1.735214
1.0091949 -0.0079262359 -1.7613527
1.0194794 -0.0080070011 -1.7438457
1.0481184 -0.0082320077 -1.7617832
1.0492885 -0.0082411887 -1.7377646
1.0906297 -0.0085658524 -1.7711164
1.100726 -0.0086451881 -1.7530624
1.1194462 -0.0087921731 -1.753044
1.1456116 -0.008997689 -1.7599696
1.1719824 -0.0092048747 -1.7665708
1.1873534 -0.0093255145 -1.7562759
1.2196523 -0.009579191 -1.7705526
1.2312371 -0.0096702091 -1.7503034
1.2639375 -0.0099270446 -1.7638774
1.2811773 -0.010062467 -1.7513947
1.3083602 -0.010275911 -1.7561857
1.343711 -0.010553609 -1.7671245
1.3774463 -0.01081855 -1.7790517
1.399109 -0.010988722 -1.7748164
1.4020252 -0.011011612 -1.7469413
0.50051546 0.0078628259 -1.7602051
0.51392436 0.0080734687 -1.7563361
0.52157074 0.0081936 -1.7332041
0.54068226 0.0084938295 -1.7482822
0.56008446 0.0087986188 -1.7631584
0.56234145 0.0088340817 -1.7309228
0.57552516 0.0090412078 -1.726583
0.60030317 0.0094304271 -1.7498705
0.61554873 0.0096699186 -1.7445648
0.63756633 0.010015805 -1.7579274
0.64750326 0.010171909 -1.7436272
0.66625535 0.010466475 -1.7472533
0.67592669 0.010618406 -1.7328042
0.69102049 0.010855514 -1.7268389
0.71744597 0.01127066 -1.7376835
0.73647738 0.011569638 -1.7405652
0.74579298 0.011715966 -1.7257043
0.76486903 0.012015629 -1.7282739
0.78817302 0.01238172 -1.7397499
0.84652936 0.013298441 -1.7455117
0.85095203 0.013367938 -1.7210758
0.8666873 0.013615148 -1.7244035
0.88896012 0.013965028 -1.7355272
0.90216953 0.014172482 -1.7286958
0.92382348 0.014512706 -1.7285657
0.94653982 0.014869559 -1.7390345
0.96653455 0.015183675 -1.7394482
0.98472548 0.015469421 -1.7407116
1.0098753 0.01586451 -1.7493714
1.0181214 0.015994001 -1.7329954
1.0364689 0.016282249 -1.7337437
1.0775858 0.016928187 -1.7673206
1.0824054 0.017003883 -1.7408646
1.1189698 0.017578295 -1.765134
1.1416638 0.017934788 -1.7624649
1.1735271 0.01843535 -1.7774686
1.1797513 0.018533159 -1.7492694
1.2138672 0.019069064 -1.7623175
1.2349418 0.019400168 -1.7598416
1.2463483 0.01957934 -1.7394921
1.2909526 0.020279994 -1.7689347
1.3123032 0.020615449 -1.7656261
1.3438079 0.021110406 -1.7795041
1.3531884 0.021257687 -1.7597811
1.3951046 0.021916142 -1.7778646
1.4187237 0.022287181 -1.7718991
0.51169217 0.020104561 -1.7568913
0.52506679 0.02063005 -1.7529345
0.54328465 0.021345813 -1.7578356
0.55859196 0.021947253 -1.753024
0.57073796 0.022424448 -1.7385784
0.58719283 0.02307098 -1.7436377
0.60237461 0.023667503 -1.7384431
0.62422264 0.024525899 -1.7519544
0.64291364 0.025260258 -1.7558256
0.66171944 0.025999147 -1.7595031
0.67893255 0.026675481 -1.752923
0.69049931 0.027129907 -1.7376348
0.70374334 0.027650254 -1.7215053
0.7303201 0.02869444 -1.7429599
0.75337934 0.02960046 -1.7548912
0.75657988 0.029726194 -1.7207856
0.77786028 0.0305623 -1.7332048
0.79524028 0.031245191 -1.7362939
0.80844963 0.031764168 -1.7301733
0.83725965 0.03289612 -1.7275167
0.85925925 0.033760507 -1.7390037
0.87889743 0.034532119 -1.7403581
0.93550158 0.036756087 -1.7333163
0.96313107 0.037841637 -1.7524115
0.98137134 0.038558293 -1.7537169
0.99662608 0.039157677 -1.7450796
1.0218726 0.040149588 -1.7535862
1.0422336 0.040949572 -1.7531892
1.0730326 0.042159665 -1.7696677
1.0797909 0.042425204 -1.7420539
1.1109638 0.04365002 -1.7579119
1.1208354 0.044037808 -1.7397381
1.1524261 0.045279074 -1.7549541
1.1676852 0.045878578 -1.7448227
1.1997532 0.047138561 -1.759338
1.2131569 0.047665108 -1.7501081
1.2456723 0.048942734 -1.7639459
1.2551682 0.049315799 -1.7448841
1.2998781 0.051072467 -1.7741783
1.3093206 0.051443446 -1.754746
1.3427166 0.052755523 -1.7671245
1.3580743 0.053358961 -1.7553309
1.3999916 0.055005956 -1.7733014
1.4154013 0.05561142 -1.7610073
0.50927329 0.032040868 -1.7365811
0.56288588 0.03541391 -1.7619323
0.57508421 0.036181349 -1.7474464
0.59028137 0.037137467 -1.7423514
0.608724 0.038297791 -1.7465647
0.64403594 0.040519405 -1.7551284
0.65740764 0.041360695 -1.7501441
0.67429721 0.042423267 -1.7544011
0.68766254 0.043264199 -1.7491851
0.69722879 0.043866027 -1.734603
0.71611857 0.045054484 -1.7376835
0.73511481 0.046249617 -1.7405652
0.7621547 0.047950823 -1.7615961
0.77341866 0.048659492 -1.745725
0.79495269 0.050014306 -1.7579672
0.80603504 0.050711531 -1.7418771
0.82117486 0.051664103 -1.7347629
0.84060764 0.052886683 -1.7365142
0.85126585 0.053557266 -1.7201389
0.87072623 0.054781575 -1.7215501
0.9108035 0.057303 -1.7345757
0.94004732 0.059142876 -1.7529726
0.95047837 0.059799124 -1.735919
1.0022727 0.063057773 -1.7526759
1.0275735 0.064649604 -1.7611114
1.0479845 0.065933727 -1.760648
1.073652 0.067548625 -1.7685046
1.0784918 0.067853078 -1.7420539
1.1222435 0.070605688 -1.7735796
1.13223 0.07123398 -1.7553008
1.158455 0.072883956 -1.7620357
1.173757 0.073846631 -1.7518394
1.1946046 0.075158231 -1.7497631
1.2269181 0.077191286 -1.7638632
1.2480112 0.078518324 -1.761222
1.276907 0.080336325 -1.7650651
1.2981585 0.081673317 -1.7618779
1.315374 0.082756393 -1.7490119
1.3427078 0.084476165 -1.753311
0.50927263 0.044107918 -1.7467386
0.53020245 0.045920614 -1.7613565
0.54360133 0.047081102 -1.7572367
0.55693805 0.04823615 -1.753024
0.56217897 0.048690099 -1.7303133
0.58988661 0.051089812 -1.7632424
0.60194004 0.052133787 -1.7485566
0.62237436 0.053903569 -1.7519544
0.63566864 0.055054981 -1.7471389
0.64895618 0.056205828 -1.7422103
0.65861553 0.057042409 -1.7278517
0.67725354 0.058656622 -1.7313251
0.69222993 0.059953738 -1.736123
0.71107972 0.061586279 -1.7392448
0.72815764 0.063065425 -1.7429599
0.74138051 0.064210638 -1.7373347
0.75858283 0.065700516 -1.7407571
0.78458321 0.06795235 -1.7181128
0.80372059 0.069609836 -1.7202289
0.84228218 0.072949693 -1.7238442
0.86170197 0.074631587 -1.7253405
0.88121158 0.076321289 -1.7266271
0.90813529 0.078653172 -1.746426
0.92328405 0.079965189 -1.738405
0.9383626 0.081271127 -1.7302516
0.967888 0.083828293 -1.7481892
1.0027109 0.086844258 -1.7744375
1.013109 0.087744854 -1.7569323
1.0214037 0.088463292 -1.7404909
1.0570213 0.091548108 -1.7657647
1.0827435 0.093775891 -1.7734916
1.098121 0.095107727 -1.7639402
1.1187679 0.096895926 -1.7626883
1.1483798 0.099460594 -1.7792503
1.1638049 0.10079657 -1.7691236
1.1791414 0.10212486 -1.7588623
1.2000219 0.10393333 -1.7567143
1.2285899 0.10640752 -1.7611771
1.2554255 0.10873174 -1.7666308
1.2707368 0.11005788 -1.755567
1.3115698 0.11359446 -1.7751002
1.3389612 0.11596673 -1.7795041
1.362399 0.11799669 -1.7741324
1.3673519 0.11842565 -1.7449138
0.50242287 0.055468131 -1.7483977
0.52041286 0.057454232 -1.753502
0.52974904 0.05848496 -1.729753
0.5739336 0.063362978 -1.7575793
0.57774818 0.063784108 -1.7246851
0.60896838 0.067230843 -1.7667873
0.61901653 0.068340205 -1.7526402
0.62362641 0.068849131 -1.7297254
0.64901805 0.071652375 -1.752296
0.66774434 0.073719792 -1.7558709
0.67744374 0.074790612 -1.7413719
0.68881893 0.076046422 -1.726078
0.7112962 0.078527942 -1.7276547
0.73402202 0.08103694 -1.7397542
0.74908435 0.08269985 -1.7332436
0.75816941 0.083702818 -1.7183052
0.78949261 0.087160908 -1.748
0.80693233 0.089086287 -1.7509494
0.81782955 0.090289339 -1.7347629
0.83284551 0.091947123 -1.7275167
0.87616527 0.096729651 -1.73939
0.90035987 0.099400781 -1.7493917
0.91085231 0.10055913 -1.7325807
0.94474053 0.10430046 -1.759712
0.95805335 0.10577019 -1.7524115
0.97808313 0.10798147 -1.7526532
0.99324811 0.10965575 -1.7439994
1.0183706 0.11242925 -1.7524785
1.0386239 0.11466526 -1.7520593
1.0744438 0.11861982 -1.777048
1.0898167 0.120317 -1.7675474
1.1051066 0.12200501 -1.7579119
1.1256984 0.12427842 -1.7565472
1.1371014 0.12553726 -1.7490971
1.1558625 0.12760858 -1.7486275
1.1877142 0.13112502 -1.7632474
1.2142586 0.13405554 -1.7692105
1.2352769 0.13637589 -1.7666614
1.248634 0.13785063 -1.7571313
1.2755296 0.14081989 -1.7622696
1.2907666 0.14250211 -1.7510039
1.3178862 0.14549612 -1.7555646
1.3451823 0.14850967 -1.7597811
1.3787788 0.15221868 -1.7715243
1.4084233 0.15549152 -1.7734334
1.4237522 0.15718387 -1.7610006
0.51320958 0.068932794 -1.7552105
0.52073884 0.069944099 -1.732062
0.54266429 0.072889052 -1.7566452
0.55293608 0.074268743 -1.7428843
0.58428532 0.078479454 -1.7430007
0.60072112 0.080687068 -1.7478912
0.61581552 0.082714483 -1.7425354
0.63576937 0.085394643 -1.7565321
0.64745617 0.086964354 -1.7415044
0.66605532 0.089462534 -1.7450691
0.68476522 0.091975592 -1.7484384
0.70362687 0.09450902 -1.7407979
0.72442085 0.097302012 -1.7537806
0.7395615 0.099335656 -1.7473354
0.75067395 0.10082822 -1.7315953
0.77777445 0.10446828 -1.7522994
0.7929002 0.10649993 -1.7453845
0.79767418 0.10714115 -1.7211149
0.81922436 0.11003573 -1.7329638
0.85161424 0.11438622 -1.7281692
0.87550813 0.1175956 -1.738435
0.89051032 0.11961065 -1.7306601
0.91473126 0.12286387 -1.7404226
0.93446863 0.12551494 -1.7410957
0.97059917 0.13036789 -1.7667319
0.98584235 0.13241528 -1.7581185
1.0059661 0.13511823 -1.7580316
1.026163 0.13783108 -1.7577235
1.0547056 0.14166476 -1.7755075
1.0700215 0.14372198 -1.7661533
1.0904988 0.14647241 -1.7651509
1.1216718 0.15065952 -1.7808015
1.1262535 0.1512749 -1.7540722
1.1577648 0.15550737 -1.7691236
1.1749376 0.15781395 -1.7575598
1.2032119 0.16161166 -1.7623175
1.2354885 0.16594701 -1.7762122
1.2642726 0.16981314 -1.7801343
1.2737776 0.17108987 -1.7608575
1.2889585 0.17312895 -1.7495749
1.3160049 0.17676167 -1.7541056
1.343227 0.18041812 -1.758292
1.3866993 0.18625711 -1.7748164
1.4124652 0.18971793 -1.7797048
1.4215415 0.19093703 -1.7594496
0.5030185 0.079670429 -1.7472907
0.51900244 0.08220204 -1.7529345
0.52825439 0.083667397 -1.7291752
0.55103284 0.087275177 -1.7428843
0.57222009 0.090630911 -1.7569433
0.59051639 0.093528725 -1.7612901
0.6024183 0.095413819 -1.7465647
0.61888528 0.098021947 -1.7512774
0.63736445 0.10094874 -1.7551284
0.64548957 0.10223563 -1.7307198
0.67109114 0.10629051 -1.752923
0.67514861 0.10693316 -1.729838
0.69934404 0.11076532 -1.741565
0.71432811 0.1131386 -1.7353199
0.75015736 0.11881338 -1.7415932
0.76111269 0.12054853 -1.7257681
0.788275 0.12485065 -1.746263
0.82251799 0.13027419 -1.7410895
0.83375537 0.13205399 -1.7356018
0.85561097 0.13551559 -1.7470161
0.87510097 0.13860251 -1.74831
0.8855949 0.14026456 -1.7316314
0.9143399 0.14481734 -1.75026
0.93125212 0.14749597 -1.7410957
0.97011793 0.1536517 -1.7765591
0.96896869 0.15346973 -1.7428559
0.98887336 0.15662225 -1.7428995
1.0138466 0.16057767 -1.7513508
1.0289031 0.16296236 -1.7423265
1.0695925 0.16940697 -1.7758584
1.0829393 0.17152084 -1.7675472
1.103412 0.1747634 -1.7663633
1.1239467 0.17801572 -1.7649516
1.1499649 0.18213667 -1.771668
1.1781138 0.18659501 -1.776747
1.1933831 0.18901341 -1.7662704
1.2198561 0.19320635 -1.7720672
1.2350835 0.19561808 -1.761222
1.2636797 0.20014738 -1.7650651
1.30231 0.20626579 -1.7860132
1.3017483 0.20617674 -1.7490119
1.3389021 0.21206139 -1.7706697
1.3723295 0.21735571 -1.7824333
1.3999203 0.22172575 -1.7859063
1.4234008 0.22544466 -1.7796644
1.4449681 0.2288606 -1.7747366
0.50939268 0.093031757 -1.7552105
0.52157515 0.095256656 -1.7410587
0.56934166 0.10398038 -1.7360697
0.58556277 0.10694286 -1.7410569
0.6070137 0.11086049 -1.7546636
0.62726963 0.11455988 -1.7579274
0.64047104 0.11697095 -1.7530016
0.64661455 0.11809291 -1.7292899
0.66673094 0.12176679 -1.7428547
0.68342328 0.12481536 -1.7469269
0.6909641 0.12619258 -1.7222787
0.70767999 0.12924542 -1.7260894
0.73019767 0.13335787 -1.7381389
0.75297558 0.13751788 -1.7499191
0.76394832 0.13952185 -1.7340462
0.79296935 0.14482205 -1.7536037
0.82721925 0.15107723 -1.7482803
0.83167893 0.15189169 -1.7238442
0.8533864 0.15585621 -1.735235
0.87272561 0.15938817 -1.7365037
0.9274528 0.16938303 -1.7638426
0.94255924 0.17214198 -1.755548
0.95945323 0.17522739 -1.7460655
0.99389398 0.18151738 -1.7722375
0.9991771 0.18248226 -1.7460656
1.0323236 0.18853591 -1.7726709
1.0985426 0.20062961 -1.778469
1.1137681 0.20341028 -1.7686561
1.1342845 0.20715724 -1.7670835
1.1548584 0.21091469 -1.765281
1.1773635 0.21502484 -1.7619532
1.1980426 0.21880151 -1.7596648
1.2377042 0.22604512 -1.7802787
1.2471925 0.22777794 -1.7611157
1.2874273 0.23512606 -1.7808275
1.3026658 0.23790918 -1.7693392
1.3256773 0.24211185 -1.7641888
1.3629991 0.248928 -1.7854604
1.3904716 0.25394541 -1.7889942
1.4119421 0.25786662 -1.7843835
1.4416035 0.26328367 -1.7856543
0.50243866 0.10405017 -1.7461755
0.51546544 0.1067479 -1.7422112
0.52951372 0.10965713 -1.7482822
0.54258525 0.11236413 -1.7440974
0.56166744 0.11631586 -1.758835
0.56549561 0.11710863 -1.725949
0.57971287 0.12005289 -1.7315947
0.60234374 0.12473952 -1.7553409
0.61877495 0.12814228 -1.7599992
0.63040167 0.13055001 -1.7450359
0.652228 0.13507007 -1.7580541
0.66180009 0.13705234 -1.7435989
0.67667437 0.14013265 -1.7376348
0.6951946 0.14396803 -1.7299935
0.71191108 0.14742981 -1.7337378
0.73254997 0.15170394 -1.746527
0.75138044 0.15560351 -1.7490897
0.7684539 0.15913926 -1.7522994
0.78747869 0.1630791 -1.754475
0.79412562 0.16445564 -1.7292827
0.81734234 0.16926359 -1.7401727
0.83218139 0.17233662 -1.7328225
0.85385633 0.17682527 -1.7441795
0.87318325 0.18082769 -1.7454089
0.88806498 0.18390955 -1.7375609
0.91669846 0.18983923 -1.7560537
0.93635118 0.19390915 -1.7566005
0.96083939 0.19898041 -1.765671
0.99230361 0.20549633 -1.7820226
1.0142956 0.21005069 -1.7806412
1.0194781 0.21112393 -1.7543349
1.0363089 0.21460937 -1.7440202
1.0717837 0.22195585 -1.7687327
1.0973076 0.22724159 -1.7760284
1.1158284 0.23107709 -1.7758464
1.1363208 0.23532088 -1.7742037
1.1642177 0.24109803 -1.7793449
1.1867719 0.24576877 -1.7758576
1.2186725 0.25237504 -1.7898448
1.2244974 0.2535814 -1.761222
1.2509776 0.25906515 -1.7664485
1.2853318 0.26617956 -1.7779682
1.312245 0.27175307 -1.7824318
1.3214737 0.27366424 -1.7627295
1.3665874 0.28300679 -1.7903202
1.3879215 0.28742486 -1.7859063
1.4215918 0.29439759 -1.7968047
1.4388118 0.29796374 -1.7824529
1.4351054 0.29719621 -1.7465814
0.50630617 0.1173556 -1.7337767
0.52207142 0.1210098 -1.7393097
0.53607935 0.12425667 -1.745302
0.54788566 0.12699319 -1.7309228
0.56876183 0.13183202 -1.7449155
0.58222604 0.13495287 -1.7296532
0.60669327 0.14062409 -1.7526402
0.62491143 0.14484684 -1.7565321
0.63456249 0.1470838 -1.7422103
0.64748877 0.15007997 -1.7371914
0.66563225 0.15428539 -1.7514365
0.68411577 0.15856962 -1.7546911
0.70643914 0.16374393 -1.7561696
0.71570998 0.16589282 -1.7413611
0.73248267 0.16978051 -1.7448907
0.74728847 0.1732123 -1.7382628
0.76203722 0.1766309 -1.7315024
0.78490406 0.18193112 -1.742764
0.80572307 0.18675674 -1.7437981
0.82051671 0.19018565 -1.7365142
0.85008156 0.19703849 -1.7550319
0.86055589 0.1994663 -1.738435
0.87530184 0.20288421 -1.7306601
0.90367311 0.2094603 -1.7492573
0.91667354 0.21247365 -1.7421149
0.93898064 0.21764414 -1.7524115
0.95861161 0.22219439 -1.7526532
1.0348207 0.2398587 -1.7766581
1.0517474 0.24378209 -1.7661533
1.073765 0.24888553 -1.7639401
1.0991881 0.25477827 -1.771122
1.1266879 0.26115239 -1.7767311
1.1417493 0.26464343 -1.7665707
1.1567237 0.26811433 -1.7562758
1.182663 0.27412668 -1.7623174
1.2125152 0.28104609 -1.77756
1.2294421 0.28496948 -1.7652661
1.26351 0.29286602 -1.7770121
1.2669452 0.29366231 -1.7495749
1.2935297 0.29982424 -1.7541056
1.3340508 0.30921644 -1.7726516
1.3370243 0.30990577 -1.7449138
1.3963457 0.32365566 -1.7859356
1.4114751 0.3271625 -1.7733593
1.4264969 0.33064437 -1.7606479
0.51354504 0.1318561 -1.7410587
0.53114396 0.13637471 -1.745906
0.54773474 0.14063452 -1.7404335
0.55751276 0.1431451 -1.726583
0.57156956 0.14675425 -1.7322446
0.59900224 0.15379778 -1.7647783
0.61576933 0.15810284 -1.7586163
0.61865622 0.15884404 -1.7255819
0.63827813 0.16388209 -1.7393515
0.64410764 0.16537887 -1.7156267
0.66920823 0.17182361 -1.7484384
0.70049751 0.17985733 -1.7677823
0.70423681 0.18081741 -1.7445502
0.72469234 0.18606947 -1.7573557
0.73382092 0.18841334 -1.7424141
0.75060141 0.19272183 -1.745725
0.76132137 0.19547425 -1.7297918
0.79224825 0.2034149 -1.7591375
0.8242622 0.21163468 -1.7545092
0.83906054 0.21543427 -1.7470161
0.85817349 0.22034164 -1.74831
0.87737191 0.22527097 -1.7493917
0.90756309 0.23302267 -1.7669265
0.91047072 0.23376928 -1.7312697
0.92792022 0.23824953 -1.7328014
0.9520517 0.24444549 -1.7417933
0.97640514 0.25069842 -1.7504808
0.99301791 0.25496385 -1.7404909
1.0376228 0.26641643 -1.782908
1.0443717 0.26814923 -1.755273
1.0797347 0.27722889 -1.7796957
1.0913985 0.28022361 -1.760234
1.1115282 0.28539208 -1.7587087
1.1389278 0.29242712 -1.7640096
1.1646792 0.29903895 -1.7702253
1.1795975 0.30286932 -1.7596647
1.2000073 0.3081097 -1.7571427
1.2317647 0.31626356 -1.7706307
1.240965 0.31862581 -1.7513946
1.2807548 0.32884207 -1.7707709
1.3015361 0.33417785 -1.7671245
1.318262 0.33847231 -1.7538593
1.3570546 0.3484326 -1.7733014
1.3921034 0.35743165 -1.7828043
1.4071194 0.36128706 -1.7701941
1.430087 0.36718404 -1.7635269
0.51407015 0.14498289 -1.7607702
0.52883911 0.14914818 -1.7560421
0.54061353 0.15246893 -1.741663
0.55218709 0.15573303 -1.7272048
0.57416058 0.16193016 -1.7511762
0.59202957 0.16696972 -1.7553409
0.60022581 0.16928132 -1.7310901
0.62476516 0.17620212 -1.7537163
0.63764977 0.179836 -1.7487029
0.65231276 0.18397136 -1.7428547
0.67220068 0.18958032 -1.756219
0.69055986 0.19475815 -1.7593169
0.69607872 0.19631466 -1.7353199
0.7219668 0.20361583 -1.756532
0.73669225 0.20776884 -1.7499191
0.75317663 0.21241795 -1.742327
0.76998401 0.21715809 -1.7453845
0.79278713 0.22358923 -1.7564442
0.80334663 0.22656734 -1.7401727
0.81369364 0.2294855 -1.7238442
0.84108078 0.23720945 -1.7432196
0.87807721 0.24764352 -1.7572857
0.8819809 0.24874447 -1.7325807
0.92579341 0.26110089 -1.7762693
0.94067687 0.26529843 -1.7678076
0.96021879 0.27080986 -1.7679201
0.95881593 0.27041423 -1.7342284
1.0106324 0.28502795 -1.7606479
1.0453888 0.29483029 -1.7855915
1.0552727 0.29761782 -1.7675472
1.078518 0.30417371 -1.7760284
1.0933937 0.30836907 -1.7661819
1.113463 0.31402928 -1.7645638
1.1407791 0.32173312 -1.7697487
1.1718757 0.33050334 -1.7841173
1.1996982 0.33835006 -1.7884752
1.2202455 0.344145 -1.7856833
1.2313957 0.34728965 -1.765065
1.2461735 0.35145739 -1.7538327
1.2858683 0.36265254 -1.7729708
1.3124285 0.37014329 -1.7771115
1.3291417 0.37485689 -1.7636508
1.3679023 0.38578847 -1.7828099
1.3907697 0.39223778 -1.7765161
1.424052 0.40162432 -1.7869455
1.4346422 0.40461117 -1.7647072
0.51600164 0.15874299 -1.7590176
0.53249681 0.16381754 -1.7536279
0.5423016 0.16683391 -1.7398205
0.55803061 0.17167276 -1.7449155
0.56584215 0.17407593 -1.7315947
0.57844871 0.17795423 -1.7270291
0.60578948 0.18636531 -1.7593143
0.61048687 0.18781042 -1.7255819
0.63504416 0.19536522 -1.7479849
0.65307331 0.20091175 -1.7514365
0.66230941 0.20375313 -1.7368739
0.68400919 0.21042883 -1.7492715
0.70408142 0.21660383 -1.7513857
0.71488005 0.21992598 -1.735707
0.73523998 0.22618951 -1.7482449
0.74404705 0.2288989 -1.7332048
0.7606715 0.23401327 -1.7362939
0.78324109 0.24095659 -1.7473904
0.79365218 0.24415945 -1.7311563
0.80624902 0.2480347 -1.7247728
0.82735693 0.25452837 -1.7361727
0.85482413 0.26297837 -1.7552829
0.86060524 0.26475692 -1.7296711
0.87948644 0.27056551 -1.7305772
0.91212988 0.28060794 -1.7576343
0.9360227 0.28795832 -1.7667319
0.95254076 0.29303992 -1.7570411
0.97012973 0.29845104 -1.7580316
0.99930924 0.30742782 -1.7749561
1.0208329 0.31404936 -1.7731816
1.0405866 0.32012635 -1.7723144
1.0553293 0.32466185 -1.7627463
1.0769866 0.33132449 -1.760234
1.1020736 0.33904225 -1.7670835
1.1238881 0.34575337 -1.7640096
1.1439291 0.3519187 -1.7619532
1.1658695 0.35866842 -1.7583245
1.1915234 0.36656064 -1.7639458
1.2061908 0.37107292 -1.7529998
1.2225672 0.37611094 -1.7405373
1.2599461 0.3876102 -1.761333
1.293833 0.3980352 -1.7721354
1.3162607 0.40493479 -1.7666594
1.3250041 0.40762463 -1.7467415
1.365405 0.42005354 -1.7641213
1.4043854 0.43204549 -1.7824529
1.4333316 0.44095051 -1.783262
0.5119648 0.17080452 -1.7381363
0.53211749 0.17752796 -1.7524083
0.54660362 0.18236093 -1.7474464
0.55799896 0.18616268 -1.7328821
0.57987291 0.19346039 -1.7566788
0.58303666 0.19451588 -1.7236971
0.60707468 0.20253555 -1.7464362
0.62635589 0.20896828 -1.7602302
0.63570243 0.21208653 -1.7457954
0.65360653 0.21805979 -1.7491851
0.66978669 0.22345789 -1.7531549
0.68609554 0.22889893 -1.7461324
0.70602524 0.23554797 -1.7481549
0.72046953 0.24036697 -1.7415932
0.74646205 0.24903873 -1.7622923
0.75738728 0.25268364 -1.7571043
0.77990282 0.2601954 -1.7682053
0.79451025 0.26506886 -1.7609633
0.79841065 0.26637009 -1.7256845
0.81509602 0.27193677 -1.7281692
0.84655976 0.28243387 -1.7562652
0.85669506 0.28581527 -1.7395353
0.88439488 0.29505661 -1.7580919
0.91246617 0.3044219 -1.7762693
0.91058302 0.30379364 -1.731747
0.95291054 0.31791517 -1.7755256
0.9562608 0.31903291 -1.7504808
0.98993695 0.33026814 -1.7761046
0.99791962 0.33293134 -1.7594923
1.0223242 0.34107327 -1.7673205
1.0487549 0.3498913 -1.7736373
1.0754299 0.35879073 -1.7795559
1.0831161 0.36135504 -1.7624648
1.1133455 0.37144032 -1.7774684
1.1386086 0.37986866 -1.7837516
1.1479667 0.38299084 -1.7649617
1.1625334 0.38785064 -1.754334
1.2026795 0.4012444 -1.7856833
1.2118566 0.40430608 -1.7664484
1.232059 0.41104615 -1.7632843
1.2579931 0.41969845 -1.7678819
1.2898545 0.43032816 -1.7800822
1.3103647 0.43717086 -1.7760421
1.3771352 0.45944723 -1.7968045
1.3938167 0.46501258 -1.7824528
1.4146162 0.47195181 -1.7772231
1.4434212 0.48156193 -1.7777045
1.4518509 0.48437425 -1.7568183
0.50956792 0.18345588 -1.7375512
0.52669299 0.1896213 -1.7422795
0.53802198 0.19369996 -1.7278347
0.5521881 0.19880009 -1.7227788
0.5676651 0.20437215 -1.7276829
0.58321631 0.20997095 -1.7324464
0.61287618 0.22064912 -1.7422103
0.63052928 0.22700466 -1.7457954
0.64315259 0.23154931 -1.729838
0.6626578 0.23857163 -1.7323014
0.68771446 0.24759258 -1.7537806
0.70208794 0.25276738 -1.7473354
0.71263736 0.25656539 -1.7315953
0.72504276 0.26103163 -1.7257681
0.7434392 0.26765475 -1.7388959
0.76165527 0.2742129 -1.7410021
0.77592105 0.27934891 -1.7338716
0.83114624 0.2992312 -1.738435
0.84972352 0.30591947 -1.7395353
0.8710084 0.31358245 -1.75026
0.88981742 0.32035416 -1.7509135
0.91503823 0.32943419 -1.759056
0.92944628 0.33462137 -1.7505022
0.95499384 0.34381911 -1.7580316
0.95984137 0.34556434 -1.7318746
0.99034202 0.35654521 -1.7474834
1.0243514 0.36878935 -1.7723144
1.0406872 0.37467057 -1.7615311
1.0652561 0.38351595 -1.7686561
1.0918275 0.39308226 -1.7742037
1.1045567 0.39766505 -1.765281
1.124287 0.40476844 -1.7632473
1.1387216 0.40996516 -1.7527525
1.1584829 0.41707972 -1.7503033
1.1892511 0.42815691 -1.7638773
1.2110274 0.43599686 -1.7594656
1.2254276 0.44118127 -1.7481664
1.2700061 0.45723051 -1.7750845
1.3018129 0.4686816 -1.7869585
1.3240745 0.47669625 -1.7811477
1.3268541 0.47769701 -1.7532151
1.3549366 0.48780736 -1.7547337
0.50350153 0.19479021 -1.7590176
0.53205603 0.20583712 -1.7493277
0.55221081 0.21363442 -1.7632424
0.56958616 0.22035642 -1.7674599
0.58394933 0.22591312 -1.7620631
0.59011531 0.22829856 -1.7384313
0.60572064 0.2343358 -1.7429254
0.62477577 0.24170764 -1.7565969
0.63886499 0.24715836 -1.7614949
0.65137637 0.25199866 -1.756219
0.66564488 0.25751877 -1.7500573
0.68345994 0.26441085 -1.7529887
0.70871729 0.2741822 -1.7741036
0.70814204 0.2739597 -1.7307746
0.74312156 0.28749222 -1.7688184
0.74789149 0.28933758 -1.7445177
0.77396828 0.2994259 -1.7646011
0.78021532 0.30184275 -1.7392685
0.788486 0.30504239 -1.7238442
0.81502461 0.31530941 -1.7432196
0.83588707 0.3233805 -1.7543141
0.85013306 0.32889184 -1.746426
0.86170018 0.33336678 -1.7285657
0.90254384 0.349168 -1.7731035
0.91513014 0.35403731 -1.765671
0.93126678 0.36028013 -1.7559443
0.94084167 0.36398435 -1.7385143
0.97395921 0.37679651 -1.7640656
0.99792111 0.3860667 -1.7720062
1.0153784 0.39282042 -1.7723144
1.0297641 0.39838585 -1.7627463
1.0641497 0.41168863 -1.7867563
1.0684751 0.41336203 -1.7599695
1.0930703 0.42287719 -1.7665707
1.1126298 0.43044418 -1.7645601
1.1340461 0.43872952 -1.7609814
1.1697992 0.45256135 -1.7830193
1.169732 0.4525353 -1.7462642
1.2004193 0.46440735 -1.7594656
1.2276458 0.47494051 -1.7627584
1.2475909 0.48265666 -1.7591645
1.2864945 0.49770737 -1.7775599
0.51216668 0.21214652 -1.764987
0.52068645 0.21567553 -1.7410542
0.53410566 0.22123398 -1.7468219
0.54816872 0.22705907 -1.7417104
0.56654555 0.234671 -1.7560055
0.57443744 0.23793994 -1.7317638
0.59797066 0.2476877 -1.7544178
0.61536562 0.25489298 -1.7580541
0.62281919 0.25798032 -1.7335347
0.6487968 0.26874059 -1.7546911
0.65239638 0.2702316 -1.7207422
0.68057245 0.28190249 -1.7513857
0.70563507 0.29228377 -1.7724416
0.71616805 0.29664668 -1.7565602
0.72649902 0.30092591 -1.7406156
0.75601262 0.31315082 -1.7699947
0.77025402 0.31904984 -1.7627864
0.77236843 0.31992567 -1.7284369
0.81262189 0.33659917 -1.7403581
0.84112608 0.34840596 -1.7582719
0.86390877 0.35784289 -1.7679394
0.8825202 0.36555198 -1.7685106
0.8905037 0.36885887 -1.7524115
0.92321694 0.38240913 -1.7439994
0.95123106 0.39401299 -1.7611114
0.9795903 0.40575978 -1.777825
0.98908496 0.40969256 -1.759961
1.0098931 0.4183116 -1.7578485
1.0388678 0.43031329 -1.7735795
1.0548899 0.43694988 -1.7624648
1.0792407 0.4470363 -1.7691234
1.1004151 0.455807 -1.7658501
1.1216054 0.46458435 -1.7623174
1.1463857 0.47484866 -1.7680267
1.167762 0.48370305 -1.7638773
1.1855956 0.49108997 -1.7622695
1.1997583 0.49695632 -1.7510037
0.50401253 0.22282176 -1.7345667
0.52003753 0.22990637 -1.749944
0.53801465 0.23785394 -1.7645298
0.54614115 0.24144661 -1.7404118
