# .PCD v0.7 - Point Cloud Data file format
VERSION 0.7
FIELDS x y z
SIZE 4 4 4
TYPE F F F
COUNT 1 1 1
WIDTH 1448
HEIGHT 1
VIEWPOINT 0 0 0 1 0 0 0
POINTS 1448
DATA ascii
0.97586483 -0.47807115 -1.7264807
1.0159812 -0.49772397 -1.7215264
0.51808155 -0.23883882 -1.7493277
0.53192514 -0.2452208 -1.7442827
0.54869413 -0.25295138 -1.7485566
0.57150984 -0.26346961 -1.7290344
0.58809817 -0.27111691 -1.7436272
0.61233395 -0.28228974 -1.7227477
0.64817965 -0.29881483 -1.7392448
0.66545933 -0.30678093 -1.7421681
0.68283445 -0.31479096 -1.7448908
0.71211433 -0.32828915 -1.7306414
0.72198242 -0.33283836 -1.7146604
0.74112183 -0.34166175 -1.7158105
0.75697505 -0.34897017 -1.7185193
0.78841925 -0.36346617 -1.7460778
0.79159355 -0.36492956 -1.7107327
0.81940019 -0.37774861 -1.7286959
0.84334844 -0.38878888 -1.737385
0.88227141 -0.40673265 -1.7481893
0.90814304 -0.41865966 -1.7320509
0.9371407 -0.43202773 -1.713219
0.9714309 -0.44783571 -1.7370565
1.0120413 -0.46655738 -1.7325405
1.0579233 -0.48770928 -1.7352343
0.5102576 -0.22080815 -1.7434967
0.52133703 -0.22560263 -1.7290781
0.53463334 -0.23135646 -1.734803
0.54977655 -0.2379095 -1.7397542
0.58069742 -0.25129014 -1.7384313
0.60102618 -0.26008719 -1.751577
0.6067102 -0.2625469 -1.7278517
0.64284647 -0.27818447 -1.744638
0.66028804 -0.28573209 -1.7477061
0.67956561 -0.29407424 -1.7497746
0.72101617 -0.31201148 -1.7189778
0.73693359 -0.3188996 -1.7219849
0.7506966 -0.32485539 -1.7149122
0.78214508 -0.33846432 -1.7093247
0.79824466 -0.34543127 -1.7116901
0.81615162 -0.35318029 -1.7129099
0.87750423 -0.37972996 -1.7338372
0.91316575 -0.39516205 -1.7233907
0.94730163 -0.40993392 -1.7479914
0.94878721 -0.41057682 -1.7120833
0.9834367 -0.42557099 -1.7358979
1.0070792 -0.43580201 -1.743407
1.0110908 -0.437538 -1.7169322
1.0398735 -0.44999337 -1.7323594
1.0724753 -0.46410143 -1.7448227
1.0777947 -0.46640334 -1.7167488
0.54288614 -0.21989146 -1.7442827
0.56884575 -0.23040619 -1.7452298
0.58116651 -0.23539661 -1.7404982
0.59348154 -0.24038473 -1.735654
0.60399765 -0.24464419 -1.731426
0.6195507 -0.25094384 -1.7357373
0.6352278 -0.2572937 -1.7398808
0.65797746 -0.26650825 -1.7516103
0.66145134 -0.26791531 -1.7176447
0.68808818 -0.27870432 -1.7489593
0.69851214 -0.28292644 -1.7332437
0.71826541 -0.29092738 -1.7457252
0.72852367 -0.29508239 -1.7297919
0.74075848 -0.30003804 -1.7237326
0.76037461 -0.30798334 -1.7248411
0.77429652 -0.31362233 -1.7176163
0.80230898 -0.32496852 -1.7361728
0.84486222 -0.34220436 -1.7464261
0.87918663 -0.35610721 -1.7379926
0.89042485 -0.36065915 -1.7198746
0.90430164 -0.36627981 -1.7114257
0.93852162 -0.3801403 -1.7363095
0.95900911 -0.38843864 -1.7348825
0.97958851 -0.39677414 -1.7331696
1.0100068 -0.40909475 -1.7481785
1.0258793 -0.4155238 -1.7373865
1.1058755 -0.44792566 -1.7523704
1.120007 -0.45364949 -1.7418916
1.1411464 -0.46221182 -1.7381153
1.1623524 -0.47080117 -1.7340366
1.1818305 -0.47869056 -1.7310783
1.2159957 -0.49252892 -1.7410256
0.53722501 -0.20300035 -1.7480789
0.55269736 -0.20884688 -1.7531139
0.56698734 -0.2142466 -1.7478912
0.5812341 -0.21962999 -1.7425354
0.59044063 -0.22310889 -1.7283524
0.60781252 -0.22967313 -1.7321415
0.62192911 -0.23500736 -1.7264054
0.63599843 -0.24032369 -1.7205378
0.65879607 -0.24893825 -1.7431056
0.66942048 -0.25295287 -1.7276547
0.6908083 -0.26103461 -1.7397542
0.70871401 -0.26780063 -1.7424142
0.74657881 -0.28210855 -1.7462631
0.76656574 -0.28966099 -1.7473905
0.77270961 -0.29198253 -1.72214
0.79085743 -0.29884005 -1.7238443
0.80840033 -0.30546898 -1.7145197
0.82664865 -0.3123644 -1.7158031
0.84933472 -0.3209368 -1.725726
0.86604106 -0.32724956 -1.7275649
0.88637787 -0.33493418 -1.7271519
0.90676212 -0.34263679 -1.7264943
0.9254719 -0.34970662 -1.7266462
0.94602823 -0.35747421 -1.7254689
0.97143269 -0.36707374 -1.732621
0.98066044 -0.37056062 -1.7149606
1.0045195 -0.37957621 -1.7227196
1.0826339 -0.4090932 -1.7403007
1.1090622 -0.41907954 -1.7454091
1.125052 -0.42512164 -1.7336751
1.1480908 -0.43382728 -1.7286067
1.1803665 -0.44602332 -1.7407751
1.2018745 -0.45415047 -1.736331
1.2308122 -0.46508509 -1.7381592
1.2467012 -0.47108904 -1.7251699
1.2682896 -0.47924662 -1.7198442
1.2975055 -0.49028641 -1.7205229
0.50205827 -0.17631026 -1.7404747
0.5472675 -0.19218662 -1.7461851
0.55981743 -0.19659381 -1.7417104
0.5736618 -0.20145564 -1.7472342
0.58941615 -0.20698814 -1.7519544
0.59876972 -0.21027292 -1.7377456
0.61789447 -0.21698901 -1.751577
0.64318484 -0.22587039 -1.7305766
0.67700249 -0.2377463 -1.7376835
0.69128412 -0.24276163 -1.7313558
0.71858883 -0.25235036 -1.7515849
0.73476434 -0.2580308 -1.7440302
0.77937424 -0.27369669 -1.72214
0.79352391 -0.27866566 -1.714866
0.81783092 -0.28720173 -1.7244036
0.84241861 -0.29583627 -1.7335836
0.8540194 -0.29991019 -1.7158977
0.88601416 -0.31114596 -1.7431487
0.92562973 -0.32505795 -1.742856
0.95294714 -0.33465111 -1.7493714
0.96909094 -0.34032047 -1.7393806
0.98516995 -0.34596699 -1.7292042
1.0812014 -0.37969086 -1.7478381
1.0973248 -0.38535297 -1.7365141
1.1240253 -0.3947295 -1.7415096
1.1508946 -0.40416539 -1.7461363
1.1615485 -0.40790668 -1.725925
1.1996816 -0.42129809 -1.746102
1.211944 -0.42560428 -1.7241093
1.2335807 -0.43320262 -1.7193644
1.2667865 -0.44486368 -1.7301584
1.2845178 -0.45109054 -1.71541
1.3241102 -0.46499431 -1.7330356
1.3323275 -0.46788007 -1.7130067
1.3602616 -0.47768977 -1.7143806
1.3822331 -0.48540565 -1.7077215
0.51065409 -0.16592152 -1.7494577
0.52515411 -0.17063288 -1.7447056
0.54076231 -0.1757043 -1.749944
0.54922974 -0.1784555 -1.725949
0.56972587 -0.1851151 -1.7397542
0.58232903 -0.18921009 -1.7351346
0.60139358 -0.19540457 -1.749212
0.61406434 -0.19952153 -1.7443383
0.62672836 -0.2036363 -1.7393515
0.64620137 -0.20996347 -1.752923
0.66072506 -0.21468253 -1.7469269
0.66801542 -0.21705128 -1.7222787
0.69474041 -0.22573479 -1.7105494
0.72613692 -0.23593614 -1.7507596
0.74246287 -0.24124078 -1.7431729
0.7793597 -0.25322926 -1.7473905
0.78737795 -0.25583449 -1.7212452
0.80583036 -0.26183009 -1.7229285
0.82864177 -0.26924196 -1.7333384
0.8448 -0.27449206 -1.7246934
0.90849531 -0.29518792 -1.7457378
0.92476565 -0.30047446 -1.7362672
0.93618971 -0.3041864 -1.7179695
0.96359253 -0.31309009 -1.7243736
1.0186975 -0.33099481 -1.7479124
1.0595707 -0.34427533 -1.7446159
1.0810204 -0.35124478 -1.7419592
1.1041403 -0.35875687 -1.7499051
1.12044 -0.36405298 -1.738413
1.1348252 -0.368727 -1.728066
1.1691519 -0.3798804 -1.7394466
1.1853222 -0.38513437 -1.7273051
1.2126876 -0.39402601 -1.7310783
1.2420212 -0.40355712 -1.7330391
1.2621469 -0.41009632 -1.7295104
1.280014 -0.41590166 -1.7149314
1.3179451 -0.42822623 -1.7343711
1.3340608 -0.43346259 -1.7206951
1.3744023 -0.44657031 -1.7375827
1.3843923 -0.4498162 -1.7156991
1.4172267 -0.46048477 -1.7256368
1.4413385 -0.46831921 -1.7167761
1.4988489 -0.48700547 -1.716152
0.50616717 -0.15137599 -1.7416314
0.53158951 -0.15897889 -1.7333604
0.54606134 -0.16330691 -1.7284524
0.56049156 -0.16762243 -1.7234129
0.57803768 -0.17286986 -1.7276829
0.59387302 -0.17760563 -1.7324464
0.6149472 -0.18390813 -1.7457427
0.6209653 -0.18570793 -1.7220669
0.64041698 -0.19152522 -1.7357373
0.65842557 -0.1969109 -1.7391382
0.67294371 -0.20125279 -1.7222787
0.6929093 -0.20722374 -1.7353199
0.69986588 -0.20930423 -1.7105494
0.72766417 -0.21761765 -1.7415932
0.75000989 -0.22430049 -1.7531613
0.75090885 -0.22456931 -1.7198269
0.78326809 -0.23424675 -1.7482905
0.82866395 -0.24782301 -1.7253406
0.84483767 -0.25265995 -1.7167739
0.86988056 -0.26014936 -1.725726
0.88881034 -0.26581055 -1.7265459
0.90960991 -0.27203098 -1.7261255
0.92869711 -0.27773926 -1.7264943
0.97555494 -0.2917527 -1.7329954
0.99493217 -0.29754773 -1.732621
1.0230097 -0.30594468 -1.7382317
1.0425892 -0.31180021 -1.7373222
1.0552828 -0.31559643 -1.7289525
1.0889956 -0.32567862 -1.7419592
1.1141288 -0.33319509 -1.7486275
1.128706 -0.33755454 -1.738413
1.1504406 -0.34405461 -1.7349966
1.1611888 -0.34726903 -1.7149473
1.1978729 -0.35823986 -1.7367685
1.2311569 -0.36819395 -1.7485954
1.247559 -0.37309915 -1.7358842
1.2754596 -0.3814432 -1.7389088
1.2840593 -0.38401505 -1.7193383
1.3180757 -0.39418814 -1.7295642
1.3342657 -0.39903 -1.7159867
1.3704741 -0.40985858 -1.7237797
1.4133844 -0.42269143 -1.7120969
1.4610296 -0.43694043 -1.7351009
1.5063159 -0.45048392 -1.7195861
0.50959301 -0.13940881 -1.7416314
0.54179442 -0.14821811 -1.741663
0.55947435 -0.15305477 -1.7461851
0.58694291 -0.16056934 -1.7364663
0.60624844 -0.16585073 -1.7505873
0.63904256 -0.17482221 -1.7487029
0.65024149 -0.17788588 -1.7335347
0.6701951 -0.18334453 -1.736123
0.69396085 -0.18984611 -1.7477061
0.71046245 -0.19436048 -1.7405652
0.72508609 -0.19836102 -1.7340711
0.73394716 -0.20078515 -1.7191296
0.76613766 -0.20959146 -1.7480001
0.78266788 -0.21411364 -1.7401111
0.79313248 -0.21697648 -1.723938
0.81971818 -0.22424944 -1.7328227
0.86010599 -0.23529832 -1.745409
0.86849678 -0.23759376 -1.7296712
0.88119626 -0.24106793 -1.7227535
0.91128898 -0.24930038 -1.7400579
0.92770767 -0.25379202 -1.7307074
0.94406623 -0.25826722 -1.7211732
0.97970486 -0.26801682 -1.7460657
1.0011381 -0.27388027 -1.7445952
1.0306802 -0.28196213 -1.7142333
1.1345724 -0.3103838 -1.7275727
1.1673819 -0.31935945 -1.7405829
1.1949905 -0.3269124 -1.7449143
1.2152848 -0.33246422 -1.7421396
1.2654575 -0.34618989 -1.7410256
1.2818683 -0.3506794 -1.7280734
1.3041397 -0.35677218 -1.722798
1.3342633 -0.365013 -1.7235448
1.3688382 -0.37447166 -1.7331049
1.3790141 -0.3772555 -1.7114024
1.4219958 -0.38901389 -1.7261217
1.4382581 -0.39346284 -1.7115784
1.4928533 -0.40839839 -1.7416946
1.5074567 -0.41239333 -1.7281221
1.5302734 -0.41863537 -1.7200602
0.5219326 -0.12964866 -1.7387286
0.54440582 -0.135231 -1.7524083
0.55314791 -0.13740259 -1.7284524
0.59007448 -0.14657518 -1.7472342
0.60301995 -0.14979087 -1.7425354
0.61407548 -0.15253711 -1.7384313
0.62353683 -0.15488727 -1.7241843
0.66683352 -0.16564225 -1.7499416
0.66894901 -0.16616772 -1.7167979
0.71484435 -0.17756818 -1.7405652
0.721838 -0.17930539 -1.7157212
0.75025809 -0.18636502 -1.7465625
0.77086294 -0.1914833 -1.748
0.77929199 -0.19357707 -1.7219849
0.79618406 -0.19777308 -1.7248411
0.82110298 -0.20396303 -1.7346727
0.85216475 -0.21167879 -1.7186936
0.86668813 -0.21528639 -1.7109656
0.90583718 -0.22501104 -1.7462043
0.93709171 -0.23277472 -1.7286049
0.96797836 -0.24044697 -1.7450798
0.98454368 -0.24456181 -1.7352128
1.0159845 -0.25237176 -1.7509094
1.0326031 -0.25649989 -1.7405571
1.0594374 -0.2631655 -1.7469792
1.0637635 -0.26424015 -1.7205187
1.0941516 -0.27178863 -1.7360482
1.1248826 -0.27942219 -1.7511604
1.1414982 -0.28354952 -1.7397072
1.1690623 -0.29039654 -1.7445238
1.2077484 -0.30000618 -1.7286527
1.2471346 -0.30978972 -1.7485954
1.2579256 -0.31247023 -1.7278847
1.280213 -0.31800646 -1.7230283
1.3186232 -0.32754761 -1.742999
1.3291397 -0.33015993 -1.7217381
1.3699285 -0.34029186 -1.7392806
1.3758646 -0.34176642 -1.7083888
1.4171726 -0.35202736 -1.7249055
1.4462103 -0.35924035 -1.7256368
1.4708151 -0.36535233 -1.7167761
1.5065976 -0.3742407 -1.7240961
1.5295018 -0.37993008 -1.716152
1.5524279 -0.38562495 -1.707882
0.52027637 -0.11629546 -1.7506249
0.53040713 -0.11855996 -1.7369547
0.54332042 -0.12144643 -1.7327589
0.56234396 -0.12569869 -1.7474464
0.57661021 -0.12888758 -1.7531139
0.60310388 -0.13480961 -1.7331163
0.63068235 -0.14097413 -1.7227786
0.65051126 -0.14540641 -1.7364596
0.69095528 -0.15444671 -1.7523775
0.70585287 -0.15777673 -1.7461324
0.72069669 -0.16109474 -1.7397542
0.74121672 -0.1656815 -1.7415932
0.7538929 -0.16851495 -1.7249197
0.77444422 -0.17310871 -1.7263457
0.78315711 -0.17505626 -1.7111751
0.80192089 -0.17925046 -1.7131236
0.82751179 -0.18497072 -1.7337561
0.88136506 -0.19700839 -1.7395355
0.89614606 -0.2003123 -1.7315881
0.92202103 -0.20609607 -1.7400579
0.93863308 -0.20980929 -1.7307074
0.95518428 -0.21350892 -1.7211732
1.0129282 -0.22641625 -1.7445952
1.0328101 -0.23086037 -1.7440203
1.0476235 -0.23417155 -1.7347187
1.0693949 -0.23903807 -1.7325574
1.0999744 -0.24587335 -1.7481426
1.1978924 -0.26776063 -1.7529855
1.2089392 -0.27022985 -1.7327267
1.244599 -0.27820069 -1.7433238
1.2612562 -0.2819241 -1.7307084
1.2955092 -0.28958052 -1.741809
1.3139745 -0.29370803 -1.7272252
1.3365493 -0.2987541 -1.7217381
1.3652657 -0.30517298 -1.7237513
1.3959988 -0.31204259 -1.7237797
1.4358158 -0.32094276 -1.741789
1.4633194 -0.32709044 -1.7440493
1.4864078 -0.33225143 -1.7367501
1.5159737 -0.33886021 -1.7366339
1.5325538 -0.34256625 -1.7212864
0.50697559 -0.10084364 -1.7450519
0.52189189 -0.10381067 -1.7404747
0.54973722 -0.10934944 -1.7315402
0.57073998 -0.11352718 -1.7455565
0.58381081 -0.11612712 -1.7410569
0.59357417 -0.11806916 -1.7270291
0.60650533 -0.12064132 -1.7223521
0.62614071 -0.12454705 -1.736357
0.65727127 -0.13073932 -1.7457954
0.67389607 -0.13404618 -1.7499416
0.68884784 -0.13702025 -1.743879
0.70186746 -0.13961004 -1.7276547
0.7204597 -0.14330827 -1.7305491
0.74679214 -0.14854611 -1.7407571
0.7675209 -0.15266933 -1.742327
0.77606279 -0.15436842 -1.7163906
0.80092394 -0.1593136 -1.7266266
0.81567144 -0.16224705 -1.7194349
0.83655977 -0.166402 -1.720139
0.85125029 -0.16932414 -1.7126303
0.8941927 -0.17786588 -1.7237411
0.94623321 -0.18821748 -1.7404933
0.96293145 -0.19153889 -1.7309465
0.9943338 -0.19778521 -1.7471638
1.0160993 -0.20211469 -1.7457353
1.0495201 -0.20876248 -1.7250582
1.1240985 -0.22359703 -1.7357439
1.1553384 -0.22981103 -1.7505656
1.179562 -0.23462941 -1.7458472
1.2168381 -0.24204411 -1.7313635
1.2392262 -0.24649729 -1.7271819
1.2774004 -0.25409061 -1.7481666
1.2882495 -0.25624859 -1.7273245
1.3108176 -0.26073772 -1.7222582
1.3456184 -0.26766002 -1.7325615
1.3807129 -0.2746408 -1.7423561
1.4055179 -0.27957481 -1.7346058
1.4221669 -0.28288656 -1.7204407
1.4450434 -0.2874369 -1.7137181
1.50214 -0.29879415 -1.7426121
1.5188615 -0.30212021 -1.7274787
1.5468096 -0.30767953 -1.7286739
0.50453269 -0.08805497 -1.736028
0.51473171 -0.089834988 -1.7224926
0.53834504 -0.093956187 -1.7464985
0.55636215 -0.097100668 -1.7511803
0.5676409 -0.099069104 -1.7474464
0.58391005 -0.10190851 -1.7524736
0.59386271 -0.10364556 -1.7384431
0.60834694 -0.10617344 -1.7438867
0.62143183 -0.1084571 -1.7391261
0.63794017 -0.1113383 -1.7436272
0.64752221 -0.11301063 -1.7292899
0.66236347 -0.11560084 -1.723488
0.69002545 -0.12042861 -1.744638
0.70124722 -0.12238716 -1.7292118
0.72185779 -0.12598427 -1.7421679
0.73680699 -0.12859331 -1.735707
0.74985647 -0.13087083 -1.7299387
0.77683759 -0.13557975 -1.7505832
0.78773284 -0.13748132 -1.7345535
0.80074239 -0.13975184 -1.7284042
0.82599372 -0.14415891 -1.7383478
0.83401763 -0.1455593 -1.7121119
0.86836267 -0.1515535 -1.7393901
0.88058877 -0.15368725 -1.7217851
0.90458715 -0.15787564 -1.7315881
0.92696393 -0.16178106 -1.742115
0.95328552 -0.16637488 -1.7503046
0.99864423 -0.17429124 -1.7124345
1.0318128 -0.18008013 -1.7389174
1.0467223 -0.18268223 -1.7297109
1.0667814 -0.18618305 -1.7288474
1.1065758 -0.19312827 -1.7505975
1.1288689 -0.19701906 -1.7478381
1.1511852 -0.20091386 -1.7448227
1.2091757 -0.21103485 -1.7529855
1.226056 -0.21398093 -1.7408615
1.2388734 -0.21621795 -1.719111
1.2653757 -0.22084339 -1.7241093
1.3039657 -0.22757842 -1.744701
1.3147599 -0.22946222 -1.7237034
1.3374592 -0.2334239 -1.718376
1.3744179 -0.23987426 -1.7267992
1.3910666 -0.24277987 -1.7130067
1.4265726 -0.24897672 -1.7220341
1.4809231 -0.25846231 -1.7141949
1.5302533 -0.26707184 -1.7366339
1.5421762 -0.26915276 -1.7122059
0.52153778 -0.078409605 -1.7523556
0.5460431 -0.082093835 -1.7447056
0.56227207 -0.084533744 -1.749944
0.59370494 -0.089259453 -1.7498705
0.61819828 -0.092941865 -1.7411757
0.65516114 -0.098498978 -1.7487029
0.73036349 -0.10980514 -1.7505747
0.75124139 -0.11294401 -1.7524211
0.78326142 -0.11775802 -1.738026
0.80427074 -0.12091659 -1.7392318
0.81685507 -0.12280856 -1.7221398
0.86348665 -0.12981935 -1.7323793
0.88024843 -0.13233934 -1.7237312
0.91641939 -0.13777743 -1.7157193
0.94737124 -0.1424308 -1.7328016
0.96416295 -0.14495532 -1.7233044
0.99569291 -0.14969571 -1.7396226
1.0207236 -0.15345888 -1.7479914
1.0427709 -0.15677349 -1.746325
1.0700481 -0.16087447 -1.7529166
1.0817524 -0.16263415 -1.7337421
1.1388324 -0.17121573 -1.7440888
1.1483191 -0.17264195 -1.7256762
1.176234 -0.17683877 -1.7306651
1.2043256 -0.18106218 -1.7352856
1.2611394 -0.18960382 -1.7433238
1.2820436 -0.19274648 -1.7401475
1.304876 -0.19617923 -1.7352844
1.3216448 -0.19870032 -1.7222582
1.3425874 -0.20184888 -1.718376
1.3778392 -0.20714881 -1.7283081
1.4196635 -0.21343674 -1.7454513
1.4365553 -0.21597637 -1.7312605
1.4615833 -0.21973915 -1.7229012
1.4977604 -0.2251782 -1.7308981
1.5276767 -0.2296759 -1.7308532
1.5529212 -0.23347117 -1.7212864
0.51470494 -0.065022275 -1.7444916
0.54217333 -0.068492353 -1.7464985
0.5584079 -0.070543207 -1.7518002
0.56857067 -0.071827084 -1.7379494
0.5830121 -0.073651478 -1.7436377
0.59942919 -0.075725384 -1.7485566
0.6243546 -0.078874245 -1.7290344
0.6427747 -0.08120124 -1.7328435
0.65941352 -0.083303228 -1.7371914
0.67805451 -0.085658088 -1.7406334
0.69870698 -0.088267133 -1.7431056
0.709975 -0.089690611 -1.7276547
0.72490555 -0.09157677 -1.7213441
0.7556051 -0.095455028 -1.7515848
0.76856875 -0.097092733 -1.7348992
0.79180777 -0.1000285 -1.746263
0.79428846 -0.10034187 -1.7120564
0.81336164 -0.10275139 -1.7140259
0.83938473 -0.10603888 -1.7346725
0.85437107 -0.10793208 -1.7272233
0.86741602 -0.10958003 -1.7206051
0.8822794 -0.11145769 -1.7129099
0.94205832 -0.11900959 -1.7488462
0.95235366 -0.12031014 -1.7317472
0.98196661 -0.12405113 -1.749415
0.9890036 -0.12494011 -1.7223129
1.0158539 -0.12833212 -1.729645
1.0773329 -0.13609867 -1.7505517
1.0890338 -0.13757683 -1.7313515
1.1077058 -0.13993572 -1.7192748
1.1389762 -0.14388607 -1.7344826
1.170593 -0.14788021 -1.7492694
1.1875592 -0.15002353 -1.7376121
1.221566 -0.15431966 -1.7503034
1.2404352 -0.15670331 -1.7367685
1.2631515 -0.15957303 -1.7324793
1.29784 -0.16395523 -1.7438836
1.3166353 -0.16632958 -1.7295104
1.3578683 -0.17153867 -1.7479039
1.3748423 -0.17368294 -1.7343711
1.4060842 -0.17762966 -1.7346396
1.4165446 -0.1789511 -1.7129734
1.4524556 -0.18348773 -1.7217157
1.4886421 -0.18805917 -1.729936
1.5166942 -0.1916029 -1.7317698
1.5467805 -0.19540365 -1.7315276
1.5635558 -0.19752295 -1.716152
0.54443425 -0.055781554 -1.7357649
0.55758816 -0.057129275 -1.7315402
0.63884974 -0.065455213 -1.7349601
0.7100246 -0.072747633 -1.7392448
0.7232303 -0.074100688 -1.7337378
0.75133777 -0.076980516 -1.7216171
0.7684741 -0.078736261 -1.7249197
0.85103434 -0.087195233 -1.7300397
0.86602056 -0.088730678 -1.7225083
0.88094079 -0.090259388 -1.7148459
0.92287505 -0.09455587 -1.7265459
0.94447172 -0.096768633 -1.7261255
0.97890103 -0.10029618 -1.7526534
0.99103057 -0.101539 -1.7342285
1.0230232 -0.10481686 -1.7502391
1.0381782 -0.1063696 -1.7411983
1.0674247 -0.10936613 -1.7467524
1.0844474 -0.11111026 -1.7361245
1.1174525 -0.11449189 -1.7505975
1.1437556 -0.11718686 -1.745334
1.1551768 -0.11835702 -1.7256762
1.1794996 -0.12084915 -1.733256
1.207749 -0.12374349 -1.7379384
1.2170223 -0.12469365 -1.71913
1.2630041 -0.1294048 -1.7474768
1.2818912 -0.13133992 -1.7335237
1.3167826 -0.13491483 -1.744701
1.327683 -0.13603164 -1.7237034
1.3444382 -0.13774844 -1.7105296
1.3941792 -0.14284481 -1.7345777
1.4110671 -0.14457507 -1.7207229
1.4405946 -0.14760043 -1.7220341
1.4703119 -0.15064515 -1.7229012
1.504841 -0.15418293 -1.7325361
1.5349058 -0.15726329 -1.7325509
1.5584558 -0.15967621 -1.7247083
1.5752097 -0.16139276 -1.7092592
0.51340115 -0.040405449 -1.7456192
0.54182082 -0.042642113 -1.7369547
0.56491983 -0.04446004 -1.7505682
0.57697475 -0.045408767 -1.7360697
0.59341335 -0.046702515 -1.7410569
0.62888062 -0.04949386 -1.7391261
0.64558685 -0.050808679 -1.7436272
0.66236782 -0.052129369 -1.7479849
0.67375886 -0.053025883 -1.7435989
0.6963836 -0.054806512 -1.7454071
0.71154147 -0.055999409 -1.7392448
0.72477531 -0.057040971 -1.7337378
0.74754095 -0.058832657 -1.7348835
0.76446927 -0.06016494 -1.7274451
0.78771663 -0.061994504 -1.7388959
0.82213295 -0.064703152 -1.7338716
0.83967322 -0.066083625 -1.7365142
0.85474831 -0.067270055 -1.729098
0.86787069 -0.068302795 -1.7225083
0.89387 -0.070348963 -1.7316315
0.91356146 -0.071898744 -1.7325808
0.93807507 -0.073827997 -1.742115
0.95129395 -0.074868366 -1.7348875
0.97802275 -0.076971963 -1.742856
1.0049682 -0.079092629 -1.7504809
1.0574023 -0.083219275 -1.7308596
1.0901524 -0.085796788 -1.7457969
1.1385959 -0.089609332 -1.750334
1.1556567 -0.090952113 -1.7390473
1.1838576 -0.093171492 -1.7441045
1.2084535 -0.095107272 -1.7392511
1.2427431 -0.097805925 -1.7517202
1.2786824 -0.10063441 -1.7254982
1.3135701 -0.10338004 -1.7367344
1.3366226 -0.10519435 -1.7316103
1.359671 -0.10700829 -1.7262225
1.3890287 -0.10931881 -1.7283081
1.4166602 -0.11149354 -1.7315435
1.446323 -0.11382802 -1.7328569
1.4697024 -0.11566801 -1.7261217
1.4996072 -0.11802156 -1.7266583
1.536315 -0.12091054 -1.7342194
1.5550822 -0.12238748 -1.7173061
0.50199348 -0.027626274 -1.7179462
0.52849525 -0.029084753 -1.7517838
0.54373908 -0.029923659 -1.7470982
0.55514479 -0.030551355 -1.7434967
0.5684365 -0.031282853 -1.7391956
0.5816648 -0.032010864 -1.734803
0.59298939 -0.032634091 -1.7309531
0.61280918 -0.033724826 -1.7452298
0.61931372 -0.034082811 -1.721682
0.65798557 -0.036211025 -1.7393515
0.67121243 -0.036938947 -1.7342749
0.6994704 -0.038494091 -1.7230377
0.72401416 -0.039844852 -1.7345362
0.74099708 -0.040779453 -1.7273275
0.7640624 -0.042048793 -1.7390918
0.78516877 -0.043210339 -1.7406156
0.79192531 -0.043582246 -1.7155334
0.82155532 -0.045212816 -1.7347629
0.85351825 -0.046971839 -1.7192149
0.87941074 -0.048396777 -1.7285527
0.89904922 -0.049477588 -1.7296711
0.90751743 -0.049943611 -1.7139187
0.93192637 -0.051286917 -1.723509
0.95847261 -0.052747887 -1.7317472
0.98827577 -0.054388057 -1.749415
1.0022596 -0.055157613 -1.7298652
1.0463386 -0.057583373 -1.7269222
1.0613459 -0.058409285 -1.7177116
1.0850339 -0.059712898 -1.7264807
1.1037735 -0.060744241 -1.7145245
1.1406054 -0.062771216 -1.7382402
1.1650442 -0.064116135 -1.7339727
1.2274922 -0.067552932 -1.7516563
1.234848 -0.067957655 -1.7218978
1.275299 -0.070183828 -1.7419205
1.2964026 -0.071345225 -1.7387209
1.3194212 -0.072612002 -1.7338556
1.352843 -0.074451342 -1.7459589
1.3699077 -0.075390413 -1.7325615
1.3930852 -0.076666012 -1.7267992
1.424529 -0.078396514 -1.7268964
1.4671425 -0.080741599 -1.74338
1.4841462 -0.081677392 -1.7288837
1.5160714 -0.083434418 -1.7275896
1.559608 -0.085830346 -1.7423708
1.5631222 -0.086023703 -1.7122059
0.53859091 -0.016925823 -1.7488663
0.55382442 -0.017404508 -1.7440974
0.60008097 -0.018858176 -1.7498705
0.64914906 -0.020400207 -1.7429254
0.68486631 -0.021522712 -1.750684
0.70011008 -0.022001754 -1.744638
0.73620486 -0.023136061 -1.7405652
0.75533384 -0.023737263 -1.7432462
0.78244555 -0.024589252 -1.7531612
0.78939772 -0.024807734 -1.7280728
0.80020642 -0.025147391 -1.7120564
0.81942165 -0.025751246 -1.7140259
0.83687562 -0.026299788 -1.7166966
0.87762856 -0.027580453 -1.7186935
0.89535016 -0.028137399 -1.720801
0.91780758 -0.028843177 -1.731588
0.92811638 -0.029167129 -1.7147155
0.95567071 -0.030033063 -1.7338372
0.97753513 -0.030720156 -1.7330844
1.0177447 -0.031983864 -1.7329954
1.0672516 -0.033539664 -1.7382317
1.0789565 -0.033907484 -1.7191868
1.0974104 -0.034487378 -1.7193316
1.1232706 -0.035300087 -1.7264464
1.1623114 -0.036526989 -1.7486275
1.1719118 -0.036828648 -1.7301348
1.2058817 -0.037896227 -1.7432193
1.2229439 -0.03843249 -1.7312802
1.2822741 -0.040296983 -1.7377427
1.2992789 -0.040831339 -1.7250528
1.3424169 -0.042187106 -1.7424514
1.3513931 -0.042469155 -1.722798
1.3663682 -0.042939737 -1.7109337
1.4020224 -0.044060241 -1.7206951
1.4270988 -0.044848338 -1.7129734
1.4697521 -0.046188723 -1.7293339
1.5062824 -0.047336828 -1.7374903
1.5232739 -0.047870766 -1.7225983
1.5534807 -0.04881997 -1.7224152
0.5054599 -0.0039698295 -1.7483977
0.57046688 -0.0044804029 -1.7493277
0.59577119 -0.0046791853 -1.730299
0.64756316 -0.0050859568 -1.7436272
0.68325794 -0.0053662765 -1.7514365
0.69670838 -0.0054719569 -1.735358
0.71369576 -0.0056053228 -1.7284405
0.73264855 -0.0057542445 -1.7313558
0.78280759 -0.0061482 -1.7531612
0.79391974 -0.0062354323 -1.737168
0.8132844 -0.0063875434 -1.7392318
0.83465898 -0.0065554497 -1.7401727
0.85168695 -0.006689203 -1.731902
0.86866307 -0.0068225092 -1.7234493
0.89929003 -0.0070630428 -1.7415015
0.90978706 -0.0071455068 -1.7247424
0.94187695 -0.0073975432 -1.7529726
0.96384454 -0.0075700688 -1.7524116
0.97611165 -0.0076663913 -1.7341417
1.0049689 -0.0078930967 -1.7407112
1.0525366 -0.008266639 -1.7474835
1.1232679 -0.0088222139 -1.7505975
1.1685501 -0.0091778748 -1.7448227
1.1969297 -0.0094007365 -1.7497631
1.2674907 -0.0099550011 -1.7366254
1.3023859 -0.010229062 -1.7481666
1.3236352 -0.010395955 -1.744701
1.3407143 -0.010530126 -1.7316103
1.3762318 -0.010809015 -1.7419155
1.3932809 -0.010942948 -1.7283081
1.4292217 -0.011225176 -1.737728
1.4462274 -0.011358751 -1.7236001
1.4844745 -0.011659098 -1.7304912
1.5277163 -0.011998724 -1.7459494
1.5514563 -0.012185288 -1.7383138
1.575163 -0.012371433 -1.730407
0.5442102 0.0085492609 -1.7262276
0.56659675 0.0089009292 -1.7505682
0.57804054 0.0090806969 -1.7468219
0.62844741 0.0098725446 -1.7505873
0.64369822 0.010112125 -1.7450359
0.67937255 0.010672558 -1.752923
0.71744972 0.011270691 -1.7484962
0.73267877 0.011509944 -1.7421679
0.74785221 0.011748332 -1.735707
0.76891601 0.012079227 -1.7374182
0.79911727 0.012553619 -1.7237325
0.82269692 0.012924033 -1.7347629
0.85915595 0.013496804 -1.7281692
0.87686002 0.013774919 -1.7304701
0.89003122 0.013981806 -1.723731
0.90970284 0.014290856 -1.7247424
0.9370572 0.014720608 -1.7441636
0.95893657 0.015064258 -1.7436495
0.98092604 0.015409727 -1.742856
0.99111533 0.015569794 -1.7255573
1.0383441 0.016311754 -1.732621
1.0657654 0.016742457 -1.7393861
1.0978168 0.017245935 -1.7193316
1.141976 0.017939735 -1.750334
1.164633 0.018295635 -1.7473681
1.1929991 0.018741239 -1.7523704
1.2177581 0.019130159 -1.7474552
1.2348374 0.019398499 -1.7354251
1.2906061 0.020274568 -1.7443695
1.3136777 0.020637024 -1.7396048
1.342914 0.021096278 -1.7424514
1.3784828 0.021655072 -1.7527739
1.3893787 0.021826195 -1.7313436
1.4145223 0.022221135 -1.7238134
1.4506162 0.022788215 -1.7328569
1.4935461 0.023462582 -1.7489338
1.5059563 0.023657607 -1.7250032
1.536101 0.024131106 -1.725083
1.5578095 0.024472045 -1.7190204
1.5814105 0.024842786 -1.7109716
0.50889605 0.01999468 -1.7472907
0.56815279 0.022322882 -1.749944
0.58147281 0.02284627 -1.7455565
0.59802192 0.023496497 -1.7505193
0.62506098 0.024558829 -1.7304033
0.66390377 0.026084948 -1.7479849
0.71698129 0.028170366 -1.7376835
0.73400807 0.028839367 -1.7305491
0.75892258 0.029818226 -1.7415932
0.77220368 0.030340064 -1.7357364
0.77714205 0.030534105 -1.7115834
0.81310201 0.031946976 -1.7500699
0.81359994 0.031966552 -1.7166924
0.84349751 0.033141244 -1.7356018
0.85603917 0.033633966 -1.718274
0.91083217 0.035786826 -1.746426
0.92132539 0.036199082 -1.7295805
0.9526239 0.037428785 -1.7467703
0.97457111 0.038291115 -1.7460655
0.98481059 0.038693447 -1.7288004
1.0269066 0.040347386 -1.727407
1.0593666 0.041622747 -1.7428741
1.0779067 0.042351115 -1.7432222
1.1281701 0.044325996 -1.7469022
1.1452373 0.044996608 -1.7357439
1.2245765 0.048113812 -1.7421244
1.2743293 0.050068665 -1.7433238
1.2954521 0.050898541 -1.7401475
1.3264558 0.05211674 -1.741809
1.3477196 0.0529521 -1.7380587
1.3647196 0.053620089 -1.7247218
1.4003974 0.055021871 -1.7345777
1.4364284 0.056437541 -1.7438717
1.453451 0.057106365 -1.7296876
1.4768697 0.058026422 -1.7229012
1.5219144 0.059796322 -1.7367501
1.5569617 0.061173309 -1.7457744
1.5788437 0.062033046 -1.7395127
1.5909111 0.062507138 -1.7148454
0.50447804 0.031739179 -1.7483977
0.51968616 0.032695998 -1.7439201
0.55109018 0.034671772 -1.7447056
0.56438506 0.035508234 -1.7404335
0.59730238 0.037579168 -1.7505193
0.61060989 0.038416434 -1.7459036
0.66310495 0.041719127 -1.7479849
0.67450857 0.042436589 -1.7435989
0.69345027 0.043628264 -1.736123
0.71233332 0.044816304 -1.7392448
0.72944134 0.045892645 -1.7429599
0.76749337 0.048286755 -1.7374182
0.79272205 0.049873937 -1.748
0.79949987 0.050300378 -1.7228667
0.81262094 0.051125929 -1.7166924
0.85380149 0.053716708 -1.7300397
0.88838458 0.055892546 -1.723731
0.90524566 0.056953356 -1.7149012
0.94099987 0.059202809 -1.7410957
0.95802867 0.060274202 -1.731747
0.97798908 0.061529983 -1.7320079
0.99802661 0.062790617 -1.7320508
1.0200087 0.064173594 -1.7307696
1.050492 0.066091493 -1.7474835
1.0708953 0.067375109 -1.7467524
1.1172717 0.070292942 -1.753044
1.132497 0.071250841 -1.7432081
1.1605905 0.073018305 -1.7486275
1.2116972 0.076233618 -1.7501081
1.2287711 0.077307865 -1.7381153
1.2633028 0.079480402 -1.7502426
1.2882183 0.081047878 -1.7443695
1.3052324 0.082118437 -1.731625
1.3343365 0.083949432 -1.7345313
1.3512521 0.085013732 -1.721334
1.3805612 0.086857721 -1.7235448
1.4081486 0.088593349 -1.7268957
1.4249859 0.089652643 -1.7129734
1.4843012 0.09338443 -1.7413298
1.4909736 0.093804225 -1.7223817
1.5276318 0.096110567 -1.7300879
1.5796236 0.099381611 -1.7235174
0.50460136 0.043703321 -1.7376902
0.5206514 0.045093421 -1.7433555
0.53391349 0.046242062 -1.7393097
0.54410809 0.047124986 -1.7256377
0.55534852 0.048098523 -1.7220262
0.57975113 0.050211985 -1.7455565
0.59625125 0.051641066 -1.7505193
0.61144751 0.052957226 -1.7452298
0.63979906 0.055412699 -1.7349601
0.66193795 0.05733015 -1.7479849
0.6769222 0.058627922 -1.752923
0.69025266 0.059782464 -1.7476777
0.70542061 0.06109615 -1.741565
0.72053492 0.062405217 -1.7353199
0.73168159 0.0633706 -1.7197459
0.75459027 0.06535469 -1.7315953
0.77776015 0.067361489 -1.7431728
0.81595725 0.070669696 -1.7365539
0.835352 0.072349474 -1.7383476
0.84853673 0.07349135 -1.731902
0.86356151 0.074792638 -1.7244035
0.88952398 0.077041194 -1.7335835
0.90456188 0.078343675 -1.7257259
0.93746626 0.081193522 -1.7421149
0.98607975 0.085403852 -1.7494149
1.0251843 0.0887907 -1.73825
1.0454073 0.090542182 -1.7377645
1.0623385 0.092008576 -1.7273886
1.1680174 0.10116135 -1.7422692
1.1981856 0.10377423 -1.7458472
1.2266828 0.10624235 -1.7503034
1.2764384 0.11055171 -1.7513947
1.2994827 0.11254756 -1.7467334
1.3285671 0.11506646 -1.7497625
1.3413786 0.11617611 -1.7272252
1.3830301 0.11978345 -1.7452163
1.4000179 0.12125485 -1.731516
1.437838 0.12453036 -1.7391707
1.4612311 0.1265565 -1.7325379
1.491114 0.12914459 -1.7332053
1.5230473 0.13191025 -1.7317698
1.5465931 0.13394962 -1.7240961
1.5682541 0.13582568 -1.7178563
0.52609849 0.058081944 -1.7517838
0.56703925 0.062601857 -1.7493277
0.5972985 0.065942511 -1.739105
0.60717738 0.067033127 -1.7250339
0.63831598 0.070470855 -1.7349601
0.66040355 0.072909348 -1.7479849
0.67554015 0.074580416 -1.7421203
0.71133184 0.078531876 -1.738459
0.73599374 0.081254594 -1.7497745
0.75114298 0.082927063 -1.7432462
0.7622022 0.084148034 -1.7274451
0.77715677 0.085799024 -1.7206875
0.80652666 0.089041486 -1.740111
0.819695 0.090495303 -1.7338716
0.84094679 0.092841521 -1.7346725
0.86039609 0.094988748 -1.7361727
0.87728125 0.096852824 -1.7275985
0.92304325 0.101905 -1.7373849
0.97808313 0.10798147 -1.7526532
1.0120978 0.11173676 -1.7329953
1.1316608 0.12493663 -1.7407283
1.184126 0.13072883 -1.7415096
1.2428533 0.13721244 -1.7489965
1.2657351 0.13973854 -1.7447028
1.2945607 0.14292096 -1.7481666
1.4187647 0.15663324 -1.7392737
1.456705 0.16082184 -1.7465814
1.4588886 0.16106288 -1.7185175
1.5166583 0.16744076 -1.7476015
1.5336233 0.16931371 -1.7325509
1.5705198 0.17338715 -1.7395127
1.5825235 0.17471235 -1.7148454
0.53593612 0.071985342 -1.7482822
0.5491662 0.073762372 -1.7440974
0.5786441 0.07772176 -1.7449155
0.58995044 0.079240367 -1.7410569
0.61958182 0.083220378 -1.7411757
0.64960468 0.08725293 -1.7300001
0.66813469 0.089741841 -1.7335347
0.68677491 0.092245504 -1.7368739
0.70362651 0.094508961 -1.7299935
0.73008996 0.098063461 -1.7513857
0.74128753 0.099567458 -1.735707
0.75815511 0.10183306 -1.7282739
0.78125453 0.10493572 -1.7397499
0.79627162 0.10695277 -1.7328048
0.8130784 0.10921021 -1.724841
0.83852601 0.11262824 -1.7346725
0.855349 0.11488788 -1.7262905
0.88567555 0.1189612 -1.7444273
0.89153802 0.11974867 -1.7188426
0.91756749 0.12324487 -1.7275648
0.94487381 0.12691249 -1.7467703
0.96180916 0.12918721 -1.7373352
0.97679859 0.1312006 -1.7288004
1.0085661 0.13546748 -1.7449477
1.0305574 0.13842125 -1.7434709
1.1227664 0.15080653 -1.744435
1.1487515 0.15429671 -1.7511604
1.2449566 0.16721873 -1.7448841
1.2755023 0.17132156 -1.7471814
1.3043376 0.17519455 -1.75046
1.3583831 0.18245374 -1.746398
1.3691 0.18389325 -1.7250648
1.4171873 0.19035213 -1.7501276
1.4296695 0.19202875 -1.7267513
1.4638101 0.19661443 -1.7369521
1.4936131 0.20061748 -1.7374903
1.5151427 0.2035092 -1.7317698
1.5518297 0.20843689 -1.738959
1.5887711 0.2133988 -1.7456138
1.6056942 0.21567182 -1.7297779
0.55360645 0.087682784 -1.7315402
0.57475704 0.091032684 -1.7455565
0.60804534 0.096305028 -1.7445648
0.6196909 0.098149493 -1.7297254
0.63617158 0.10075982 -1.7342529
0.68617415 0.10867943 -1.7469269
0.70120502 0.1110601 -1.7407979
0.71812773 0.1137404 -1.7445502
0.75181961 0.11907662 -1.7299387
0.76670146 0.12143369 -1.7232302
0.79203606 0.12544627 -1.7445177
0.80283868 0.12715732 -1.7284042
0.82440841 0.13057359 -1.7401727
0.86055845 0.13629918 -1.7333382
0.88262707 0.13979451 -1.7444273
0.91997713 0.14571016 -1.7472293
0.95289302 0.15092357 -1.7404932
0.97758543 0.15483446 -1.7494149
0.99262661 0.15721671 -1.7407111
1.0113217 0.16017772 -1.7296449
1.0364019 0.16415004 -1.7377645
1.0583755 0.16763036 -1.7358978
1.0890808 0.17249359 -1.75187
1.1634699 0.18427567 -1.7505656
1.2161158 0.192614 -1.7503034
1.233014 0.19529037 -1.7381421
1.2615038 0.19980268 -1.7419205
1.2901549 0.20434056 -1.7453209
1.3051488 0.20671533 -1.7338556
1.3461684 0.21321224 -1.7523617
1.3630801 0.21589075 -1.7389088
1.3842235 0.21923958 -1.7345777
1.4198381 0.22488038 -1.7438717
1.4430212 0.22855215 -1.737341
1.4533815 0.23019312 -1.7153114
1.4848001 0.2351694 -1.7141949
1.5342594 0.24300294 -1.7366339
1.5576965 0.24671499 -1.7286739
1.5792569 0.25012988 -1.7221738
1.6076068 0.25462002 -1.7226925
0.52633423 0.096125834 -1.7500377
0.54133749 0.098865911 -1.745302
0.57059431 0.10420915 -1.7461851
0.58685136 0.10717825 -1.7511762
0.6112355 0.11163154 -1.7425354
0.63918579 0.11673619 -1.7321415
0.65049577 0.11880173 -1.7170734
0.70024532 0.12788765 -1.7508287
0.71710539 0.13096683 -1.7437624
0.73204744 0.13369574 -1.7373347
0.74509096 0.13607787 -1.7315953
0.77198988 0.14099054 -1.7522994
0.80007577 0.14611991 -1.7392318
0.81313157 0.1485043 -1.7329638
0.8279773 0.15121563 -1.7256845
0.85153872 0.1555187 -1.7361727
0.8637746 0.15775339 -1.7186935
0.89215124 0.16293593 -1.7375609
0.90890378 0.1659954 -1.7285657
0.93125319 0.17007716 -1.7390345
0.99610937 0.18192203 -1.7363094
1.0160066 0.18555589 -1.7360009
1.0345745 0.18894695 -1.7246317
1.0615734 0.19387786 -1.7312057
1.123533 0.20519365 -1.7503339
1.1458243 0.2092648 -1.747368
1.1681957 0.21335055 -1.7441044
1.1812167 0.21572866 -1.7228432
1.2148947 0.22187929 -1.7354251
1.2489575 0.22810023 -1.7474768
1.2676347 0.2315114 -1.7335237
1.2961923 0.23672687 -1.7367344
1.330985 0.24308114 -1.7474241
1.3599788 0.24837641 -1.7497619
1.3644785 0.24919812 -1.7205229
1.4122587 0.25792438 -1.7454513
1.441709 0.26330292 -1.7465814
1.4675328 0.26801926 -1.7505752
1.4650217 0.26756054 -1.7131909
1.5122647 0.27618873 -1.7375774
1.5374185 0.28078264 -1.7281221
1.5606886 0.28503257 -1.7200602
1.5839801 0.28928626 -1.7116719
0.53885794 0.11159225 -1.745302
0.55375147 0.11467655 -1.7404335
0.58100569 0.12032063 -1.7417104
0.59402663 0.12301713 -1.7371238
0.60698313 0.12570029 -1.7324464
0.62514329 0.12946106 -1.736357
0.67111737 0.13898186 -1.7398808
0.70633674 0.14627545 -1.736114
0.7684539 0.15913926 -1.7522994
0.79364097 0.16435526 -1.7184647
0.82289946 0.17041437 -1.7374393
0.84205544 0.17438145 -1.7390037
0.85432076 0.17692147 -1.7215501
0.87350184 0.1808937 -1.7227513
0.8927682 0.18488352 -1.7237409
0.92419279 0.19139124 -1.7519523
0.92497075 0.19155242 -1.7173632
0.96878397 0.20062561 -1.7266461
0.98844391 0.20469706 -1.7265798
1.0269641 0.21267416 -1.7497755
1.0367699 0.21470486 -1.7320248
1.0689524 0.22136958 -1.7469791
1.0804101 0.22374232 -1.7277596
1.1111594 0.23011021 -1.7432079
1.1387237 0.23581852 -1.7486274
1.1814097 0.24465834 -1.7432191
1.2019037 0.24890243 -1.7407972
1.2357587 0.25591344 -1.7529999
1.2525364 0.25938794 -1.7405374
1.3095685 0.27119875 -1.7468491
1.3532687 0.28024858 -1.7373903
1.3822322 0.28624666 -1.7392806
1.3845686 0.28673047 -1.7114776
1.4343611 0.29704201 -1.7341495
1.4701536 0.30445433 -1.7423996
1.4803537 0.30656666 -1.7200783
1.5379043 0.31848478 -1.7481184
1.5480347 0.32058275 -1.7252291
1.5845888 0.32815266 -1.7315583
0.52306628 0.1212404 -1.7494577
0.58674556 0.13600045 -1.7492094
0.61601138 0.14278391 -1.749212
0.62899017 0.14579219 -1.7443383
0.6454134 0.14959891 -1.7487029
0.6565491 0.15218003 -1.7443292
0.68790871 0.15944885 -1.7423426
0.70830131 0.16417553 -1.7445502
0.72877252 0.1689205 -1.746527
0.76449132 0.17719971 -1.7522994
0.77529967 0.17970492 -1.7362939
0.7923044 0.18364646 -1.7392318
0.80705976 0.18706657 -1.7320683
0.82847583 0.1920305 -1.7436604
0.84509718 0.19588314 -1.735235
0.85722494 0.19869421 -1.7177269
0.87897789 0.20373626 -1.7286958
0.8936404 0.20713483 -1.7207562
0.92686522 0.21483596 -1.7478175
0.94168842 0.21827181 -1.7394482
0.96605241 0.22391905 -1.7483429
0.98763061 0.22892059 -1.7471637
1.027256 0.23810531 -1.7463249
1.070856 0.24821125 -1.7421993
1.1074787 0.25669992 -1.7298832
1.1457037 0.26556 -1.7518393
1.1882951 0.2754322 -1.7461362
1.2106093 0.28060433 -1.7422072
1.2386676 0.28710788 -1.7461019
1.2894901 0.29888791 -1.744701
1.3139255 0.30455172 -1.7380587
1.3425947 0.31119686 -1.7404011
1.3530378 0.31361747 -1.719021
1.3818204 0.3202889 -1.7207229
1.4214435 0.32947302 -1.738921
1.4569952 0.33771348 -1.7473165
1.4736506 0.34157401 -1.7325361
1.4901346 0.34539485 -1.717615
1.575663 0.36521924 -1.7459385
1.597128 0.37019455 -1.7390337
1.6069455 0.37247002 -1.7156317
0.52745336 0.13542715 -1.7470982
0.54220045 0.13921355 -1.7422795
0.5746929 0.14755619 -1.7417104
0.59076554 0.15168294 -1.7465647
0.60038793 0.15415354 -1.7324464
0.6183508 0.15876564 -1.736357
0.63801295 0.16381404 -1.7501441
0.6875993 0.17654563 -1.7516103
0.70051062 0.17986073 -1.7353199
0.71895552 0.18459655 -1.7381389
0.73932517 0.18982656 -1.7399322
0.75003517 0.19257642 -1.7240827
0.77267003 0.19838805 -1.7354317
0.82068068 0.2107151 -1.7229284
0.84139836 0.21603452 -1.7234493
0.86480337 0.22204392 -1.7335835
0.88393319 0.22695561 -1.7345757
0.90314531 0.23188843 -1.7353548
0.91958851 0.23611037 -1.7261254
0.94547451 0.24275674 -1.7341416
0.99301791 0.25496385 -1.7404909
1.0108262 0.25953618 -1.7411982
1.0540266 0.27062818 -1.7373221
1.0738841 0.27572671 -1.7361877
1.1062351 0.284033 -1.7503339
1.1796454 0.30288163 -1.7474551
1.2074221 0.31001344 -1.7517201
1.2596749 0.32342976 -1.7495748
1.2820903 0.32918498 -1.7447009
1.3104931 0.33647755 -1.7474241
1.3330361 0.34226567 -1.7419155
1.3495501 0.3465057 -1.7283081
1.4797658 0.37993944 -1.7459494
1.4898616 0.38253158 -1.7233926
1.5340935 0.39388841 -1.7360615
1.5750699 0.40440941 -1.7514874
1.5898141 0.40819508 -1.7372299
1.6129627 0.41413856 -1.7282478
0.50942266 0.14367218 -1.7517838
0.54792255 0.15453029 -1.7391956
0.562509 0.15864411 -1.7341614
0.59435701 0.16762616 -1.7438867
0.6214242 0.17525989 -1.7443383
0.63423991 0.17887427 -1.7393515
0.68147749 0.19219667 -1.741565
0.71818686 0.2025498 -1.7473354
0.72329789 0.20399122 -1.7232608
0.74166805 0.20917217 -1.7257681
0.76232612 0.21499832 -1.738026
0.77689457 0.21910708 -1.7310479
0.79371297 0.22385038 -1.7338716
0.80644661 0.22744159 -1.7275167
0.82092518 0.23152499 -1.7201389
0.83786952 0.23630379 -1.7225083
0.85854459 0.24213479 -1.7227513
0.88648081 0.25001359 -1.7414204
0.91022098 0.25670907 -1.7509135
0.92204964 0.26004508 -1.7328014
0.94787109 0.26732743 -1.7407115
0.98854756 0.27879941 -1.7393805
1.0148994 0.28623137 -1.7463249
1.0262809 0.28944135 -1.7273885
1.0510036 0.29641387 -1.7349437
1.0829804 0.30543223 -1.7493612
1.1940964 0.33677018 -1.7313634
1.2217487 0.34456897 -1.7352527
1.2438588 0.3508046 -1.7307082
1.2776394 0.36033174 -1.7418089
1.3241047 0.37343627 -1.7295641
1.3524987 0.38144422 -1.731516
1.3705966 0.3865484 -1.7160842
1.4116343 0.39812219 -1.7325379
1.4568247 0.41086715 -1.7184151
1.4987057 0.42267889 -1.7332408
1.5261949 0.43043154 -1.7343465
1.5687789 0.44244158 -1.7479354
1.5852045 0.44707406 -1.7318636
0.50408435 0.15507674 -1.7523556
0.55317366 0.17017859 -1.7360697
0.56584215 0.17407593 -1.7315947
0.60073978 0.18481183 -1.7505873
0.61348379 0.18873237 -1.7457427
0.62439138 0.19208801 -1.7415044
0.65323067 0.20096014 -1.7406334
0.65880734 0.20267574 -1.7167979
0.68581444 0.21098423 -1.7376835
0.70210111 0.21599466 -1.7305491
0.71849763 0.22103886 -1.7340711
0.74252391 0.22843032 -1.7448719
0.76281935 0.23467402 -1.746263
0.76925802 0.23665477 -1.7211149
0.78951859 0.24288781 -1.7221398
0.80806112 0.24859221 -1.7238442
0.83525872 0.25695929 -1.7432196
0.84359378 0.25952345 -1.7275985
0.86239374 0.2653071 -1.7286958
0.89026845 0.27388251 -1.7472293
0.90205586 0.27750883 -1.7292148
0.95996952 0.29532531 -1.7179469
1.0219332 0.31438789 -1.749089
1.0597035 0.32600743 -1.7361877
1.093437 0.33638528 -1.749097
1.1151212 0.34305626 -1.7460862
1.1314371 0.34807566 -1.7345586
1.1658748 0.35867006 -1.7461362
1.1822177 0.3636978 -1.734066
1.204044 0.37041253 -1.7299342
1.2448497 0.38296589 -1.7481664
1.2612078 0.38799834 -1.7352843
1.2774154 0.39298448 -1.7222581
1.3190624 0.40579674 -1.7389086
1.341345 0.41265178 -1.7330354
1.3697028 0.42137578 -1.7346057
1.3938736 0.42881167 -1.72651
1.4162601 0.43569863 -1.7196727
1.4512432 0.44646084 -1.7275896
1.4947191 0.45983583 -1.7406796
1.5303665 0.47080237 -1.7473474
1.5597266 0.47983474 -1.7461706
1.5958338 0.49094272 -1.7517676
1.6121798 0.49597144 -1.7353065
0.50933522 0.16992722 -1.7494577
0.55383116 0.18477219 -1.7449155
0.56951797 0.19000572 -1.7498705
0.58082503 0.19377802 -1.7351346
0.60769212 0.20274158 -1.7248785
0.63026512 0.21027248 -1.7479849
0.65558302 0.21871918 -1.7268389
0.67345417 0.22468147 -1.7299935
0.69142717 0.23067769 -1.7329501
0.71146262 0.23736201 -1.7457033
0.72384137 0.2414919 -1.7291139
0.75166833 0.25077569 -1.7488586
0.75813627 0.25293359 -1.7237325
0.78050673 0.26039693 -1.7347629
0.8007592 0.26715362 -1.7356018
0.81509602 0.27193677 -1.7281692
0.83189225 0.27754045 -1.7304701
0.8479532 0.28289875 -1.7217849
0.87106228 0.29060853 -1.731588
0.8881017 0.29629329 -1.7333163
0.91157782 0.30412555 -1.7425939
0.92596823 0.30892652 -1.7341416
0.95152688 0.31745353 -1.7418151
0.96771634 0.32285476 -1.7318746
1.0147073 0.33853209 -1.7370564
1.0340924 0.34499946 -1.7361244
1.0553192 0.3520813 -1.7337646
1.108521 0.36983073 -1.7448226
1.1247309 0.37523878 -1.7332559
1.157101 0.38603821 -1.7461362
1.1806171 0.39388379 -1.7408614
1.2079715 0.40300995 -1.7447027
1.224147 0.4084065 -1.7321283
1.2649971 0.4220351 -1.7497624
1.2870694 0.42939895 -1.744468
1.3091357 0.43676087 -1.7389086
1.327051 0.44273788 -1.7237512
1.3491039 0.4500953 -1.7176242
1.3833841 0.46153203 -1.7265099
1.4303705 0.47720787 -1.7499751
1.4528464 0.4847064 -1.7426121
0.51417494 0.18511452 -1.7464985
0.54097819 0.19476427 -1.7373283
0.55825609 0.2009847 -1.7417104
0.58856159 0.21189538 -1.7304033
0.64840925 0.23344186 -1.7383815
0.66974503 0.24112318 -1.7508287
0.68228972 0.24563956 -1.7453487
0.69849956 0.25147545 -1.7489592
0.71460658 0.25727433 -1.7415932
0.72298205 0.26028973 -1.7157931
0.77895343 0.28044066 -1.7212451
0.80136061 0.28850773 -1.731902
0.822227 0.29602012 -1.7432196
0.84257406 0.3033455 -1.7434593
0.84989011 0.30597946 -1.716876
0.86840773 0.31264618 -1.717737
0.90689075 0.32650089 -1.7524115
0.91027385 0.32771891 -1.727542
0.93662381 0.3372055 -1.7461753
0.95092541 0.34235436 -1.7374218
1.0006126 0.36024287 -1.7525693
1.0235085 0.36848593 -1.7493565
1.034557 0.37246364 -1.7301625
1.115508 0.40160772 -1.745409
1.1423167 0.41125944 -1.750108
1.1638516 0.41901255 -1.7462754
1.2144562 0.43723136 -1.7443694
1.22307 0.44033244 -1.7250527
1.2543703 0.45160133 -1.7374438
1.2819457 0.46152893 -1.7400304
1.2979707 0.4672983 -1.7265584
1.3275194 0.4779366 -1.7268956
1.355441 0.48798895 -1.7283362
1.3774492 0.49591237 -1.7217156
0.50432354 0.19510822 -1.7482822
0.51677322 0.19992462 -1.7440974
0.56172937 0.21731685 -1.7492094
0.5759443 0.22281618 -1.7438867
0.58833224 0.22760873 -1.7391261
0.60396135 0.23365517 -1.7436272
0.63725263 0.24653462 -1.7514365
0.64792991 0.25066531 -1.7469269
0.6762656 0.26162761 -1.7345362
0.69581002 0.26918876 -1.7365154
0.73132253 0.28292751 -1.7306412
0.75498354 0.29208127 -1.7410021
0.76111251 0.29445237 -1.7158104
0.78553361 0.30390018 -1.7365142
0.82809067 0.32036427 -1.7473501
0.85380244 0.33031142 -1.7217478
0.87223291 0.33744165 -1.7224815
0.90430462 0.34984925 -1.7492394
0.91566169 0.35424295 -1.7309464
0.96621954 0.3738023 -1.7457352
1.0011657 0.38732201 -1.7347186
1.0319424 0.39922857 -1.7494603
1.0706965 0.41422135 -1.7344825
1.096959 0.42438155 -1.7397071
1.1376029 0.4401055 -1.7339454
1.1642914 0.45043054 -1.738142
1.1783932 0.4558861 -1.7271818
1.2126591 0.46914265 -1.7373148
1.2267524 0.47459489 -1.725902
1.2557052 0.48579592 -1.7272251
1.2830848 0.49638826 -1.7295641
0.50735986 0.21015547 -1.7351716
0.5195998 0.21522547 -1.7309228
0.53939825 0.22342622 -1.7449155
0.55167794 0.22851266 -1.7404118
0.56395364 0.2335974 -1.7357962
0.59157526 0.24503864 -1.735654
0.59880322 0.24803255 -1.7220669
0.65065163 0.2695089 -1.7431056
0.66821575 0.27678421 -1.7461324
0.70346278 0.29138398 -1.7407571
0.72124666 0.29875034 -1.7431728
0.73700851 0.30527908 -1.7354317
0.75490373 0.31269151 -1.7374533
0.76487815 0.3168231 -1.7212451
0.78921664 0.32690442 -1.7418009
0.79908913 0.33099371 -1.7253405
0.81122339 0.33601987 -1.7186935
0.83963823 0.34778965 -1.7365626
0.88253456 0.36555797 -1.7457377
0.89382565 0.37023488 -1.727542
0.91403073 0.37860411 -1.7266461
0.94367623 0.39088368 -1.7427235
0.99874628 0.41369441 -1.7300181
1.0342653 0.42840683 -1.7530439
1.0501297 0.43497813 -1.7419591
1.0743659 0.4450171 -1.7486274
1.1023234 0.45659745 -1.7523702
1.1216756 0.46461341 -1.750108
1.1694473 0.48440114 -1.7502425
1.1780344 0.48795798 -1.7310781
1.1936647 0.49443224 -1.718488
0.54561633 0.2412146 -1.7511762
0.5578441 0.24662046 -1.7465647
0.67019594 0.2962907 -1.7421679
0.68944913 0.30480242 -1.7440629
0.70704466 0.31258136 -1.7465625
0.72095764 0.31873217 -1.7397499
0.75470269 0.33365071 -1.7447065
0.77258146 0.34155488 -1.7464415
0.78011322 0.34488463 -1.7201389
0.80034065 0.35382709 -1.7314333
0.83385736 0.36864465 -1.7237409
0.86496973 0.38239932 -1.7509135
0.87621021 0.38736868 -1.7328014
0.94581014 0.41813844 -1.7468553
0.97525966 0.43115795 -1.7273885
1.0947829 0.48399866 -1.737612
1.1261328 0.49785835 -1.7503033
0.51447666 0.2420945 -1.749944
0.53859675 0.25344458 -1.7410569
0.55358869 0.26049924 -1.7459036
0.56564879 0.26617432 -1.7411757
0.58791888 0.2766538 -1.7321415
0.62170523 0.29255247 -1.7499416
0.65098721 0.30633152 -1.7477061
0.66646695 0.31361571 -1.7405652
0.68738282 0.32345799 -1.7524211
0.71869445 0.33819211 -1.748
0.73076427 0.34387171 -1.7418771
0.73673522 0.34668148 -1.7166924
0.7581597 0.35676306 -1.7275167
0.79109949 0.37226337 -1.720605
0.81053698 0.38140991 -1.720801
0.83002681 0.39058119 -1.7207562
0.87367368 0.41111982 -1.7286048
0.93451613 0.43975013 -1.7360009
0.94987833 0.44697896 -1.725787
0.96995425 0.45642599 -1.7238804
1.0215864 0.48072228 -1.7469021
0.50179493 0.2507329 -1.7524083
0.51373649 0.25669977 -1.7480789
0.53755653 0.26860192 -1.739105
0.55410713 0.27687186 -1.7432175
0.58269346 0.29115558 -1.7422103
0.59775972 0.29868376 -1.7465312
0.64528078 0.3224287 -1.7469265
0.72925186 0.36438668 -1.7383366
0.7500571 0.37478244 -1.7383476
0.76923883 0.38436702 -1.7390037
0.77874964 0.38911933 -1.7225083
