# .PCD v0.7 - Point Cloud Data file format
VERSION 0.7
FIELDS x y z
SIZE 4 4 4
TYPE F F F
COUNT 1 1 1
WIDTH 1046
HEIGHT 1
VIEWPOINT 0 0 0 1 0 0 0
POINTS 1046
DATA ascii
1.3670211 -0.48006356 -1.520129
1.3698248 -0.48104817 -1.5034204
1.3673923 -0.48019397 -1.4780229
1.3780128 -0.48392364 -1.4669009
1.375113 -0.48290527 -1.4416541
1.3787127 -0.48416936 -1.4234927
1.3806721 -0.48485753 -1.4069675
1.3839058 -0.48599306 -1.38889
1.3814739 -0.48513898 -1.3624133
1.3647861 -0.47927874 -1.3225925
1.3545684 -0.47569051 -1.2898694
1.3567656 -0.4764621 -1.2722306
1.367189 -0.48012254 -1.2596334
1.3559847 -0.47618788 -1.2274569
1.3660394 -0.47971886 -1.2148687
1.3601946 -0.47766635 -1.1910523
1.3687454 -0.4806692 -1.179997
1.3624676 -0.4784646 -1.1563966
1.3781781 -0.48398164 -1.1515149
1.3715168 -0.48164237 -1.1280789
1.3634704 -0.47881672 -1.1063828
1.3714105 -0.48160502 -1.0953034
1.3716743 -0.48169774 -1.0782286
1.3794111 -0.48441473 -1.0670836
1.3717234 -0.48171493 -1.0442344
1.3781424 -0.48396915 -1.0346967
1.3778244 -0.48385745 -1.0177827
1.377327 -0.48368278 -1.0009601
1.3845062 -0.48620394 -0.98977154
1.3847351 -0.48628432 -0.9714092
1.3847678 -0.48629579 -0.95311844
1.3747309 -0.4827711 -0.9327094
1.3823582 -0.48544961 -0.91995901
1.3818462 -0.48526976 -0.90189499
1.3721532 -0.48186582 -0.88034147
1.3793492 -0.48439291 -0.86761689
1.3782848 -0.4840191 -0.8497979
1.3688359 -0.48070097 -0.82711226
1.375594 -0.48307416 -0.8144204
1.3648839 -0.47931308 -0.79363161
1.3788617 -0.48422167 -0.78731817
1.3781621 -0.44779199 -1.5337051
1.3811027 -0.44874737 -1.5169644
1.3737309 -0.44635215 -1.4827452
1.3859845 -0.45033357 -1.4700838
1.383114 -0.44940093 -1.4448303
1.3784965 -0.44790062 -1.4212784
1.3887894 -0.45124498 -1.4101566
1.3783034 -0.44783786 -1.3783036
1.3882838 -0.45108071 -1.3671848
1.3827966 -0.44929785 -1.3440256
1.37844 -0.44788226 -1.3194336
1.3738291 -0.44638407 -1.2949651
1.3903123 -0.45173976 -1.2905281
1.3794166 -0.4481996 -1.2580647
1.3753282 -0.44687119 -1.2323873
1.3696768 -0.44503492 -1.2084408
1.3723155 -0.44589233 -1.1894664
1.3809035 -0.44868273 -1.1784265
1.3757582 -0.4470109 -1.1532434
1.3777891 -0.44767079 -1.1344109
1.3720738 -0.44581378 -1.109533
1.3736409 -0.44632298 -1.0908741
1.3662661 -0.44392672 -1.0678695
1.382759 -0.44928563 -1.0611881
1.3837829 -0.44961828 -1.0426352
1.376826 -0.44735792 -1.0183911
1.3852257 -0.4500871 -1.0057192
1.3767464 -0.44733205 -0.98334289
1.3917631 -0.4522112 -0.97780371
1.3759649 -0.44707799 -0.94854742
1.3757861 -0.4470199 -0.93047619
1.3843999 -0.44981873 -0.91624248
1.3757659 -0.44701335 -0.89299899
1.3740875 -0.44646806 -0.87672693
1.373138 -0.44615948 -0.85897249
1.3711185 -0.44550335 -0.84288836
1.3680942 -0.44452071 -0.828444
1.3657998 -0.44377524 -0.81249899
1.3808092 -0.44865206 -0.80478406
1.3707198 -0.4453738 -0.7825405
1.3640898 -0.4079493 -1.5436438
1.3753555 -0.41131845 -1.5327147
1.3865155 -0.41465601 -1.5217211
1.3760844 -0.41153648 -1.4906137
1.3616637 -0.40722373 -1.4494622
1.3872646 -0.41488007 -1.451162
1.3842148 -0.413968 -1.4260013
1.3892071 -0.41546097 -1.4063768
1.3855876 -0.41437846 -1.3814621
1.3831139 -0.41363871 -1.3551011
1.3662213 -0.40858671 -1.3153312
1.3643261 -0.40802002 -1.2878407
1.3665425 -0.40868279 -1.2702914
1.3626908 -0.4075309 -1.2446253
1.3645085 -0.40807453 -1.2271885
1.3721744 -0.41036713 -1.2178407
1.3663417 -0.40862271 -1.1940426
1.3750468 -0.41122618 -1.1831056
1.3699948 -0.40971529 -1.1579497
1.3634336 -0.40775305 -1.1345422
1.3728672 -0.41057429 -1.1220803
1.3746017 -0.41109306 -1.1034366
1.3761297 -0.41155002 -1.0848472
1.3697568 -0.40964416 -1.0603573
1.3774828 -0.4119547 -1.0493971
1.3706287 -0.40990481 -1.0251609
1.3713114 -0.41010901 -1.006884
1.3639096 -0.40789545 -0.98299104
1.3641452 -0.40796593 -0.96492052
1.3552128 -0.40529451 -0.9429394
1.3540671 -0.40495181 -0.92661566
1.3688507 -0.4093731 -0.92122829
1.3755577 -0.41137889 -0.91027927
1.3659086 -0.40849325 -0.88872224
1.3714521 -0.41015109 -0.87937224
1.3614495 -0.40715969 -0.85806555
1.3685715 -0.4092896 -0.84563226
1.3498669 -0.4036957 -0.81962758
1.3541819 -0.4049862 -0.79156655
1.3607484 -0.40695003 -0.77920192
1.3765674 -0.3765862 -1.540534
1.3730608 -0.37562689 -1.5165778
1.3759583 -0.37641957 -1.4999824
1.3869783 -0.37943432 -1.4890335
1.3978924 -0.38242003 -1.4780229
1.3762152 -0.37648988 -1.4299256
1.3867186 -0.37936321 -1.4189768
1.3862146 -0.3792254 -1.390898
1.3685013 -0.37437952 -1.3522736
1.3854425 -0.37901416 -1.3482571
1.3882605 -0.37978509 -1.3304496
1.3623444 -0.37269518 -1.2857745
1.3731151 -0.3756417 -1.2734002
1.3765365 -0.37657771 -1.2543272
1.3724416 -0.3754575 -1.2287537
1.3680221 -0.3742485 -1.2033509
1.3632807 -0.37295133 -1.1781226
1.380608 -0.37769151 -1.1720796
1.3829054 -0.3783201 -1.1532764
1.3698553 -0.37474996 -1.1221224
1.3792484 -0.37731963 -1.1096864
1.3731934 -0.37566316 -1.0850424
1.3811538 -0.37784094 -1.0741277
1.3812557 -0.37786877 -1.0572357
1.3822926 -0.37815249 -1.0388299
1.3899121 -0.38023692 -1.0278443
1.3985108 -0.38258922 -1.0152304
1.3831555 -0.37838852 -0.98554695
1.3913984 -0.38064355 -0.97299576
1.3914921 -0.38066912 -0.95485109
1.3661416 -0.373734 -0.92199796
1.3647764 -0.37336051 -0.90575248
1.3795631 -0.3774057 -0.90026152
1.3852168 -0.37895232 -0.8908813
1.3844223 -0.37873507 -0.87311792
1.3751507 -0.37619859 -0.8503148
1.3739288 -0.37586433 -0.83279389
1.3800293 -0.37753326 -0.8218807
1.3784893 -0.37711191 -0.8044588
1.359869 -0.37201798 -0.77746969
1.3801552 -0.34283236 -1.5587616
1.3867007 -0.34445825 -1.5389638
1.3831469 -0.34357539 -1.5150118
1.3927404 -0.34595844 -1.5056516
1.3835971 -0.34368721 -1.4731048
1.4012882 -0.34808168 -1.4692961
1.3778483 -0.34225926 -1.4228467
1.3937563 -0.34621081 -1.4205567
1.3903512 -0.34536502 -1.395581
1.3936378 -0.34618142 -1.3776909
1.3770063 -0.34205011 -1.3376678
1.3882828 -0.34485117 -1.3252352
1.3837349 -0.34372154 -1.3007817
1.3788844 -0.34251663 -1.2765028
1.3883146 -0.34485909 -1.2656044
1.3756899 -0.34172305 -1.2349504
1.3774458 -0.34215924 -1.2175673
1.3802842 -0.34286433 -1.1986908
1.3829083 -0.34351617 -1.1798563
1.3777903 -0.34224486 -1.1547564
1.3875176 -0.34466112 -1.1423237
1.38187 -0.34325832 -1.1174564
1.374741 -0.34148741 -1.0943369
1.3839568 -0.34377664 -1.0819339
1.3852847 -0.3441065 -1.0634739
1.3864058 -0.34438497 -1.045073
1.3851444 -0.34407163 -1.0298495
1.384831 -0.34399384 -1.0131197
1.3933585 -0.34611207 -1.0006291
1.3857595 -0.34422445 -0.9767701
1.3939792 -0.34626621 -0.9642725
1.384879 -0.34400576 -0.94226879
1.3918293 -0.34573209 -0.93133289
1.3823236 -0.34337085 -0.90960312
1.3972507 -0.3470788 -0.904006
1.3956435 -0.34667957 -0.88774604
1.3929609 -0.34601325 -0.87311792
1.3993979 -0.3476122 -0.86212033
1.3731544 -0.3410933 -0.82927823
1.3809825 -0.34303778 -0.81536031
1.3869914 -0.3445304 -0.8044588
1.3767546 -0.34198755 -0.78229868
1.3762964 -0.30763862 -1.5560098
1.3878646 -0.31022444 -1.5451837
1.3859986 -0.30980739 -1.5196799
1.3905778 -0.31083086 -1.501525
1.3798468 -0.30843225 -1.4705415
1.3975698 -0.31239387 -1.4668703
1.3878607 -0.31022355 -1.4345746
1.3984983 -0.31260136 -1.4236864
1.3727211 -0.30683944 -1.3792701
1.4040314 -0.31383815 -1.3893169
1.3719018 -0.30665627 -1.3369545
1.3960816 -0.31206116 -1.339841
1.3759441 -0.30755988 -1.3032975
1.3725432 -0.30679974 -1.2774971
1.3906516 -0.31084737 -1.2718341
1.379418 -0.30833641 -1.2395703
1.3664459 -0.30543676 -1.2091459
1.3766913 -0.30772692 -1.1968813
1.3780907 -0.30803978 -1.1796514
1.3880845 -0.31027359 -1.1672838
1.3827773 -0.30908734 -1.1422747
1.3695003 -0.30611956 -1.1112424
1.3800715 -0.30848253 -1.0974246
1.3893651 -0.31055987 -1.0850424
1.3818057 -0.30887014 -1.0621262
1.3840424 -0.3093701 -1.0422652
1.3770381 -0.30780447 -1.0181466
1.3766361 -0.30771458 -1.0015411
1.390998 -0.31092495 -0.99802309
1.3823127 -0.30898345 -0.97577685
1.3814733 -0.30879575 -0.95931053
1.3814642 -0.30879378 -0.94138348
1.3894289 -0.31057411 -0.92899477
1.3890684 -0.31049347 -0.9111439
1.3802452 -0.30852127 -0.88805294
1.3868151 -0.30998987 -0.87724018
1.3766327 -0.30771387 -0.85597599
1.3670957 -0.30558205 -0.83340788
1.3732594 -0.30695981 -0.82269943
1.3717461 -0.30662155 -0.80541688
1.378553 -0.30814308 -0.79312021
1.385255 -0.30964118 -0.78076315
1.3765758 -0.27381793 -1.5486002
1.3881464 -0.2761195 -1.5378256
1.3862163 -0.27573547 -1.5123738
1.3975149 -0.27798292 -1.501525
1.3799328 -0.27448562 -1.4633329
1.3839875 -0.27529219 -1.4454039
1.3963059 -0.27774248 -1.4330349
1.3945721 -0.27739754 -1.4064918
1.3769752 -0.27389726 -1.3676695
1.3886284 -0.27621523 -1.3553658
1.3787446 -0.27424935 -1.3224033
1.3814019 -0.2747778 -1.304847
1.3852646 -0.27554622 -1.2857745
1.3815966 -0.27481654 -1.2600662
1.3849618 -0.27548602 -1.2411237
1.3881087 -0.27611199 -1.2222178
1.3910379 -0.2766946 -1.2033509
1.3937504 -0.27723414 -1.1845255
1.3810707 -0.27471203 -1.1530728
1.3908871 -0.27666461 -1.1407409
1.3917102 -0.27682835 -1.1236585
1.3923401 -0.27695364 -1.1066552
1.4005965 -0.27859592 -1.0957707
1.3930999 -0.27710479 -1.0727934
1.3920916 -0.27690417 -1.0574994
1.3841606 -0.27532667 -1.0347919
1.4077681 -0.28002244 -1.0357009
1.3925691 -0.27699918 -1.0057945
1.4011245 -0.27870101 -0.99336588
1.3852704 -0.27554733 -0.96395016
1.385319 -0.27555704 -0.94602317
1.3923714 -0.27695984 -0.93519801
1.3910953 -0.27670604 -0.91890585
1.3896723 -0.27642298 -0.90266347
1.3788246 -0.27426523 -0.88273525
1.3779759 -0.27409637 -0.86518997
1.3853284 -0.27555889 -0.85289651
1.3756958 -0.27364284 -0.83034974
1.3742671 -0.27335864 -0.81305897
1.3632685 -0.27117091 -0.79244292
1.3785614 -0.2742129 -0.78515983
1.3759753 -0.24014607 -1.5547096
1.3892881 -0.24246952 -1.5424614
1.3957845 -0.24360332 -1.5227747
1.3952757 -0.24351451 -1.4958296
1.4012463 -0.24455658 -1.4762117
1.3900893 -0.24260929 -1.4454039
1.3870627 -0.24208114 -1.4203708
1.3976942 -0.24393663 -1.4095905
1.4027098 -0.24481198 -1.3901696
1.3861729 -0.24192581 -1.3499986
1.3977257 -0.24394211 -1.3376678
1.3874922 -0.24215607 -1.304847
1.397278 -0.24386398 -1.294042
1.3923043 -0.24299596 -1.2698196
1.379692 -0.24079476 -1.2390996
1.3889617 -0.24241255 -1.2283816
1.3893821 -0.24248593 -1.2126077
1.3608798 -0.2375115 -1.1694845
1.3554232 -0.23655915 -0.91069615
1.3855386 -0.24181522 -0.80387086
1.3752064 -0.24001189 -0.78179413
1.384602 -0.20816544 -1.5516586
1.3962914 -0.20992294 -1.5409098
1.3893028 -0.20887229 -1.5065887
1.3802282 -0.207508 -1.4740456
1.3913308 -0.20917717 -1.4633329
1.3816031 -0.20771471 -1.431093
1.3854192 -0.2082884 -1.413269
1.3890229 -0.20883021 -1.3954946
1.3924632 -0.2093474 -1.3777226
1.3829141 -0.20791176 -1.3445896
1.3944646 -0.20964834 -1.3323348
1.384168 -0.2081003 -1.2995664
1.3953301 -0.20977841 -1.2873021
1.3990225 -0.21033357 -1.2682648
1.387652 -0.20862411 -1.2360412
1.3833109 -0.20797144 -1.2106603
1.3991398 -0.17675236 -1.5560098
1.412558 -0.17844751 -1.5436438
1.3851296 -0.17498246 -1.4874129
1.3826799 -0.17467299 -1.4622194
1.3883795 -0.17539302 -1.4428235
1.393849 -0.17608401 -1.4234394
1.4061196 -0.17763415 -1.4111249
1.4167565 -0.17897788 -1.4002742
1.4073933 -0.17779508 -1.3669429
1.3903586 -0.17564306 -1.3270087
1.3945314 -0.17617022 -1.3079168
1.3970954 -0.17649417 -1.2903774
1.3847224 -0.17493103 -1.2595011
1.392871 -0.17596053 -1.2503392
1.387395 -0.17526864 -1.2263833
1.3741082 -0.17359017 -1.1960741
1.3729534 -0.17344429 -0.78295356
1.4061998 -0.14407644 -1.566507
1.4130167 -0.14477488 -1.5467464
1.4060131 -0.14405724 -1.5123738
1.3985221 -0.14328972 -1.4782435
1.3889916 -0.14231327 -1.4458731
1.3929567 -0.14271954 -1.4280416
1.3827192 -0.14167061 -1.3960363
1.4144884 -0.14492568 -1.4064918
1.4037658 -0.14382699 -1.3746474
1.3911728 -0.14253673 -1.3445896
1.3955616 -0.1429864 -1.325467
1.3982949 -0.14326648 -1.3079168
1.4082003 -0.14428143 -1.2971333
1.3958448 -0.14301549 -1.2662005
1.39663 -0.1430959 -1.2503392
1.3986183 -0.14329962 -1.2329768
1.4079326 -0.14425395 -1.2222178
1.4122192 -0.14469312 -1.2017907
1.3637519 -0.13972737 -0.78553003
1.397403 -0.1431752 -0.78668034
1.39573 -0.10984626 -1.5652065
1.4076174 -0.11078175 -1.5544581
1.4058779 -0.1106449 -1.5289425
1.3970442 -0.10994974 -1.4962214
1.3877696 -0.10921982 -1.4637508
1.4004508 -0.11021772 -1.4515473
1.4044845 -0.11053529 -1.4336336
1.4083029 -0.11083576 -1.4157678
1.4190511 -0.11168161 -1.4049275
1.4010983 -0.11026875 -1.3661494
1.3955945 -0.10983554 -1.3430755
1.4144794 -0.1113219 -1.3376678
1.4100207 -0.11097095 -1.3131744
1.3992969 -0.11012695 -1.2805623
1.3881149 -0.10924689 -1.2482395
1.4064021 -0.11068611 -1.242651
1.402083 -0.11034624 -1.2172045
1.4000186 -0.11018382 -1.1888683
1.392444 -0.10958771 -1.1668291
1.3935761 -0.10967676 -1.1497897
1.3945503 -0.10975342 -1.1327769
1.3953277 -0.10981458 -1.115841
1.397133 -0.10995673 -1.0974191
1.3884851 -0.10927605 -1.075996
1.3966447 -0.10991829 -1.0653175
1.3887416 -0.10929625 -1.0426173
1.3966467 -0.10991841 -1.0319378
1.4044524 -0.11053276 -1.0212226
1.4029759 -0.11041659 -1.0061643
1.3953558 -0.10981685 -0.98235542
1.3874297 -0.10919303 -0.95875752
1.3884897 -0.10927641 -0.93944418
1.3882964 -0.10926127 -0.92173487
1.3879015 -0.10923016 -0.90410089
1.3863333 -0.10910673 -0.8880741
1.3940065 -0.1097107 -0.87590498
1.4015735 -0.11030621 -0.86366916
1.3919545 -0.10954911 -0.84104794
1.3906342 -0.10944528 -0.82374656
1.3891194 -0.10932601 -0.80653274
1.3882763 -0.10925961 -0.7878778
1.3950776 -0.10979493 -0.7756955
1.4028875 -0.077205501 -1.5741812
1.4081293 -0.077493928 -1.5560098
1.4080944 -0.077492021 -1.5289425
1.4145294 -0.077846192 -1.5092866
1.4069364 -0.077428371 -1.4751729
1.4042516 -0.077280551 -1.4500017
1.4066988 -0.077415198 -1.4336336
1.4105232 -0.077625662 -1.4157678
1.4156915 -0.077910095 -1.3963693
1.4048064 -0.077311076 -1.3646032
1.3949598 -0.07676927 -1.3315755
1.3992215 -0.077003755 -1.3124974
1.3885639 -0.076417245 -1.2799026
1.3922576 -0.076620564 -1.2610106
1.4079179 -0.077482387 -1.2585164
1.3949617 -0.076769277 -1.2279203
1.3816437 -0.076036379 -1.1975721
1.3920259 -0.076607749 -1.1854514
1.4010133 -0.077102348 -1.1747838
1.4034847 -0.077238366 -1.1561421
1.3979722 -0.076935045 -1.1312624
1.3999552 -0.077044122 -1.1127847
1.401723 -0.077141456 -1.094359
1.4021136 -0.077162914 -1.0775079
1.4102786 -0.077612214 -1.0667664
1.4103664 -0.077617101 -1.0499723
1.4029928 -0.077211261 -1.0092322
1.4035728 -0.077243149 -0.99116933
1.4110973 -0.077657282 -0.98039454
1.4113328 -0.077670217 -0.96239656
1.3947585 -0.076758146 -0.93335813
1.3944877 -0.076743186 -0.91564983
1.3940153 -0.076717265 -0.89801776
1.4102316 -0.077609666 -0.89113635
1.400007 -0.077046998 -0.86979532
1.3990021 -0.076991685 -0.85232937
1.3901348 -0.076503761 -0.82829493
1.3972991 -0.076897986 -0.81611395
1.3870192 -0.076332219 -0.7939465
1.4095641 -0.044297241 -1.5560098
1.4163059 -0.044509139 -1.5362931
1.4143378 -0.044447269 -1.5108187
1.3982619 -0.043942064 -1.4709971
1.4147902 -0.044461519 -1.4690106
1.3824764 -0.043446034 -1.416782
1.4073344 -0.044227213 -1.4203708
1.4196697 -0.044614825 -1.4080296
1.4104184 -0.044324074 -1.3746474
1.4006945 -0.044018544 -1.3415354
1.3963355 -0.043881513 -1.3170884
1.400438 -0.044010498 -1.298051
1.4117066 -0.044364613 -1.2857745
1.4079685 -0.044247072 -1.2600662
1.3963832 -0.043883011 -1.2279203
1.3830515 -0.04346405 -1.1975721
1.3921407 -0.043749675 -1.1869836
1.3935128 -0.043792833 -1.1698736
1.3959512 -0.043869425 -1.1513017
1.3981723 -0.043939222 -1.1327769
1.3911364 -0.043718152 -1.1096072
1.4007617 -0.044020645 -1.0974191
1.4102803 -0.044319741 -1.0851476
1.4037398 -0.044114225 -1.0607394
1.4118036 -0.044367608 -1.0499723
1.3886145 -0.043638941 -1.0140241
1.4044224 -0.044135686 -1.0092322
1.3908883 -0.043710414 -0.92326552
1.3968983 -0.043899242 -0.91413796
1.3954358 -0.043853287 -0.8980177
1.3853467 -0.04353619 -0.87665242
1.4004277 -0.04401011 -0.85232931
1.4001412 -0.04400111 -0.83340782
1.3891966 -0.043657254 -0.8126049
1.3875592 -0.043605756 -0.7954734
1.3935966 -0.043795537 -0.78483778
1.4169319 -0.011128686 -1.5634193
1.4034017 -0.011022414 -1.5215918
1.4029391 -0.01101878 -1.4947041
1.3851267 -0.01087889 -1.4565046
1.4031664 -0.011020511 -1.4530665
1.4157929 -0.011119753 -1.440766
1.4141699 -0.011107059 -1.4142137
1.4050599 -0.011035476 -1.3807914
1.4140667 -0.011106168 -1.3715655
1.4115046 -0.011086083 -1.3453742
1.4085941 -0.011063255 -1.3193333
1.390622 -0.010922055 -1.2799026
1.3956851 -0.010961872 -1.2595011
1.4066226 -0.011047763 -1.2472733
1.3997049 -0.010993405 -1.2248694
1.3938764 -0.01094763 -1.2010781
1.4043043 -0.011029528 -1.1888683
1.406937 -0.011050211 -1.1701735
1.409351 -0.011069227 -1.1515238
1.4037486 -0.011025121 -1.1266624
1.4123006 -0.011092355 -1.1159228
1.4140848 -0.011106363 -1.0974246
1.4156543 -0.011118643 -1.0789807
1.4170101 -0.011129314 -1.0605935
1.4098738 -0.011073347 -1.0196729
1.4105645 -0.011078713 -1.0015411
1.4103482 -0.011076988 -0.94910234
1.4175622 -0.011133673 -0.93829292
1.4079162 -0.011057916 -0.91654235
1.4148812 -0.011112574 -0.90575242
1.4048226 -0.011033659 -0.88428044
1.4039766 -0.011026924 -0.86673427
1.4029319 -0.011018761 -0.84927052
1.4016902 -0.011009046 -0.83189148
1.3743219 -0.010794054 -0.79951394
1.3986206 -0.010984848 -0.79739559
1.4202079 0.022310473 -1.5603243
1.4185184 0.022283947 -1.5347341
1.4164952 0.022252176 -1.5092866
1.4125608 0.022190364 -1.4854897
1.4238738 0.022368105 -1.4746467
1.4070767 0.022104174 -1.4351817
1.4234854 0.022361904 -1.4330349
1.4271139 0.022419002 -1.3723131
1.4025853 0.022033654 -1.3109802
1.3978506 0.021959206 -1.2866746
1.3928051 0.02187999 -1.2625431
1.394955 0.021913724 -1.2451988
1.38939 0.021826344 -1.2213185
1.4075612 0.022111788 -1.2156819
1.3952421 0.021918191 -1.1839421
1.397839 0.021959079 -1.1653171
1.4002177 0.02199639 -1.1467372
1.4011577 0.02201117 -1.1297222
1.4019004 0.022022853 -1.1127847
1.402486 0.02203209 -1.0958775
1.4028765 0.022038229 -1.0790513
1.4099079 0.022148676 -1.0698452
1.4020211 0.022024816 -1.0470681
1.3938514 0.021896426 -1.0244993
1.4097434 0.02214605 -1.0196729
1.3930392 0.021883668 -0.99149507
1.3913137 0.021856606 -0.9766106
1.3987378 0.021973193 -0.96594489
1.4060636 0.022088289 -0.95524728
1.4050102 0.022071717 -0.93891376
1.4037738 0.022052227 -0.92267698
1.3929988 0.021883067 -0.90259385
1.4082899 0.022123273 -0.89729041
1.4066181 0.022096986 -0.88121343
1.3962848 0.021934623 -0.85994637
1.4018824 0.022022538 -0.85078818
1.3911551 0.021854095 -0.82982522
1.3897109 0.021831384 -0.8126049
1.388073 0.021805692 -0.7954734
1.3862425 0.021776844 -0.77843273
1.419288 0.055764057 -1.5603243
1.4124676 0.055496071 -1.5258622
1.4120102 0.05547807 -1.498916
1.4286845 0.056133244 -1.4968666
1.4207886 0.055822998 -1.4628204
1.4194362 0.055769891 -1.4361374
1.410639 0.05542418 -1.4025426
1.4213113 0.055843558 -1.3917097
1.4102901 0.05541053 -1.3600041
1.4191543 0.055758797 -1.3507376
1.4002584 0.055016302 -1.3124974
1.3955307 0.054830629 -1.288211
1.391903 0.054688115 -1.2625431
1.4198816 0.055787403 -1.2461637
1.4155542 0.055617407 -1.2206608
1.4185177 0.055733755 -1.2017907
1.4046091 0.055187356 -1.1717198
1.3980702 0.05493046 -1.148252
1.4080294 0.055321764 -1.1359985
1.4022142 0.055093177 -1.1112424
1.4039632 0.055161901 -1.0928148
1.4043168 0.055175789 -1.0759877
1.4124949 0.055497117 -1.0652127
1.4045203 0.055183832 -1.0424862
1.4043711 0.055177931 -1.0258151
1.4121482 0.055483524 -1.0150659
1.4046129 0.055187404 -0.99116927
1.4039329 0.055160701 -0.97469455
1.4030671 0.055126727 -0.95831299
1.4093044 0.055371821 -0.94910234
1.4091883 0.055367168 -0.93124807
1.4088688 0.055354711 -0.91346848
1.4083472 0.055334147 -0.89576578
1.4076248 0.055305775 -0.87814218
1.4152284 0.05560457 -0.86581558
1.4132357 0.055526249 -0.84981287
1.3861535 0.054462187 -0.81713682
1.4018795 0.055080045 -0.81000006
1.4010487 0.055047382 -0.79128522
1.4226823 0.089507677 -1.5556552
1.4225637 0.089500226 -1.5285294
1.4220821 0.08946988 -1.501525
1.4265453 0.089750677 -1.4834126
1.4308414 0.090020984 -1.4652948
1.4208518 0.089392573 -1.4330349
1.4317435 0.090077847 -1.4221098
1.4154791 0.089054488 -1.3816252
1.418753 0.089260481 -1.3638448
1.4218625 0.089456104 -1.3460702
1.4042759 0.088349663 -1.3063704
1.4082271 0.088598274 -1.2873021
1.4268163 0.089767776 -1.2816149
1.4229456 0.089524165 -1.2558707
1.4173853 0.089174464 -1.231855
1.4054415 0.088422969 -1.1842785
1.4067487 0.088505164 -1.1671011
1.4078561 0.088574901 -1.1499981
1.4075612 0.088556238 -1.1344731
1.4161755 0.089098342 -1.1236585
1.408945 0.08864332 -1.1005071
1.4105517 0.088744469 -1.0820668
1.419922 0.089333959 -1.0696919
1.4131259 0.088906415 -1.0453566
1.4049116 0.088389635 -1.0227464
1.4126559 0.088876903 -1.0119803
1.4040097 0.088332891 -0.98962301
1.4104439 0.088737667 -0.98039448
1.4013789 0.08816731 -0.95831299
1.4096718 0.088689089 -0.94602311
1.409517 0.088679373 -0.92816907
1.4165572 0.089122355 -0.91734564
1.4160638 0.089091294 -0.89957005
1.4153693 0.089047544 -0.88187337
1.4144748 0.088991217 -0.86425775
1.3962502 0.087844662 -0.83646196
1.4034822 0.088299684 -0.82422155
1.4010667 0.088147692 -0.80848145
1.4080546 0.088587396 -0.79620004
1.4016149 0.12139306 -1.5590827
1.4218549 0.12314603 -1.5541118
1.414905 0.12254421 -1.5196799
1.4127216 0.12235507 -1.4942713
1.4240348 0.12333485 -1.4834126
1.4197578 0.12296447 -1.4597149
1.4097918 0.12210128 -1.4274727
1.4276651 0.12364939 -1.4236864
1.4171029 0.12273458 -1.3917097
1.4132885 0.12240418 -1.3669429
1.4149523 0.12254819 -1.3507376
1.3975265 0.121039 -1.3109802
1.4015331 0.12138601 -1.2919251
1.4053154 0.1217136 -1.2729001
1.4088742 0.12202181 -1.2539077
1.3945276 0.12077929 -1.2248694
1.396268 0.12092991 -1.2076057
1.39021 0.12040533 -1.1839421
1.3915404 0.12052061 -1.1668291
1.3939306 0.12072755 -1.148252
1.402615 0.1214797 -1.1375473
1.4046477 0.12165571 -1.1190015
1.3907509 0.12045211 -1.0882109
1.4001588 0.12126703 -1.0759877
1.401497 0.12138284 -1.057673
1.4095112 0.122077 -1.0468882
1.4174252 0.12276239 -1.0360671
1.409078 0.12203944 -1.0135113
1.4085962 0.12199777 -0.99693185
1.4068869 0.12184966 -0.98194784
1.4225471 0.12320596 -0.97677004
1.4133968 0.12241352 -0.95468533
1.4216433 0.1231277 -0.94226873
1.4204224 0.12302202 -0.92588639
1.4096477 0.12208879 -0.90575242
1.3996263 0.12122088 -0.88428044
1.4147918 0.12253427 -0.87877733
1.4129167 0.1223719 -0.86272359
1.4108949 0.12219679 -0.84672529
1.4010122 0.12134086 -0.82422155
1.3899677 0.12038433 -0.80349082
1.3882239 0.12023323 -0.7863704
1.4050249 0.15511623 -1.566507
1.418559 0.15661046 -1.5541118
1.4184117 0.15659425 -1.526986
1.4162889 0.15635988 -1.501525
1.4276307 0.15761194 -1.4906137
1.4057108 0.15519205 -1.4423219
1.4251884 0.15734234 -1.4370043
1.4092714 0.15558514 -1.3963693
1.3984356 0.15438876 -1.3646032
1.4303023 0.15790698 -1.3745548
1.4045061 0.15505901 -1.3292551
1.4145423 0.15616699 -1.3184391
1.4098331 0.15564711 -1.294042
1.3974209 0.1542768 -1.2631364
1.3995334 0.15450998 -1.2457258
1.4027838 0.15486886 -1.2268305
1.4058136 0.15520336 -1.2079735
1.4060416 0.15522845 -1.1922462
1.4010178 0.15467389 -1.1671011
1.4110876 0.15578564 -1.1547564
1.4042839 0.15503456 -1.1313934
1.4128394 0.15597899 -1.1205602
1.4134408 0.15604539 -1.1035554
1.4126974 0.15596332 -1.0881457
1.4209243 0.15687156 -1.0772491
1.414234 0.15613294 -1.0528364
1.4141395 0.15612251 -1.0360671
1.4149867 0.15621603 -1.0177963
1.4156252 0.1562866 -0.99958968
1.4242417 0.15723777 -0.98712307
1.4090929 0.15556538 -0.95621991
1.4080186 0.15544683 -0.93985111
1.4057844 0.15520012 -0.92508572
1.4211318 0.15689456 -0.91965663
1.4112618 0.15580487 -0.89803416
1.4096032 0.15562171 -0.88187337
1.4162476 0.15635526 -0.87103134
1.396341 0.15415746 -0.84620768
1.4036276 0.15496199 -0.83391625
1.3936024 0.15385519 -0.81154221
1.3902172 0.15348141 -0.79739559
1.3970807 0.1542391 -0.78515977
1.4228801 0.19111684 -1.5598997
1.4024419 0.18837157 -1.5108187
1.4154552 0.19011953 -1.4984128
1.3938595 0.18721882 -1.4500017
1.4256426 0.19148782 -1.4606079
1.417174 0.19035032 -1.4268093
1.4208735 0.19084731 -1.4088278
1.4228674 0.19111511 -1.3924522
1.4190181 0.19059804 -1.3676474
1.4149009 0.19004503 -1.3429588
1.4031999 0.18847342 -1.3116431
1.4130965 0.18980266 -1.3007817
1.4141387 0.18994267 -1.2847309
1.4163934 0.19024552 -1.2671766
1.4110211 0.18952383 -1.2430607
1.4053462 0.18876167 -1.2191272
1.399413 0.18796475 -1.1953294
1.4071366 0.18900217 -1.1860626
1.4096799 0.18934377 -1.1672838
1.4042902 0.18861981 -1.1422747
1.414116 0.18993963 -1.1298666
1.4069825 0.18898143 -1.1066552
1.4165004 0.19025983 -1.0942248
1.4100668 0.18939573 -1.0696919
1.4112912 0.18956023 -1.0512962
1.4192151 0.19062448 -1.04038
1.4200906 0.19074202 -1.0220373
1.4126385 0.18974113 -0.99802303
1.4048809 0.18869919 -0.97421879
1.4132533 0.18982369 -0.96181184
1.4122241 0.18968546 -0.94537961
1.4193454 0.190642 -0.93445939
1.4263678 0.19158518 -0.9235096
1.408177 0.18914193 -0.89647245
1.4055456 0.18878847 -0.88187337
1.4206269 0.19081414 -0.87624711
1.4102335 0.18941814 -0.85496324
1.4081212 0.1891344 -0.83900106
1.3963997 0.18755995 -0.81962752
1.4206554 0.19081788 -0.81720668
1.4025718 0.18838899 -0.78848094
1.4045895 0.22246525 -1.5587616
1.4112509 0.22352031 -1.5389638
1.4108953 0.22346398 -1.5118989
1.4206386 0.22500715 -1.5025171
1.4250318 0.22570303 -1.4843324
1.4068748 0.22282723 -1.446358
1.4387063 0.22786883 -1.4566401
1.4214891 0.22514191 -1.4174201
1.4336518 0.22706828 -1.4048069
1.422768 0.22534445 -1.3729717
1.4201299 0.22492656 -1.3466769
1.4229733 0.22537693 -1.3288914
1.4037211 0.22232766 -1.2909443
1.4134051 0.22386147 -1.2800672
1.3920319 0.22047623 -1.2442014
1.4088396 0.22313841 -1.2399517
1.4031326 0.22223444 -1.2160307
1.412273 0.22368218 -1.2051353
1.4213103 0.22511353 -1.1941946
1.3984329 0.22149004 -1.1594085
1.4160686 0.22428329 -1.1532764
1.4104553 0.22339435 -1.128322
1.4111371 0.22350223 -1.111233
1.4194671 0.22482158 -1.1003038
1.4040693 0.22238278 -1.0712309
1.4188906 0.22473025 -1.0678695
1.4268938 0.22599781 -1.0568817
1.4268161 0.22598559 -1.0399646
1.4184896 0.22466677 -1.0173554
1.4261295 0.22587681 -1.0063469
1.4163247 0.22432387 -0.98554689
1.4073435 0.2229014 -0.9633792
1.4238235 0.22551149 -0.95643669
1.4227316 0.22533858 -0.93992406
1.4224602 0.2252956 -0.92192662
1.4136231 0.22389603 -0.89868826
1.4213151 0.22511429 -0.88616425
1.4204439 0.22497624 -0.86840367
1.4193754 0.22480708 -0.85072637
1.4001305 0.22175895 -0.82465589
1.3986046 0.22151731 -0.8073011
1.4055096 0.22261088 -0.79491329
1.4123075 0.22368763 -0.78246492
1.4239837 0.2600657 -1.5625416
1.4222119 0.25974223 -1.5368629
1.4269067 0.26059952 -1.5185603
1.4398884 0.26297048 -1.5058446
1.4426502 0.26347485 -1.4891075
1.4384267 0.26270351 -1.3936697
1.4344965 0.26198569 -1.368789
1.4158531 0.25858083 -1.3304496
1.4272203 0.2606568 -1.317839
1.4224027 0.25977698 -1.2934012
1.4233248 0.25994536 -1.2772919
1.4119419 0.25786647 -1.2449598
1.4225755 0.25980851 -1.2323873
1.4104729 0.2575981 -1.2004621
1.410588 0.2576192 -1.184683
1.4194556 0.25923872 -1.1736869
1.4051846 0.25663233 -1.143895
1.4137458 0.25819582 -1.1329421
1.422205 0.25974077 -1.1219481
1.4137763 0.25820148 -1.1003038
1.4220093 0.25970513 -1.0892853
1.4222394 0.25974709 -1.0722715
1.4143697 0.25830978 -1.0493971
1.4233245 0.25994527 -1.0368104
1.4069432 0.25695348 -1.0084572
1.4225684 0.25980717 -1.0031945
1.406732 0.25691497 -0.9736526
1.4221698 0.25973439 -0.96828246
1.4222071 0.25974119 -0.95013756
1.4127868 0.25802082 -0.92820179
1.4216752 0.25964409 -0.91407049
1.4201536 0.25936615 -0.89771539
1.4184546 0.25905591 -0.88146287
1.4156728 0.2585479 -0.86684692
1.4052199 0.25663882 -0.8456322
1.4218256 0.25967157 -0.83658981
1.4118401 0.25784785 -0.8140775
1.4093273 0.25738889 -0.79821527
1.407491 0.25705361 -0.78089213
1.4041483 0.29078528 -1.5614773
1.4157959 0.29319736 -1.55047
1.4222506 0.29453406 -1.53054
1.4252424 0.29515359 -1.5137926
1.4228258 0.29465315 -1.4883367
1.4354898 0.29727581 -1.4756002
1.4395394 0.29811439 -1.4573106
1.4418491 0.29859272 -1.4406643
1.4399875 0.29820719 -1.4138983
1.4448969 0.29922387 -1.3941441
1.4194232 0.29394856 -1.3487891
1.4222586 0.29453573 -1.3309128
1.4248875 0.29508016 -1.3130969
1.4113346 0.29227349 -1.2835928
1.4135398 0.29273012 -1.2659441
1.4155422 0.29314473 -1.2483615
1.4248456 0.29507145 -1.2372744
1.4040124 0.29075712 -1.2004621
1.4142171 0.2928704 -1.1879042
1.4230682 0.29470336 -1.1768292
1.4177433 0.29360056 -1.1516522
1.419814 0.29402936 -1.1328173
1.4139026 0.29280519 -1.1079459
1.4143224 0.29289216 -1.0908741
1.4212835 0.29433376 -1.0813977
1.42144 0.29436612 -1.0643575
1.421407 0.29435927 -1.0474037
1.4212216 0.29432094 -1.0304874
1.4219396 0.29446965 -1.0120648
1.4143696 0.29290193 -0.9880622
1.4287899 0.29588825 -0.98417956
1.4208144 0.2942366 -0.96037042
1.4207544 0.29422408 -0.94222558
1.4204932 0.29417008 -0.92415541
1.4283361 0.29579425 -0.91146117
1.414714 0.29297322 -0.8574096
1.4041731 0.29079032 -0.83626485
1.410378 0.29207528 -0.82530367
1.4079814 0.29157895 -0.80936396
1.4156876 0.29317486 -0.79522169
1.422429 0.29457098 -0.78257519
1.4085041 0.32647386 -1.5641071
1.4217473 0.32954338 -1.5514303
1.4181662 0.32871339 -1.5273677
1.4175317 0.32856628 -1.5002493
1.4218019 0.32955614 -1.4819826
1.4343463 0.33246377 -1.4691899
1.4450766 0.33495083 -1.429392
1.4430257 0.33447555 -1.4026414
1.4192357 0.32896122 -1.3556012
1.4221071 0.32962683 -1.3376688
1.4117061 0.32721606 -1.3048048
1.4140707 0.32776406 -1.2870798
1.4222468 0.32965925 -1.2775519
1.4256663 0.33045182 -1.2582436
1.4201244 0.32916728 -1.2340969
1.4217695 0.32954863 -1.2165397
1.4157268 0.32814789 -1.1926595
1.4157299 0.32814866 -1.1768292
1.4104326 0.32692081 -1.1516522
1.4201692 0.32917762 -1.1389738
1.4054242 0.32575989 -1.109533
1.4124683 0.3273927 -1.1000669
1.4128138 0.32747269 -1.0829676
1.4129692 0.32750881 -1.065953
1.4208661 0.32933921 -1.054834
1.4207252 0.32930648 -1.0378809
1.4204329 0.32923877 -1.0209662
1.4130014 0.32751614 -0.99687505
1.4203671 0.32922345 -0.98578334
1.4266219 0.33067328 -0.97621953
1.4175565 0.32857203 -0.95403028
1.4164165 0.32830781 -0.93748516
1.4315841 0.33182341 -0.93169755
1.4136639 0.32766974 -0.90459222
1.4213002 0.32943976 -0.89189434
1.4279006 0.33096957 -0.88071519
1.4092379 0.32664388 -0.85425562
1.4062338 0.32594752 -0.83974105
1.4039884 0.32542717 -0.82371944
1.4100678 0.32683623 -0.81270337
1.4160788 0.32822955 -0.80161464
1.4142683 0.32780987 -0.78414661
1.4070185 0.36126104 -1.5577835
1.4284254 0.36675742 -1.5507064
1.418063 0.36409679 -1.5194179
1.4308518 0.36738041 -1.5065838
1.4366902 0.36887947 -1.4865562
1.4200808 0.36461487 -1.4470752
1.4307295 0.36734906 -1.4358509
1.4343225 0.36827156 -1.4176019
1.4236104 0.36552116 -1.3856868
1.4338288 0.36814484 -1.3744105
1.4353698 0.3685405 -1.3579364
1.4309779 0.36741284 -1.3331953
1.4276978 0.36657056 -1.3069831
1.4240845 0.36564288 -1.2809327
1.426176 0.36617985 -1.2631447
1.429392 0.36700556 -1.2438028
1.4100093 0.36202899 -1.2053667
1.4113654 0.36237717 -1.1879101
1.4125661 0.36268538 -1.170477
1.4287716 0.36684626 -1.1655195
1.4284905 0.36677414 -1.1496918
1.4139086 0.36303008 -1.1201211
1.4310579 0.36743337 -1.1133579
1.424842 0.36583734 -1.0885258
1.4171823 0.36387074 -1.0655009
1.4250302 0.36588567 -1.0542847
1.4169455 0.36380988 -1.0315076
1.4176458 0.36398971 -1.0130111
1.4251051 0.36590487 -1.0017929
1.4244167 0.36572814 -0.98497701
1.4225476 0.36524826 -0.96982044
1.429687 0.36708128 -0.95856476
1.4122372 0.36260092 -0.93113214
1.4272931 0.36646664 -0.92527664
1.4258451 0.36609483 -0.90875775
1.4315754 0.36756617 -0.89910352
1.4132512 0.36286128 -0.87238359
1.4113038 0.36236131 -0.85616368
1.4259899 0.36613202 -0.85000008
1.4238029 0.36557049 -0.83381271
1.421474 0.36497259 -0.81768394
1.4113271 0.36236727 -0.79526442
1.4179955 0.36407942 -0.78251863
1.4046806 0.39616105 -1.5650971
1.4227461 0.40125605 -1.5611814
1.4224478 0.40117189 -1.5338199
1.4253558 0.40199205 -1.5169586
1.4296993 0.40321705 -1.4984913
1.4406576 0.40630755 -1.487118
1.4393195 0.40593013 -1.4600275
1.4445823 0.40741447 -1.4399985
1.4356126 0.40488473 -1.4062662
1.4305466 0.403456 -1.3530926
1.4476267 0.40827301 -1.3483657
1.4286214 0.402913 -1.3103824
1.4211131 0.40079549 -1.2583323
1.4242481 0.40167966 -1.2389796
1.4197336 0.40040639 -1.2133141
1.4211394 0.40080285 -1.1957089
1.4160634 0.39937133 -1.1703277
1.4410075 0.40640628 -1.1697569
1.4202346 0.40054774 -1.1322963
1.4220041 0.40104663 -1.1133579
1.4212626 0.4008376 -1.0976983
1.4382021 0.40561503 -1.0906655
1.431661 0.40377033 -1.0659343
1.4158467 0.39931011 -1.0372702
1.4245046 0.40175188 -1.0243933
1.4330543 0.40416324 -1.0114384
1.4324515 0.40399319 -0.99447078
1.4327005 0.4040634 -0.97596198
1.4246539 0.40179402 -0.95211512
1.4158769 0.39931864 -0.91035014
1.4225183 0.40119171 -0.89910352
1.4208312 0.40071595 -0.88264698
1.427269 0.4025315 -0.87136185
1.408633 0.39727569 -0.84500009
1.4147949 0.39901346 -0.83381271
1.4124807 0.39836091 -0.81768394
1.4108464 0.39789981 -0.80005515
1.4005361 0.39499205 -0.77780467
1.399623 0.43058038 -1.4203013
1.3993055 0.43048266 -1.3772179
1.403381 0.4317365 -1.3134023
1.397643 0.42997128 -1.1974218
1.3937122 0.42876199 -1.1546988
1.393374 0.42865786 -1.1389738
1.4028207 0.43156409 -1.1262088
1.4045274 0.43208912 -1.1073397
1.3907421 0.42784825 -1.0596141
1.4150774 0.43533483 -1.058508
1.4082055 0.43322065 -1.0340583
1.4010348 0.43101472 -1.0098156
1.3915092 0.42808425 -0.98896194
1.4156107 0.43549883 -0.98731297
1.4157929 0.43555483 -0.96887672
1.4157761 0.43554968 -0.95051283
1.4236503 0.43797207 -0.93755037
1.4151498 0.43535703 -0.91401064
1.4217867 0.43739873 -0.90266556
1.4128332 0.43464428 -0.87942415
1.4127481 0.43461809 -0.85985464
1.4281695 0.43936229 -0.85187602
1.400995 0.43100241 -0.82088375
1.4077885 0.43309236 -0.80806118
1.4144746 0.43514925 -0.7951771
1.4303248 0.44002539 -0.78526974
1.4157963 0.47234556 -1.5055929
1.4147321 0.47199047 -1.4784309
1.414816 0.47201851 -1.4497911
1.4199039 0.47371593 -1.4298131
1.4040204 0.46841678 -1.3893206
1.3964721 0.46589848 -1.2325599
1.392068 0.46442911 -1.1910299
1.3962578 0.46582687 -1.137132
1.3905035 0.46390715 -1.1121554
1.3912532 0.46415728 -1.0606941
1.3911582 0.46412557 -1.043679
1.389454 0.46355706 -1.0114011
1.3977735 0.46633264 -0.99858052
1.3901889 0.46380219 -0.97460872
1.3930178 0.46474597 -0.89549595
1.3840941 0.46176881 -0.87238359
1.3813072 0.460839 -0.85773987
1.3892215 0.46347943 -0.8434158
