# .PCD v0.7 - Point Cloud Data file format
VERSION 0.7
FIELDS x y z
SIZE 4 4 4
TYPE F F F
COUNT 1 1 1
WIDTH 1422
HEIGHT 1
VIEWPOINT 0 0 0 1 0 0 0
POINTS 1422
DATA ascii
1.3860297 -0.41451073 -0.097991057
1.3770517 -0.41182581 -0.087910011
1.3967881 -0.41772828 -0.078013718
1.3877479 -0.41502461 -0.06640847
1.3786191 -0.41229451 -0.054977186
1.3694496 -0.40955228 -0.042123474
1.3984857 -0.41823596 -0.030270329
1.3795254 -0.41256556 -0.017291021
1.3891925 -0.41545665 -0.0063269101
1.3891925 -0.41545665 0.0063266866
1.3890867 -0.415425 0.018979803
1.3833346 -0.37843752 -0.77464187
1.3812761 -0.37787426 -0.75742167
1.3790333 -0.3772608 -0.74029803
1.385971 -0.37915868 -0.72623903
1.3818892 -0.37804207 -0.71236676
1.3878329 -0.37966803 -0.69983739
1.3943987 -0.38146427 -0.68566561
1.3913662 -0.3806347 -0.6688177
1.3888369 -0.37994274 -0.65051949
1.4119084 -0.38625446 -0.64600474
1.4054348 -0.38448349 -0.61100346
1.4022167 -0.38360307 -0.5929057
1.3796709 -0.37743512 -0.57065856
1.3844216 -0.37873486 -0.5581547
1.4071069 -0.38494083 -0.55269414
1.3936067 -0.38124761 -0.53302038
1.388962 -0.3799769 -0.51701272
1.3927251 -0.38100645 -0.50601476
1.4055425 -0.38451287 -0.49819717
1.4000163 -0.38300112 -0.48390591
1.3851964 -0.37894687 -0.46661577
1.3885889 -0.37987486 -0.45564908
1.3914356 -0.38065371 -0.44621715
1.3946851 -0.38154265 -0.43517649
1.397846 -0.38240746 -0.42413568
1.4009326 -0.38325176 -0.41304484
1.3950555 -0.38164398 -0.39770326
1.39835 -0.38254532 -0.38506678
1.4015379 -0.3834174 -0.37240097
1.3948753 -0.38159469 -0.35889909
1.3884616 -0.37984011 -0.34394178
1.3909571 -0.38052276 -0.33292767
1.3839512 -0.37860617 -0.3197442
1.3862684 -0.37924007 -0.30876654
1.3884996 -0.37985048 -0.29779595
1.3717344 -0.37526402 -0.28288108
1.3924354 -0.38092718 -0.27734056
1.3849493 -0.37887916 -0.26451042
1.3963584 -0.38200042 -0.25526294
1.3791726 -0.37729889 -0.24089149
1.3999555 -0.38298446 -0.23312578
1.392328 -0.38089782 -0.21895157
1.4034455 -0.38393921 -0.2093599
1.4051542 -0.38440669 -0.19665469
1.3876164 -0.37960893 -0.18143199
1.4082507 -0.38525379 -0.17120031
1.3902954 -0.38034177 -0.15785708
1.3914163 -0.38064843 -0.14685903
1.3924584 -0.38093352 -0.13582727
1.3934172 -0.3811959 -0.12481278
1.3941753 -0.38140315 -0.11535517
1.3949851 -0.3816247 -0.10430246
1.3860862 -0.37919033 -0.09262567
1.3867288 -0.3793661 -0.081637725
1.3969976 -0.38217533 -0.069568396
1.39753 -0.382321 -0.056926843
1.3882189 -0.37977368 -0.047115587
1.3981677 -0.3824954 -0.036388151
1.38888 -0.37995458 -0.015707761
1.4081526 -0.38522696 0.017505471
1.3747885 -0.34149915 -0.76513708
1.3812163 -0.34309584 -0.75274622
1.3796924 -0.34271735 -0.73416197
1.376442 -0.34190997 -0.71875256
1.3911717 -0.34556881 -0.71079099
1.3978709 -0.34723291 -0.6966967
1.4029989 -0.34850672 -0.68566561
1.4087524 -0.34993592 -0.67302412
1.4150915 -0.35151055 -0.65875393
1.4124219 -0.35084739 -0.64036733
1.4177916 -0.35218129 -0.62764287
1.4057899 -0.34920004 -0.60556924
1.3922768 -0.34584323 -0.58690548
1.3971943 -0.34706482 -0.57436413
1.3929603 -0.3460131 -0.5581547
1.4067099 -0.3494285 -0.54915124
1.3828744 -0.34350774 -0.52920794
1.3958747 -0.34673712 -0.52173483
1.3910882 -0.34554812 -0.50583577
1.3861396 -0.34431884 -0.4900628
1.3902373 -0.34533671 -0.47758034
1.3937398 -0.34620675 -0.46661577
1.3879005 -0.34475622 -0.45263153
1.3912181 -0.34558031 -0.44168612
1.394447 -0.34638235 -0.43073997
1.3794013 -0.34264502 -0.41260928
1.3921866 -0.34582093 -0.40289435
1.3857718 -0.34422746 -0.38928631
1.3882148 -0.34483436 -0.37993255
1.3913797 -0.34562048 -0.36743563
1.3850167 -0.34403995 -0.35251269
1.3973913 -0.34711376 -0.3423588
1.3813155 -0.34312049 -0.3253243
1.3843459 -0.34387323 -0.31134814
1.377118 -0.34207782 -0.29837707
1.3792865 -0.34261653 -0.28754589
1.3718526 -0.34076992 -0.27476507
1.392646 -0.34593508 -0.26919523
1.375765 -0.34174177 -0.25314677
1.3874249 -0.34463814 -0.24243858
1.3894254 -0.34513509 -0.229954
1.3817246 -0.3432222 -0.21595223
1.3832829 -0.34360927 -0.20508726
1.3849672 -0.34402764 -0.19264133
1.3961749 -0.34681159 -0.18143199
1.3880191 -0.34478575 -0.16770643
1.3797382 -0.34272873 -0.15414143
1.380991 -0.34303993 -0.14172933
1.3821388 -0.34332514 -0.12930642
1.3830577 -0.3435533 -0.11841585
1.3935716 -0.34616494 -0.10829528
1.3846514 -0.34394926 -0.096639447
1.3852358 -0.34409434 -0.087299518
1.3955328 -0.34665221 -0.076945029
1.3766731 -0.34196734 -0.065034494
1.3868124 -0.344486 -0.054595396
1.3775212 -0.34217799 -0.041828901
1.3777912 -0.3422451 -0.030977244
1.3876846 -0.34470266 -0.020290449
1.3683848 -0.33990854 -0.0092284679
1.3878242 -0.34473729 -1.0710217e-07
1.3780792 -0.34231657 0.010830255
1.3779585 -0.34228665 0.021684768
1.3746681 -0.3072747 -0.75886089
1.3810785 -0.30870759 -0.74653983
1.3881707 -0.3102929 -0.73259836
1.3856423 -0.3097277 -0.71565664
1.3916843 -0.31107822 -0.70323914
1.3976203 -0.31240508 -0.69076806
1.3946233 -0.31173518 -0.67397875
1.3914473 -0.31102529 -0.65729588
1.3976722 -0.3124167 -0.64327937
1.4120343 -0.31562701 -0.63477457
1.4001032 -0.31296012 -0.61267209
1.4052676 -0.31411454 -0.60012919
1.4096937 -0.3151038 -0.58912921
1.3874524 -0.31013229 -0.56541491
1.3922148 -0.31119683 -0.55298692
1.3871734 -0.31007001 -0.53852248
1.3911414 -0.31095693 -0.52766573
1.3950374 -0.31182775 -0.51675338
1.3896403 -0.31062135 -0.50250793
1.393867 -0.31156614 -0.4900628
1.3882275 -0.31030551 -0.4759571
1.3922279 -0.31119981 -0.46352562
1.3956378 -0.31196192 -0.45263153
1.3984988 -0.31260148 -0.44326207
1.3924198 -0.31124261 -0.42941257
1.3955755 -0.31194803 -0.41851798
1.3892701 -0.31053868 -0.40483865
1.4020748 -0.31340083 -0.3950519
1.3959538 -0.31203255 -0.37993255
1.3987411 -0.31265566 -0.36901182
1.4010682 -0.31317583 -0.35962331
1.3942256 -0.31164631 -0.34628242
1.3876173 -0.31016925 -0.33153147
1.3808649 -0.30865982 -0.31692523
1.3927227 -0.31131038 -0.30823544
1.3952948 -0.31188533 -0.29577014
1.3786131 -0.30815646 -0.27940169
1.3713503 -0.30653307 -0.26520905
1.4023726 -0.31346741 -0.25824288
1.3852785 -0.30964634 -0.24232753
1.4060577 -0.31429112 -0.23626858
1.3884945 -0.31036526 -0.22216229
1.3806787 -0.30861831 -0.20828155
1.3823999 -0.309003 -0.19592775
1.3743374 -0.30720079 -0.1822754
1.3952155 -0.31186765 -0.17237337
1.3966303 -0.31218386 -0.15989095
1.3979387 -0.31247634 -0.14739636
1.3894246 -0.31057316 -0.13395379
1.3905125 -0.31081641 -0.12152462
1.3914945 -0.31103587 -0.10908619
1.3825299 -0.30903208 -0.097521394
1.3929579 -0.31136298 -0.087299518
1.4033124 -0.31367749 -0.076945029
1.3746662 -0.30727428 -0.063052304
1.3847914 -0.30953759 -0.054213606
1.4047103 -0.31399 -0.042418037
1.3855039 -0.30969679 -0.029441001
1.3857019 -0.30974108 -0.017050862
1.3955535 -0.31194317 -0.0046922406
1.3760295 -0.3075791 0.0061521619
1.3759247 -0.30755556 0.018456226
1.3766251 -0.27382773 -0.76806378
1.3917911 -0.27684438 -0.76050967
1.3903632 -0.27656031 -0.7418924
1.3958726 -0.27765626 -0.73105872
1.3853149 -0.2755563 -0.70807582
1.3993725 -0.27835247 -0.70169562
1.3964863 -0.27777842 -0.6848833
1.3934197 -0.27716836 -0.66817605
1.3990854 -0.27829537 -0.65575266
1.4053376 -0.27953896 -0.6417042
1.392134 -0.2769126 -0.62272191
1.3877509 -0.27604076 -0.60790569
1.3922579 -0.27693728 -0.5970962
1.3966939 -0.27781972 -0.58622718
1.3913335 -0.2767534 -0.57314819
1.4047017 -0.27941254 -0.56598717
1.4089043 -0.28024843 -0.55502206
1.4038397 -0.27924106 -0.54051685
1.3900019 -0.27648851 -0.52110356
1.412878 -0.28103885 -0.51545417
1.39871 -0.27822068 -0.49629006
1.4116774 -0.28080007 -0.48858809
1.3971764 -0.27791569 -0.46974578
1.4104847 -0.28056285 -0.46034521
1.4050043 -0.27947274 -0.44481245
1.3989022 -0.27825889 -0.4309811
1.4016387 -0.27880326 -0.42163676
1.3953311 -0.27754852 -0.40794337
1.4077904 -0.28002688 -0.39976382
1.4107466 -0.28061488 -0.38877949
1.4045303 -0.27937838 -0.37368762
1.3977761 -0.27803496 -0.36030346
1.410336 -0.28053322 -0.35021943
1.4037306 -0.2792193 -0.33537611
1.3969791 -0.27787641 -0.32067725
1.380497 -0.27459785 -0.30401301
1.3923383 -0.27695325 -0.29528064
1.3755739 -0.27361861 -0.27897924
1.3779092 -0.27408317 -0.26672947
1.389791 -0.27644649 -0.25623879
1.4206604 -0.2825869 -0.25053674
1.3934667 -0.27717781 -0.23456958
1.3951809 -0.27751875 -0.22372656
1.3871174 -0.27591479 -0.21136756
1.3983691 -0.27815294 -0.20197721
1.3996357 -0.27840483 -0.19264133
1.3815804 -0.27481347 -0.17920265
1.3926191 -0.27700919 -0.16963995
1.3841031 -0.27531523 -0.15767024
1.3756436 -0.27363253 -0.1443256
1.3865912 -0.27581012 -0.13301705
1.3875461 -0.27600008 -0.12223045
1.3981994 -0.27811909 -0.11219662
1.398998 -0.27827805 -0.10132034
1.3899286 -0.276474 -0.089781001
1.3905598 -0.27659953 -0.078969702
1.3911827 -0.27672344 -0.066594191
1.3916997 -0.27682626 -0.054213606
1.3921107 -0.27690804 -0.041828897
1.3923836 -0.27696234 -0.03097724
1.382746 -0.27504528 -0.021532265
1.3828669 -0.2750693 -0.010778802
1.392715 -0.27702826 -1.0321892e-07
1.392662 -0.27701771 0.012391577
1.3826966 -0.2750355 0.024607791
1.3913362 -0.24282695 -0.77286416
1.4144711 -0.24686469 -0.7715112
1.3861773 -0.24192657 -0.74032718
1.4012465 -0.24455668 -0.73259836
1.4170595 -0.24731643 -0.72310245
1.3967021 -0.24376346 -0.69728243
1.4033842 -0.24492969 -0.68331724
1.409205 -0.24594559 -0.67085946
1.4059632 -0.24537976 -0.65418375
1.4122165 -0.24647124 -0.64015335
1.3996065 -0.2442704 -0.61962378
1.3958161 -0.24360885 -0.60328442
1.3912256 -0.24280772 -0.58858824
1.3956072 -0.24357238 -0.5777998
1.3999178 -0.24432483 -0.566953
1.4041369 -0.24506107 -0.55609792
1.389291 -0.24247006 -0.53960997
1.4031079 -0.24488142 -0.53077441
1.3983566 -0.24405226 -0.51491481
1.40273 -0.2448155 -0.50250793
1.3976785 -0.24393401 -0.4868173
1.4106457 -0.24619707 -0.47913012
1.404839 -0.24518362 -0.46509391
1.4181757 -0.2475113 -0.45564905
1.4032037 -0.24489823 -0.43720043
1.4069088 -0.24554488 -0.42475358
1.4096172 -0.24601755 -0.41539717
1.4127042 -0.24655631 -0.40444636
1.4062005 -0.24542126 -0.39085609
1.4190307 -0.24766043 -0.38094112
1.4222515 -0.24822262 -0.3683562
1.4154202 -0.24703036 -0.3549107
1.4088335 -0.24588077 -0.34004554
1.3921454 -0.24296825 -0.32465008
1.3852634 -0.24176709 -0.31015167
1.3975148 -0.24390535 -0.2999371
1.3807292 -0.24097578 -0.28357974
1.3828244 -0.24134152 -0.27285695
1.3945184 -0.24338238 -0.26397595
1.4061632 -0.24541478 -0.25490469
1.3886163 -0.24235229 -0.24064469
1.400111 -0.24435847 -0.23146939
1.4020475 -0.24469636 -0.21905778
1.4038773 -0.24501579 -0.20662948
1.4053891 -0.2452796 -0.19575423
1.3870845 -0.24208502 -0.18382375
1.4079837 -0.24573253 -0.17549196
1.3898631 -0.24256991 -0.16074866
1.3911922 -0.24280183 -0.14843053
1.4120266 -0.24643813 -0.13801798
1.4131594 -0.24663578 -0.12550437
1.3945429 -0.24338669 -0.11141201
1.4052747 -0.24525976 -0.09975186
1.4060788 -0.24540007 -0.087299518
1.4067757 -0.24552166 -0.074840523
1.4073656 -0.2456246 -0.062375825
1.4175818 -0.24740762 -0.053394936
1.3884013 -0.24231488 -0.041534323
1.4084036 -0.2458058 -0.02964833
1.3987544 -0.24412173 -0.01705086
1.3889966 -0.24241865 -0.0046266117
1.3889968 -0.24241871 0.0046018003
1.398772 -0.24412477 0.015489388
1.4050353 -0.21123756 -0.73569989
1.4025098 -0.21085782 -0.71875256
1.4005497 -0.2105632 -0.70037395
1.3976381 -0.21012546 -0.68363363
1.4042134 -0.211114 -0.66971302
1.3919783 -0.20927449 -0.64892274
1.3988953 -0.21031447 -0.63352966
1.4043092 -0.21112843 -0.62116081
1.4011681 -0.21065612 -0.60328442
1.4063208 -0.21143082 -0.59089667
1.3924253 -0.20934179 -0.57247543
1.3967024 -0.20998475 -0.56171942
1.4014966 -0.21070555 -0.54937267
1.3876817 -0.20862862 -0.52991849
1.4014831 -0.21070352 -0.52110356
1.3960743 -0.20989028 -0.50687522
1.3998568 -0.21045902 -0.49609289
1.403566 -0.21101663 -0.48525697
1.4077001 -0.21163824 -0.47285256
1.392904 -0.20941374 -0.45427331
1.3962898 -0.2099227 -0.44351703
1.3996017 -0.21042064 -0.4327102
1.4028246 -0.21090522 -0.42190287
1.4055252 -0.21131125 -0.41260925
1.4086034 -0.21177402 -0.40173197
1.4024758 -0.21085277 -0.38665599
1.3961961 -0.20990863 -0.37171894
1.408541 -0.2117646 -0.36341181
1.4020205 -0.21078436 -0.34858063
1.3957143 -0.20983629 -0.33234066
1.3912406 -0.20916365 -0.30708307
1.3841583 -0.20809887 -0.29274705
1.3763309 -0.2069221 -0.28159666
1.3784194 -0.2072361 -0.27094886
1.380705 -0.20757972 -0.25877455
1.3828856 -0.20790754 -0.24658051
1.4044673 -0.21115224 -0.23766866
1.3869305 -0.20851563 -0.22213705
1.3887947 -0.20879589 -0.20988947
1.390553 -0.2090603 -0.19762591
1.3922056 -0.20930873 -0.1853473
1.3837491 -0.20803736 -0.17337459
1.3946631 -0.20967822 -0.16537717
1.4057026 -0.21133797 -0.15567973
1.3871601 -0.20855014 -0.14280777
1.3980443 -0.21018653 -0.13301705
1.3991389 -0.21035115 -0.12067479
1.4198472 -0.2134645 -0.10984902
1.410663 -0.2120837 -0.099751852
1.4015996 -0.21072108 -0.086689025
1.4022944 -0.2108255 -0.074317157
1.3930029 -0.20942855 -0.061503436
1.4033635 -0.21098632 -0.049557384
1.4036964 -0.21103632 -0.038732182
1.4039482 -0.21107423 -0.027879944
1.3942471 -0.20961571 -0.015380507
1.3844336 -0.20814025 -0.0045937966
1.3844279 -0.20813942 0.0061085345
1.4139864 -0.21258336 0.018718021
1.4023821 -0.17716207 -0.74962544
1.4008119 -0.1769637 -0.73110175
1.3982387 -0.17663862 -0.71423209
1.4051218 -0.17750819 -0.70037395
1.411132 -0.17826743 -0.68798798
1.4087975 -0.17797245 -0.66971302
1.414542 -0.17869814 -0.65729588
1.40277 -0.177211 -0.63508469
1.4173002 -0.17904665 -0.62673944
1.4128966 -0.1784903 -0.61185312
1.4272894 -0.18030854 -0.60326922
1.4239049 -0.17988101 -0.58535278
1.4104807 -0.17818514 -0.56541491
1.4153223 -0.17879674 -0.55298692
1.4101973 -0.17814931 -0.53852248
1.414806 -0.17873153 -0.52609807
1.4094119 -0.17805013 -0.51181674
1.3950636 -0.17623749 -0.4927856
1.4180593 -0.1791425 -0.4869456
1.4222211 -0.17966828 -0.47445396
1.397938 -0.17660061 -0.45274886
1.4107994 -0.17822537 -0.44495043
1.4145979 -0.1787053 -0.43252426
1.4182887 -0.17917153 -0.42006513
1.4123287 -0.17841849 -0.40483862
1.4057879 -0.17759231 -0.39130744
1.4178789 -0.17911974 -0.38462394
1.3919555 -0.17584488 -0.36611289
1.4139223 -0.17861997 -0.36030346
1.4166137 -0.17895995 -0.34939834
1.4002706 -0.17689525 -0.33234066
1.3930706 -0.1759858 -0.31934851
1.3860893 -0.17510383 -0.30495054
1.3814301 -0.17451517 -0.27855954
1.3837892 -0.17481326 -0.26639804
1.405287 -0.17752902 -0.25932965
1.427027 -0.18027543 -0.25038898
1.4095632 -0.17806922 -0.23456958
1.4017379 -0.17708068 -0.2206195
1.4134101 -0.17855524 -0.20973806
1.4051299 -0.17750917 -0.19748518
1.3969486 -0.17647557 -0.18382375
1.3886383 -0.17542581 -0.17032138
1.4097773 -0.17809628 -0.16034314
1.4010854 -0.17699818 -0.14843053
1.3924415 -0.17590623 -0.13514261
1.3934237 -0.17603038 -0.1244341
1.4043376 -0.17740905 -0.1129685
1.4151584 -0.17877603 -0.10132033
1.3862758 -0.17512739 -0.087004513
1.4067903 -0.177719 -0.07587634
1.3974824 -0.17654306 -0.063052297
1.4077758 -0.17784345 -0.054213598
1.3982292 -0.17663741 -0.043059401
1.4183514 -0.17917949 -0.032767359
1.4086385 -0.17795241 -0.021684973
1.4087617 -0.17796797 -0.010855242
1.3988808 -0.17671967 -0.0015504732
1.4186937 -0.1792227 0.0093591623
1.3987412 -0.17670208 0.019981857
1.3780142 -0.14118858 -0.75996238
1.3941314 -0.14283992 -0.75106233
1.4094071 -0.14440502 -0.7434507
1.3988986 -0.14332838 -0.7203747
1.4050989 -0.14396371 -0.70807582
1.4104304 -0.14450993 -0.69728243
1.41643 -0.14512457 -0.6848833
1.4133196 -0.14480592 -0.66817605
1.4107394 -0.14454158 -0.65001696
1.4260975 -0.14611502 -0.64015335
1.422482 -0.1457447 -0.62362134
1.4186887 -0.14535601 -0.60720181
1.4147193 -0.14494929 -0.59089667
1.4290146 -0.14641401 -0.5822202
1.4062593 -0.14408258 -0.55863667
1.4203386 -0.14552513 -0.54987335
1.4244788 -0.14594927 -0.53894269
1.4098529 -0.14445075 -0.52110356
1.4137745 -0.14485255 -0.51025438
1.4176048 -0.14524493 -0.49940017
1.4124696 -0.14471892 -0.48372081
1.4161069 -0.1450915 -0.47285256
1.4296256 -0.1464766 -0.46348158
1.4146067 -0.14493772 -0.44495043
1.4184155 -0.14532807 -0.43252426
1.4125719 -0.14472935 -0.41724589
1.4156965 -0.14504942 -0.40640366
1.4187458 -0.14536187 -0.39551288
1.4120992 -0.14468083 -0.38202512
1.4249902 -0.14600167 -0.37213778
1.4185166 -0.1453384 -0.35719341
1.4215635 -0.14565061 -0.34473625
1.3857402 -0.14198028 -0.32321197
1.4079126 -0.14425193 -0.31539389
1.4008688 -0.14353023 -0.3009415
1.3933725 -0.14276223 -0.28815269
1.3760006 -0.14098231 -0.27358082
1.3975875 -0.143194 -0.26672947
1.4289322 -0.14640562 -0.26137725
1.4014766 -0.14359252 -0.24524401
1.4131098 -0.1447845 -0.23613164
1.4148642 -0.1449642 -0.22526573
1.4167659 -0.14515905 -0.21284564
1.4084899 -0.14431112 -0.20057456
1.4003162 -0.14347367 -0.18689518
1.4117577 -0.14464585 -0.17583379
1.4033477 -0.14378427 -0.16229989
1.4047033 -0.14392315 -0.14998324
1.3959026 -0.14302151 -0.13820426
1.4167249 -0.14515488 -0.12930641
1.3978395 -0.14321989 -0.11675968
1.4185243 -0.14533919 -0.10754322
1.4093754 -0.14440185 -0.095963642
1.4000406 -0.14344537 -0.086078539
1.4205205 -0.14554375 -0.076410681
1.401185 -0.14356267 -0.064576499
1.411575 -0.14462721 -0.054213598
1.4020027 -0.14364648 -0.043059401
1.4122686 -0.14469826 -0.030977234
1.3925688 -0.14267987 -0.019864766
1.4026359 -0.14371133 -0.007702719
1.4026494 -0.1437127 0.0046018059
1.4025562 -0.14370316 0.01690598
1.3930118 -0.10963239 -0.75868255
1.3899428 -0.10939081 -0.74329871
1.4051939 -0.11059113 -0.73573071
1.4204186 -0.1117893 -0.727952
1.4088638 -0.11087991 -0.70654702
1.4149568 -0.11135949 -0.69418758
1.4209421 -0.11183055 -0.68177533
1.4170704 -0.11152579 -0.66661352
1.4137533 -0.11126473 -0.65001696
1.4102559 -0.11098953 -0.63352966
1.4157137 -0.11141904 -0.62116081
1.4210637 -0.11184015 -0.60874468
1.4079014 -0.11080428 -0.58858824
1.3951108 -0.10979756 -0.56719518
1.4265721 -0.11227366 -0.56911045
1.4122849 -0.11114915 -0.55090594
1.4071139 -0.11074218 -0.53653193
1.4205072 -0.11179629 -0.52920794
1.4057465 -0.1106346 -0.51150477
1.4090538 -0.11089495 -0.50226486
1.4128402 -0.11119291 -0.49144536
1.4070923 -0.11074051 -0.47741786
1.4106896 -0.11102363 -0.46661416
1.4047052 -0.11055276 -0.45274886
1.418108 -0.11160746 -0.44341141
1.4119058 -0.11111942 -0.4296214
1.4155896 -0.11140928 -0.41724589
1.4095765 -0.11093602 -0.40210325
1.4226334 -0.11196361 -0.39240053
1.4067228 -0.11071149 -0.3747983
1.4095316 -0.11093251 -0.36402515
1.4126449 -0.11117754 -0.35167292
1.3962581 -0.10988788 -0.33464605
1.379684 -0.10858349 -0.3179332
1.3921326 -0.10956321 -0.30799782
1.3850055 -0.10900228 -0.29373151
1.3972794 -0.10996829 -0.28357974
1.3798276 -0.10859476 -0.26904076
1.3913517 -0.1095017 -0.26181999
1.4033904 -0.11044918 -0.25138876
1.4075505 -0.11077653 -0.2267822
1.3998423 -0.11016999 -0.21143354
1.3917577 -0.10953371 -0.19776933
1.4031053 -0.11042677 -0.1884183
1.4044971 -0.11053627 -0.17767821
1.4058101 -0.11063962 -0.1669032
1.3969615 -0.10994326 -0.15655987
1.4179425 -0.11159449 -0.14793678
1.3892589 -0.10933708 -0.13418414
1.4001689 -0.11019569 -0.1244341
1.4010763 -0.1102671 -0.11369382
1.4118426 -0.11111438 -0.10370173
1.4026438 -0.11039042 -0.092218511
1.3933517 -0.10965919 -0.080906846
1.4137619 -0.11126547 -0.072782628
1.404381 -0.11052722 -0.059979077
1.3949369 -0.10978389 -0.04580681
1.3952446 -0.10980815 -0.035133373
1.3854766 -0.10903937 -0.025787076
1.3956013 -0.10983616 -0.015271422
1.3956809 -0.10984242 -0.003054417
1.3956544 -0.10984033 0.0091628199
1.3855535 -0.10904539 0.021226648
1.401474 -0.07712771 -0.76806378
1.3993123 -0.077008739 -0.75106233
1.4154603 -0.077897444 -0.7418924
1.4218707 -0.078250244 -0.72949338
1.4200159 -0.078148201 -0.7110188
1.4171877 -0.077992454 -0.69418758
1.4059056 -0.077371553 -0.67159742
1.4019346 -0.077153109 -0.65660268
1.4159821 -0.077926122 -0.65001696
1.4131629 -0.07777109 -0.63199848
1.3996496 -0.077027403 -0.61314583
1.4042783 -0.077282093 -0.60243672
1.4186864 -0.078074954 -0.59399784
1.3954545 -0.076796494 -0.57175952
1.3997682 -0.07703384 -0.56108361
1.4133081 -0.077779077 -0.55399525
1.4081604 -0.077495724 -0.53960997
1.4028854 -0.077205449 -0.52531117
1.4062883 -0.077392668 -0.51610422
1.4101778 -0.077606767 -0.50534725
1.4139938 -0.077816755 -0.49453607
1.4177189 -0.078021795 -0.48372081
1.4118938 -0.077701181 -0.46970022
1.4244293 -0.078391045 -0.46352559
1.408879 -0.077535301 -0.44659644
1.4122466 -0.077720612 -0.43579695
1.4155244 -0.077900976 -0.42499676
1.4091409 -0.077549674 -0.41134873
1.4222815 -0.078272857 -0.40173197
1.3867779 -0.076319017 -0.38029242
1.4089408 -0.077538647 -0.3747983
1.4020844 -0.077161349 -0.36153182
1.4144914 -0.07784418 -0.35320607
1.41714 -0.077989914 -0.3423911
1.3905399 -0.076526083 -0.32471913
1.3929724 -0.076659895 -0.31408799
1.3975992 -0.076914474 -0.29274705
1.3896956 -0.076479599 -0.28159666
1.4042108 -0.077278361 -0.25907525
1.3864809 -0.076302633 -0.24484402
1.3981514 -0.076944873 -0.23590751
1.4100139 -0.077597782 -0.22525425
1.4020493 -0.07715939 -0.21143354
1.403401 -0.077233776 -0.20223881
1.396805 -0.076870792 -0.17642696
1.3982892 -0.07695251 -0.16421252
1.3996668 -0.077028327 -0.1519856
1.4009378 -0.077098303 -0.13974708
1.4120462 -0.077709608 -0.12840217
1.4029052 -0.077206604 -0.11830464
1.393926 -0.076712362 -0.10528706
1.3947903 -0.076759927 -0.093100496
1.4055166 -0.077350192 -0.081484757
1.3862274 -0.076288752 -0.068216272
1.3966839 -0.076864123 -0.058015671
1.3971362 -0.076889098 -0.045806807
1.3974822 -0.076908052 -0.033594452
1.3977218 -0.076921284 -0.021379543
1.3978548 -0.076928616 -0.0091630043
1.3978839 -0.076930225 0.0015148544
1.4078159 -0.077476799 0.012304323
1.3877141 -0.076370537 0.022730587
1.3916366 -0.043733846 -0.7678116
1.3990972 -0.043968391 -0.75411791
1.4056215 -0.044173375 -0.74187398
1.4120388 -0.044375017 -0.72957349
1.4102106 -0.044317618 -0.71115565
1.4073954 -0.044229165 -0.69439334
1.4141353 -0.044440944 -0.68054855
1.4109727 -0.044341523 -0.66392016
1.3985469 -0.043951053 -0.64322233
1.3949864 -0.043839179 -0.62689
1.418707 -0.044584595 -0.62272191
1.3958735 -0.043867014 -0.60001069
1.4109104 -0.04433956 -0.59014076
1.406749 -0.044208787 -0.57402337
1.4117022 -0.044364478 -0.56171942
1.4072285 -0.044223931 -0.54575837
1.4119351 -0.04437181 -0.53345126
1.4071534 -0.044221547 -0.51765257
1.4110674 -0.044344515 -0.50687522
1.4148904 -0.044464678 -0.49609289
1.4186394 -0.044582516 -0.48525697
1.4038471 -0.044117659 -0.46654788
1.4173756 -0.04454276 -0.45734274
1.4012721 -0.04403666 -0.44203761
1.4146326 -0.044456635 -0.4327102
1.418353 -0.044573519 -0.4203428
1.4027495 -0.044083152 -0.40243062
1.4158378 -0.044494484 -0.3928405
1.4091396 -0.044283964 -0.37942633
1.4119976 -0.044373788 -0.3686378
1.3953865 -0.04385177 -0.35295033
1.4174596 -0.04454539 -0.34702149
1.4009745 -0.044027369 -0.33004865
1.4037999 -0.044116121 -0.3178044
1.3869834 -0.043587666 -0.30129239
1.3993442 -0.043976109 -0.29120779
1.3917226 -0.043736678 -0.27855954
1.4039168 -0.04411982 -0.26827407
1.3963697 -0.043882653 -0.25421622
1.4083827 -0.044260189 -0.24371938
1.4200653 -0.044627294 -0.23456956
1.4020648 -0.044061646 -0.22061923
1.4037095 -0.044113267 -0.20988946
1.4052687 -0.044162322 -0.19917195
1.4168606 -0.044526625 -0.18821135
1.3986098 -0.04395305 -0.17337458
1.3899653 -0.043681432 -0.1615189
1.401093 -0.044031132 -0.1519856
1.4020572 -0.044061475 -0.14280775
1.4031074 -0.044094436 -0.1320803
1.3941154 -0.04381185 -0.12050888
1.3949955 -0.043839507 -0.10984282
1.4057622 -0.044177823 -0.099903256
1.3965094 -0.043887075 -0.088516466
1.3870796 -0.04359078 -0.078803062
1.3976231 -0.043922063 -0.068707034
1.4080937 -0.04425114 -0.058430068
1.3984568 -0.043948289 -0.048859384
1.3887972 -0.043644663 -0.037913885
1.4090617 -0.044281483 -0.026158107
1.3892469 -0.043658793 -0.013658292
1.4093009 -0.044289112 -0.0030762302
1.3992792 -0.043974161 0.0091628237
1.4191568 -0.044598818 0.020123579
1.3889174 -0.010908735 -0.77387941
1.3956176 -0.010961366 -0.76172918
1.4022115 -0.011013104 -0.7495209
1.3998389 -0.010994508 -0.73261869
1.3972788 -0.010974422 -0.71581531
1.4124113 -0.011093215 -0.70807576
1.4095583 -0.011070864 -0.6913197
1.4072504 -0.011052745 -0.67314517
1.4123549 -0.011092801 -0.66236752
1.4089909 -0.011066397 -0.64585018
1.4054468 -0.011038562 -0.62944227
1.4102066 -0.011075876 -0.61870426
1.4148948 -0.011112772 -0.60790563
1.41949 -0.011148773 -0.59709615
1.4147661 -0.01111176 -0.58242047
1.409276 -0.011068607 -0.5694021
1.4135777 -0.011102404 -0.55863661
1.4178067 -0.011135545 -0.54781389
1.4131744 -0.011099246 -0.5318976
1.4171898 -0.011130837 -0.5211035
1.4111624 -0.011083392 -0.50842714
1.4150076 -0.011113673 -0.4976244
1.4093033 -0.01106891 -0.48357186
1.4224415 -0.011171967 -0.47595707
1.4165233 -0.011125536 -0.46199328
1.4104832 -0.011078091 -0.44812304
1.403836 -0.011025879 -0.43591622
1.416692 -0.01112685 -0.42808861
1.4199231 -0.011152241 -0.41724589
1.4134487 -0.011101459 -0.4036577
1.4164931 -0.011125302 -0.3928405
1.4190338 -0.01114527 -0.38356096
1.4122448 -0.011091984 -0.37019092
1.4150335 -0.01111386 -0.35938391
1.4177332 -0.01113502 -0.34858063
1.391171 -0.010926405 -0.33079261
1.3933063 -0.010943214 -0.3216801
1.3957191 -0.010962169 -0.31104365
1.39838 -0.010983031 -0.29885164
1.4006238 -0.011000616 -0.28815269
1.395611 -0.010961278 -0.26181999
1.4175305 -0.011133476 -0.25314674
1.4098265 -0.011072919 -0.23909459
1.4022291 -0.011013255 -0.22367905
1.4038979 -0.011026369 -0.21295288
1.425054 -0.011192547 -0.20662947
1.4067748 -0.01104902 -0.19303541
1.4181261 -0.01113813 -0.18355902
1.4194849 -0.01114886 -0.17273727
1.4010649 -0.011004141 -0.15810058
1.4121776 -0.011091402 -0.14843051
1.3935117 -0.010944835 -0.13418414
1.3846679 -0.010875337 -0.12114658
1.3956412 -0.010961526 -0.10984282
1.3964384 -0.010967785 -0.09919472
1.4071355 -0.011051828 -0.08914873
1.4077744 -0.011056836 -0.078413561
1.3983445 -0.010982808 -0.067169473
1.3987542 -0.010985967 -0.058015667
1.3991561 -0.010989127 -0.047345329
1.4094733 -0.01107013 -0.036909588
1.3997159 -0.010993598 -0.025972588
1.4098725 -0.01107329 -0.015380496
1.3899497 -0.010916829 0.0045365398
1.4098725 -0.011073292 0.015380321
1.3929819 0.021882819 -0.76630449
1.3900009 0.02183597 -0.75087982
1.3964999 0.021938013 -0.73871982
1.4117713 0.02217792 -0.73110169
1.4010262 0.022009119 -0.70819575
1.4071522 0.02210526 -0.69594115
1.4139217 0.022211714 -0.68207914
1.4198194 0.022304337 -0.66971296
1.4081495 0.022120932 -0.64739907
1.4144421 0.022219876 -0.6335296
1.4199162 0.022305885 -0.62116075
1.3976959 0.021956839 -0.59696245
1.4213099 0.022327758 -0.59243518
1.40727 0.022107219 -0.57402331
1.4215159 0.022330975 -0.56541485
1.4071583 0.022105489 -0.5472815
1.4118799 0.022179637 -0.53497952
1.4071134 0.022104772 -0.51917565
1.4115899 0.022175046 -0.50687516
1.4164929 0.022252053 -0.49300337
1.4012837 0.022013158 -0.47573051
1.4243729 0.022375852 -0.46974578
1.4183943 0.022281973 -0.45580795
1.4118078 0.022178499 -0.44351703
1.4151564 0.022231009 -0.4327102
1.427999 0.02243283 -0.42475358
1.4215984 0.022332277 -0.41104618
1.4246919 0.022380913 -0.40019032
1.4277091 0.022428298 -0.38928628
1.4306363 0.022474313 -0.37838447
1.4241951 0.022373043 -0.36341181
1.3981829 0.021964451 -0.34380555
1.4011295 0.022010764 -0.33158967
1.3938757 0.02189674 -0.31863952
1.395931 0.021929044 -0.30950874
1.3985784 0.021970589 -0.29731381
1.4109175 0.022164542 -0.28708991
1.4075563 0.022111669 -0.25138876
1.3998382 0.021990493 -0.2374226
1.4117286 0.022177175 -0.2267822
1.4037681 0.022052182 -0.21295288
1.4053512 0.022077037 -0.20223881
1.4068561 0.022100639 -0.19148842
1.3886356 0.021814417 -0.17667864
1.4000537 0.021993827 -0.16572782
1.3915071 0.021859536 -0.15241371
1.3927841 0.021879623 -0.14026338
1.4137249 0.022208519 -0.13148713
1.4148183 0.022225745 -0.11914368
1.4058336 0.022084601 -0.1060391
1.4067053 0.022098308 -0.093765497
1.3974878 0.021953469 -0.080906838
1.3979874 0.021961395 -0.07175751
1.3885057 0.021812383 -0.060631033
1.4088566 0.022132102 -0.052282527
1.4092143 0.022137763 -0.041534308
1.3895297 0.021828474 -0.028818989
1.4097052 0.022145452 -0.018456416
1.4198112 0.022304177 -0.0061959857
1.3998139 0.02199012 0.0061085476
1.4097052 0.022145448 0.018456245
1.3991506 0.054972816 -0.77418071
1.3970615 0.0548908 -0.75717002
1.3955953 0.054833159 -0.73871982
1.4019837 0.055084094 -0.72650361
1.4001187 0.05501084 -0.70819575
1.4151978 0.05560337 -0.70037389
1.4130061 0.055517178 -0.68207914
1.4098623 0.055393677 -0.66544729
1.4148927 0.055591326 -0.6546666
1.4219441 0.055868369 -0.63918197
1.398669 0.05495391 -0.61774194
1.412519 0.055498041 -0.61099106
1.4079323 0.055317856 -0.59629434
1.4223139 0.055882908 -0.58779263
1.4273852 0.056082167 -0.57534879
1.4131444 0.055522595 -0.55708194
1.4173489 0.055687878 -0.54627931
1.4214802 0.055850122 -0.53542012
1.416141 0.055640314 -0.5211035
1.4206309 0.05581674 -0.50871617
1.4150417 0.055597216 -0.49453607
1.4193001 0.055764467 -0.48215929
1.4134471 0.055534512 -0.46816981
1.4169819 0.05567345 -0.45734274
1.4294724 0.056164172 -0.45105878
1.423316 0.055922236 -0.43720043
1.426614 0.056051876 -0.42629877
1.4202253 0.055800822 -0.41260925
1.4233356 0.05592313 -0.40173197
1.4263558 0.05604174 -0.39085609
1.4297097 0.056173466 -0.37838447
1.4228787 0.055905126 -0.36495292
1.4260069 0.056028031 -0.35251266
1.4092145 0.055368207 -0.33696997
1.4020112 0.055085141 -0.32392961
1.4239452 0.055947024 -0.31756905
1.3992697 0.054977436 -0.28969264
1.4017425 0.055074651 -0.27746141
1.403821 0.055156305 -0.26672947
1.4055352 0.055223599 -0.25752875
1.4074569 0.055299118 -0.24679294
1.409301 0.055371538 -0.23601817
1.4011912 0.055053011 -0.22367905
1.4127381 0.055506662 -0.21445255
1.4239993 0.055949043 -0.20662947
1.4057336 0.055231463 -0.19303541
1.4073632 0.055295479 -0.1807514
1.3987824 0.054958355 -0.16878225
1.4099573 0.055397402 -0.15922184
1.4111323 0.055443473 -0.14843051
1.4122224 0.055486389 -0.13765515
1.4132327 0.055526145 -0.12684712
1.3942406 0.054779835 -0.11442176
1.394959 0.054808088 -0.10528705
1.4156613 0.055621453 -0.095963627
1.4164443 0.055652205 -0.083596624
1.4171193 0.055678729 -0.071223252
1.4176209 0.055698458 -0.060404453
1.3981204 0.0549323 -0.047345325
1.4184582 0.05573136 -0.03563527
1.4087241 0.055348933 -0.023082428
1.4088718 0.055354714 -0.010778783
1.3989198 0.054963708 0.0015148624
1.4088452 0.055353701 0.013830032
1.3983158 0.087974593 -0.77264059
1.4049916 0.088394627 -0.76038462
1.4115605 0.088807926 -0.74807072
1.4091594 0.088656828 -0.73110169
1.4154732 0.089054093 -0.7187525
1.4127378 0.088881955 -0.70190609
1.4098173 0.088698193 -0.68516254
1.415731 0.089070246 -0.6728093
1.4124824 0.088865913 -0.65619844
1.4006479 0.088121332 -0.63405061
1.4061167 0.08846543 -0.6217795
1.4298093 0.089955963 -0.61737609
1.4167327 0.0891333 -0.59709615
1.4126461 0.088876285 -0.58088917
1.4083856 0.088608183 -0.56479937
1.4126537 0.088876583 -0.55399519
1.4080997 0.088590115 -0.53805888
1.4121542 0.088845223 -0.52728242
1.4067575 0.088505656 -0.51303029
1.4100785 0.088714689 -0.50379395
1.4138722 0.088953346 -0.49300337
1.4175923 0.089187354 -0.48215929
1.4212213 0.08941564 -0.4713119
1.4247756 0.089639276 -0.46041214
1.4182341 0.089227766 -0.44805172
1.4125383 0.088869423 -0.4327102
1.4066837 0.088500999 -0.41750264
1.4294536 0.089933597 -0.41069975
1.422924 0.089522801 -0.39708081
1.4263279 0.089736901 -0.38462394
1.4099071 0.088703893 -0.3686378
1.412672 0.088877819 -0.35785243
1.4250553 0.089656971 -0.34939834
1.4179614 0.089210652 -0.33619508
1.4107554 0.088757239 -0.32309601
1.4225795 0.089501105 -0.31600192
1.4057531 0.088442519 -0.29939294
1.4083071 0.088603154 -0.28708991
1.4104514 0.088738099 -0.27631915
1.4027092 0.08825101 -0.2636638
1.4144983 0.08899273 -0.25470528
1.4161319 0.089095488 -0.24542372
1.3982689 0.087971643 -0.23131165
1.410091 0.088715449 -0.22061947
1.4119587 0.08883287 -0.20828152
1.4233878 0.089551941 -0.19886617
1.4151692 0.08903493 -0.18511826
1.4167275 0.089132972 -0.17273727
1.4181781 0.089224227 -0.16034313
1.4195205 0.089308627 -0.14793678
1.4108195 0.088761218 -0.13457145
1.3917857 0.087563761 -0.12355157
1.3926877 0.087620504 -0.11288746
1.4134138 0.088924415 -0.10370171
1.4042046 0.088344999 -0.092218496
1.4048657 0.088386722 -0.08148475
1.4153352 0.089045353 -0.072782613
1.4058783 0.08845032 -0.061503418
1.3963318 0.087849736 -0.050397791
1.4166706 0.089129388 -0.038732164
1.416954 0.08914721 -0.026343618
1.3971543 0.087901473 -0.015271409
1.3972298 0.087906241 -0.0045937793
1.4171903 0.089162052 0.0046344572
1.4071339 0.088529348 0.015380327
1.3958549 0.12089412 -0.77264059
1.3937535 0.12071215 -0.75563222
1.4186939 0.12287228 -0.75120568
1.4163189 0.12266652 -0.73416191
1.4234375 0.12328307 -0.72015756
1.4207091 0.12304674 -0.70323908
1.4177957 0.12279449 -0.68642354
1.4056878 0.12174581 -0.66544729
1.4204671 0.12302581 -0.65729582
1.4268219 0.12357626 -0.64327931
1.4232368 0.12326572 -0.62673938
1.4096613 0.12208996 -0.60790563
1.4148927 0.12254307 -0.59553492
1.4200164 0.12298683 -0.58311892
1.4157785 0.12261979 -0.56695294
1.4206536 0.12304197 -0.55453026
1.4347372 0.12426183 -0.54560828
1.420155 0.1229988 -0.52766567
1.4246885 0.12339142 -0.51520616
1.4197114 0.12296036 -0.49940017
1.4145687 0.12251499 -0.48372081
1.4187202 0.12287447 -0.4713119
1.4317501 0.12400302 -0.46348158
1.4167087 0.1227003 -0.44495043
1.4205232 0.12303075 -0.43252426
1.4242296 0.12335166 -0.42006513
1.4182446 0.12283333 -0.40483862
1.4308827 0.12392791 -0.39663133
1.4338617 0.12418588 -0.38564047
1.417465 0.1227658 -0.36962333
1.4302887 0.12387647 -0.35962328
1.423676 0.12330373 -0.34473625
1.3971524 0.12100651 -0.32698992
1.4190353 0.1229017 -0.32067725
1.4120312 0.12229522 -0.30612421
1.4048827 0.12167604 -0.29171845
1.4076705 0.1219175 -0.27784827
1.4198245 0.12297012 -0.26735142
1.4417099 0.12486555 -0.25842062
1.4141698 0.12248047 -0.2423275
1.4061408 0.121785 -0.22986194
1.4275367 0.12363811 -0.22215465
1.4195557 0.12294687 -0.2081963
1.4013623 0.12137116 -0.19455759
1.4126787 0.12235124 -0.18511824
1.4140474 0.12246979 -0.17427324
1.4155086 0.12259639 -0.16188067
1.4267702 0.1235717 -0.15052105
1.4179567 0.12280834 -0.13862455
1.4191079 0.12290806 -0.1261991
1.4100974 0.12212766 -0.11450014
1.4108138 0.12218971 -0.10523414
1.4016316 0.12139446 -0.093765497
1.4122503 0.1223141 -0.083596624
1.4129233 0.1223724 -0.071223252
1.4134233 0.12241573 -0.060404446
1.4138947 0.12245649 -0.048021682
1.4042988 0.12162542 -0.035384309
1.4044995 0.12164277 -0.026158098
1.4146197 0.12251931 -0.01548957
1.4146962 0.12252599 -0.0046594026
1.4246531 0.12338835 0.0062394519
1.4046402 0.12165505 0.016905995
1.4030057 0.15489332 -0.77439195
1.4096693 0.15562896 -0.76204473
1.407429 0.15538166 -0.74498332
1.4138372 0.15608917 -0.7325983
1.4201379 0.15678476 -0.72015756
1.4174159 0.15648423 -0.70323908
1.4152465 0.15624474 -0.68488324
1.4121387 0.1559016 -0.668176
1.4185963 0.15661453 -0.65418369
1.4060737 0.155232 -0.6335296
1.4297285 0.15784357 -0.62917572
1.4155259 0.15627556 -0.61185306
1.4109612 0.15577152 -0.59709615
1.425282 0.15735266 -0.5884825
1.4211042 0.15689144 -0.57223094
1.4247963 0.15729901 -0.56286114
1.4389074 0.15885684 -0.55390418
1.4250293 0.1573247 -0.53426629
1.4197071 0.15673712 -0.5198707
1.4230586 0.15710714 -0.51051122
1.4175 0.15649351 -0.49629006
1.4212295 0.1569052 -0.48537368
1.4248677 0.15730694 -0.47445396
1.4194658 0.15671048 -0.45886707
1.4233918 0.15714392 -0.44638732
1.4272095 0.1575655 -0.43387359
1.4304645 0.1579248 -0.42288437
1.4245175 0.1572682 -0.40757403
1.4279985 0.15765253 -0.39505187
1.4313707 0.15802482 -0.38249964
1.434634 0.15838513 -0.36991829
1.4084556 0.155495 -0.35167292
1.4211199 0.15689315 -0.34161782
1.4043043 0.15503664 -0.32617912
1.4164379 0.1563762 -0.31756905
1.4087579 0.15552838 -0.30612421
1.4229867 0.1570992 -0.28640631
1.395838 0.15410198 -0.26979384
1.4079021 0.15543391 -0.25932965
1.4294081 0.15780814 -0.25197041
1.4413443 0.15912594 -0.24105103
1.4335613 0.15826668 -0.22683384
1.4158102 0.15630688 -0.21130438
1.4173744 0.15647961 -0.20040934
1.4089994 0.15555497 -0.18821134
1.4204423 0.15681829 -0.17706338
1.4414927 0.15914227 -0.16844112
1.4231331 0.15711536 -0.15364508
1.4145199 0.15616454 -0.14016458
1.4255817 0.15738566 -0.12863368
1.4167359 0.15640908 -0.11530647
1.4275959 0.15760809 -0.1035831
1.4383597 0.15879637 -0.091677763
1.4290886 0.15777284 -0.080081925
1.4296554 0.15783548 -0.069088586
1.4202683 0.15679914 -0.056141615
1.4008312 0.15465325 -0.043059383
1.421026 0.1568827 -0.031195363
1.4112824 0.15580702 -0.020148531
1.4213337 0.15691674 -0.0093593393
1.4313037 0.15801746 -7.8711047e-08
1.4113835 0.15581822 0.010830284
1.4311368 0.15799898 0.021990215
1.3997967 0.18801628 -0.7728641
1.3976923 0.18773358 -0.75578594
1.4129519 0.1897832 -0.74809718
1.4201691 0.19075255 -0.73405266
1.4176036 0.19040804 -0.71703875
1.4237514 0.19123374 -0.70452958
1.421591 0.19094358 -0.68609029
1.4184929 0.19052748 -0.66931105
1.4152136 0.19008695 -0.65263891
1.4221851 0.19102339 -0.63702416
1.4276404 0.19175617 -0.62447774
1.4245214 0.19133715 -0.60640633
1.4205472 0.19080338 -0.59003383
1.4157727 0.19016203 -0.57534879
1.4299202 0.19206229 -0.5665161
1.4255089 0.19146982 -0.55033064
1.4203534 0.19077733 -0.53581733
1.4156203 0.19014165 -0.5198707
1.4200627 0.19073835 -0.50738651
1.4337679 0.19257918 -0.49811935
1.4286227 0.19188806 -0.48230317
1.4322269 0.19237217 -0.47129518
1.4267995 0.19164315 -0.45564905
1.4212112 0.19089255 -0.44013464
1.4344636 0.19267264 -0.43045497
1.4281619 0.19182619 -0.41660085
1.4317107 0.19230279 -0.40401018
1.416015 0.19019464 -0.38617021
1.4288909 0.19192407 -0.37621254
1.4220846 0.19100991 -0.36275452
1.4251678 0.19142391 -0.3502194
1.4088433 0.18923129 -0.33309466
1.4213395 0.19090976 -0.32287365
1.424078 0.19127758 -0.3103466
1.4170024 0.19032724 -0.29577011
1.4192019 0.19062264 -0.28483197
1.4213136 0.1909063 -0.27390221
1.4330962 0.19248892 -0.26473233
1.4252934 0.19144078 -0.25197041
1.4268973 0.19165631 -0.24255277
1.4289408 0.19193073 -0.22997984
1.421075 0.19087423 -0.21590044
1.432255 0.19237585 -0.20793566
1.4337885 0.19258185 -0.19688243
1.435235 0.19277616 -0.18584298
1.4267614 0.19163807 -0.17357038
1.4181834 0.19048585 -0.16146439
1.4095087 0.1893207 -0.14947578
1.4401906 0.1934417 -0.14153275
1.4216151 0.19094677 -0.1270816
1.4126577 0.18974364 -0.11530647
1.4136012 0.18987042 -0.10286377
1.4144371 0.18998259 -0.090413235
1.4150794 0.1900689 -0.079525791
1.4255401 0.19147396 -0.069088578
1.4061527 0.18886995 -0.058844447
1.4065566 0.18892413 -0.048021678
1.4167869 0.19029826 -0.03743311
1.4368176 0.19298869 -0.028468931
1.4171883 0.1903522 -0.015598646
1.4172692 0.19036305 -0.0031198494
1.4271625 0.19169188 0.0078413002
1.4171302 0.19034439 0.020265311
1.4198333 0.22487955 -0.76837677
1.4089 0.22314791 -0.74652916
1.4152808 0.22415851 -0.73405266
1.4223241 0.22527401 -0.71996242
1.4107304 0.22343777 -0.6985811
1.4166977 0.22438292 -0.68609029
1.4225574 0.22531103 -0.67354721
1.4193254 0.22479908 -0.65679586
1.4263172 0.22590648 -0.64108169
1.4408504 0.22820835 -0.63243288
1.4273999 0.22607796 -0.6134479
1.4424033 0.22845428 -0.60305995
1.4377568 0.22771832 -0.58813244
1.4427712 0.22851256 -0.57540697
1.429234 0.22636852 -0.55547041
1.4339674 0.2271181 -0.54282153
1.4281716 0.22620019 -0.52986699
1.4228222 0.22535291 -0.51545411
1.4359972 0.22743961 -0.50772363
1.4304309 0.22655806 -0.49339518
1.4341145 0.22714147 -0.48230961
1.4372015 0.22763035 -0.47279608
1.4407215 0.22818789 -0.46168414
1.4347262 0.22723833 -0.44757524
1.4385293 0.22784069 -0.43488196
1.4422228 0.22842571 -0.42215553
1.4358519 0.22741666 -0.40830231
1.4393165 0.22796538 -0.39560056
1.4426715 0.22849676 -0.38286868
1.4459164 0.22901079 -0.37010765
1.4390748 0.22792704 -0.35652894
1.432479 0.22688235 -0.34150869
1.425379 0.22575791 -0.32821929
1.4371154 0.22761674 -0.3209208
1.4298353 0.22646369 -0.30770937
1.4224353 0.22529168 -0.29465464
1.4346142 0.22722055 -0.28399467
1.4367166 0.22755362 -0.27288282
1.4387304 0.22787251 -0.26178044
1.4409319 0.22822119 -0.24905881
1.4332736 0.2270083 -0.2347215
1.4447658 0.22882839 -0.22514269
1.4464197 0.22909041 -0.21397953
1.4479932 0.22933961 -0.20277834
1.4496858 0.22960766 -0.18997714
1.4314656 0.2267219 -0.17636111
1.4229419 0.22537191 -0.16414474
1.4437804 0.2286724 -0.15526432
1.4350812 0.22729452 -0.1431051
1.4459538 0.22901662 -0.13292335
1.4273568 0.22607112 -0.11850824
1.4479094 0.22932631 -0.10893955
1.4487932 0.22946626 -0.096142672
1.4495667 0.22958887 -0.083338469
1.4304988 0.22656876 -0.069568358
1.431044 0.22665513 -0.056926806
1.4412529 0.22827208 -0.047769934
1.4218616 0.22520077 -0.034554277
1.4418567 0.22836769 -0.02229579
1.4419941 0.22838938 -0.0095556853
1.4321473 0.22682989 0.0015689762
1.4518466 0.22994989 0.012827932
1.422081 0.22523552 0.023548255
1.4054654 0.25668359 -0.76366276
1.4119675 0.25787109 -0.75116599
1.4366679 0.26238221 -0.74615073
1.4254208 0.26032811 -0.7244342
1.4323545 0.26159438 -0.71016133
1.4117594 0.25783303 -0.68451267
1.4182963 0.25902686 -0.67040336
1.424708 0.26019791 -0.65620422
1.4212915 0.25957397 -0.63949341
1.4273936 0.26068833 -0.62529117
1.4236393 0.26000276 -0.60872793
1.4197102 0.25928518 -0.59227914
1.4247404 0.26020387 -0.5796625
1.4198973 0.25931934 -0.56492931
1.4338844 0.26187381 -0.55587542
1.4386017 0.26273534 -0.54313439
1.4432096 0.26357695 -0.53035206
1.4389738 0.26280335 -0.51262927
1.4334785 0.26179972 -0.49819711
1.4278424 0.26077041 -0.48390585
1.4314398 0.26142731 -0.47279605
1.4349453 0.26206765 -0.46168411
1.4284892 0.26088849 -0.44917217
1.4412452 0.26321819 -0.44094035
1.4350704 0.26209047 -0.42694446
1.4193149 0.25921294 -0.4103094
1.4322684 0.26157871 -0.40035456
1.4356508 0.26219639 -0.38763383
1.4293945 0.26105377 -0.37240091
1.4325368 0.26162764 -0.35970676
1.4259999 0.26043388 -0.34467196
1.4285444 0.2608985 -0.33360592
1.4214072 0.25959513 -0.32033068
1.4333894 0.26178351 -0.31139082
1.4257302 0.26038459 -0.29982173
1.4282498 0.26084486 -0.28716284
1.4306605 0.26128504 -0.27448207
1.4329624 0.26170543 -0.26178041
1.4351552 0.26210585 -0.24905881
1.4369861 0.2624402 -0.23789907
1.4387293 0.26275855 -0.22675095
1.440621 0.26310408 -0.21397953
1.4326572 0.26164967 -0.19983241
1.4343181 0.261953 -0.18711588
1.435492 0.26216739 -0.17756906
1.4367855 0.26240367 -0.16640879
1.4379922 0.26262403 -0.15526432
1.4392703 0.2628575 -0.14250216
1.4404387 0.26307088 -0.12972914
1.4316915 0.2614733 -0.11615069
1.4326341 0.26164544 -0.10344592
1.4334676 0.26179767 -0.090733245
1.434108 0.26191467 -0.079591244
1.4346635 0.262016 -0.068470046
1.4449661 0.26389772 -0.057712004
1.4354749 0.26216424 -0.04776993
1.4357915 0.26222211 -0.036639061
1.4458323 0.26405579 -0.027271198
1.4361744 0.26229197 -0.014346099
1.4362429 0.26230454 -0.0016054261
1.436202 0.26229709 0.01113537
1.4360763 0.26227415 0.022295643
1.4260876 0.29532868 -0.75409234
1.4237425 0.2948429 -0.73683429
1.4116681 0.29234239 -0.71681899
1.4265454 0.29542336 -0.70858532
1.4325461 0.29666606 -0.69584537
1.4295585 0.29604742 -0.67883611
1.4271017 0.29553857 -0.66033131
1.4319919 0.29655126 -0.64919662
1.4285007 0.29582831 -0.63243288
1.4248328 0.29506871 -0.61578107
1.4300404 0.2961472 -0.60305995
1.4351393 0.29720309 -0.59029293
1.4310141 0.29634878 -0.57382596
1.4261259 0.29533651 -0.55905408
1.440021 0.29821405 -0.54982567
1.4262611 0.29536453 -0.53013128
1.4399674 0.29820296 -0.52073878
1.4258449 0.29527828 -0.50137502
1.4202653 0.29412284 -0.48707128
1.4238698 0.29486927 -0.47596949
1.4273832 0.29559687 -0.46486536
1.4308212 0.29630885 -0.45370868
1.4247944 0.29506072 -0.43965852
1.4369738 0.29758295 -0.43295583
1.4589984 0.30214414 -0.42723796
1.4432805 0.29888901 -0.41049567
1.4463111 0.29951671 -0.39921647
1.4492507 0.30012539 -0.38793975
1.443017 0.29883447 -0.37255865
1.4552753 0.30137309 -0.36365947
1.4392643 0.29805735 -0.34609264
1.4326161 0.2966806 -0.33104622
1.4258211 0.29527339 -0.31614479
1.4380555 0.29780695 -0.30546269
1.4210911 0.29429385 -0.29032964
1.4328392 0.29672679 -0.28111383
1.4348969 0.29715297 -0.2699455
1.4371493 0.29761931 -0.25714785
1.4392917 0.29806301 -0.24433064
1.4408269 0.29838091 -0.23470546
1.4330945 0.29677969 -0.22036734
1.4347023 0.29711258 -0.2091732
1.4362228 0.29742742 -0.19799244
1.4376628 0.29772568 -0.18677455
1.4291073 0.29595387 -0.17596444
1.43038 0.29621744 -0.16482824
1.4413106 0.29848111 -0.1547022
1.4424241 0.29871166 -0.14347155
1.4337029 0.29690558 -0.13131355
1.42501 0.29510534 -0.11772548
1.4357285 0.29732507 -0.10574107
1.4364766 0.29747999 -0.094555326
1.4469188 0.29964244 -0.083905399
1.437723 0.29773819 -0.072142363
1.4381547 0.29782754 -0.062531352
1.4484208 0.29995358 -0.050050758
1.4585824 0.30205792 -0.03739192
1.4490002 0.3000735 -0.027456714
1.4197886 0.29402411 -0.015816802
1.4394498 0.29809576 -0.0048234542
1.4492359 0.30012232 0.0064576264
1.4393541 0.29807591 0.017625412
1.4122692 0.3273465 -0.76677245
1.4100831 0.3268398 -0.74949419
1.4164009 0.32830411 -0.73683429
1.4138832 0.32772061 -0.71967584
1.4199475 0.32912615 -0.70698303
1.4171019 0.32846662 -0.68995094
1.4140751 0.32776508 -0.67302406
1.4218348 0.32956365 -0.65557122
1.4273537 0.33084288 -0.64280963
1.4231485 0.32986811 -0.62764281
1.4194462 0.32900998 -0.6110034
1.4252162 0.33034739 -0.59668213
1.4211823 0.32941237 -0.58019692
1.4357545 0.33278999 -0.56943816
1.4314234 0.33178613 -0.55303264
1.4274883 0.33087406 -0.53516304
1.4319835 0.33191594 -0.52235538
1.4266276 0.3306745 -0.50782686
1.4303592 0.33153954 -0.49664268
1.4345268 0.33250549 -0.48381078
1.4288099 0.3311803 -0.46949109
1.4327466 0.33209291 -0.4566741
1.4365745 0.33298013 -0.44382232
1.4300268 0.33146247 -0.43134201
1.4238229 0.33002451 -0.41738752
1.4268897 0.3307353 -0.40620241
1.4298661 0.33142516 -0.39501914
1.42334 0.32991257 -0.38126233
1.4359741 0.33284095 -0.37093809
1.4390728 0.33355919 -0.35806066
1.4230875 0.32985404 -0.34061447
1.4255769 0.33043101 -0.32946289
1.4283234 0.33106759 -0.31668019
1.4211024 0.32939389 -0.30342627
1.432557 0.33204892 -0.29584447
1.4347135 0.33254877 -0.28462005
1.4272125 0.3308101 -0.27153099
1.4390602 0.33355626 -0.26047233
1.4313474 0.33176848 -0.24753673
1.4427674 0.3344155 -0.23788342
1.4348629 0.33258337 -0.22507022
1.4364971 0.33296216 -0.21380408
1.4283926 0.33108366 -0.20119181
1.4393046 0.33361286 -0.19288544
1.4406989 0.3339361 -0.1815854
1.4325087 0.33203769 -0.16754083
1.4338784 0.3323552 -0.1547022
1.434834 0.33257669 -0.14506544
1.4358702 0.33281678 -0.1338276
1.4368248 0.33303815 -0.12255622
1.4376936 0.3332395 -0.11130343
1.4384805 0.33342183 -0.1000184
1.4390874 0.33356255 -0.090351902
1.4398007 0.3337279 -0.077457279
1.4306719 0.33161193 -0.064120568
1.4407852 0.33395606 -0.05487809
1.4411967 0.33405143 -0.041969609
1.4414988 0.33412141 -0.029057933
1.4319496 0.33190805 -0.016034963
1.4417688 0.33418405 -0.0048562638
1.4320273 0.33192605 0.0047976589
1.4319496 0.33190805 0.016034825
1.4245555 0.36576378 -0.76971328
1.4317997 0.36762369 -0.75525016
1.4381287 0.36924869 -0.74232149
1.4356475 0.36861163 -0.72494268
1.4417202 0.37017086 -0.71198046
1.4206417 0.36475882 -0.68784314
1.4359174 0.36868092 -0.67758054
1.4327458 0.36786667 -0.66054028
1.4382744 0.36928609 -0.64760673
1.4347818 0.3683894 -0.63070637
1.4407151 0.36991283 -0.6161204
1.4279069 0.36662415 -0.59562457
1.433497 0.36805949 -0.58113587
1.4383543 0.36930665 -0.5681985
1.4431021 0.37052563 -0.55521786
1.4295297 0.36704084 -0.53537494
1.4248666 0.36584356 -0.51914722
1.4383619 0.36930856 -0.50953543
1.4420925 0.37026647 -0.49816838
1.4467561 0.37146387 -0.48354071
1.4230659 0.36538127 -0.4614974
1.4454439 0.37112698 -0.45448533
1.4399402 0.36971387 -0.43861538
1.4440453 0.37076786 -0.42398638
1.4382348 0.36927596 -0.40830863
1.4229088 0.36534092 -0.39020094
1.4445097 0.37088713 -0.38397169
1.4281218 0.3666794 -0.3693428
1.4308149 0.36737087 -0.35806066
1.4145577 0.36319676 -0.34222049
1.4268456 0.36635169 -0.33165932
1.4201272 0.36462668 -0.31668019
1.4227498 0.36530009 -0.30387336
1.4252641 0.36594567 -0.2910434
