# .PCD v0.7 - Point Cloud Data file format
VERSION 0.7
FIELDS x y z
SIZE 4 4 4
TYPE F F F
COUNT 1 1 1
WIDTH 69
HEIGHT 1
VIEWPOINT 0 0 0 1 0 0 0
POINTS 69
DATA ascii
0.65067601 -0.48854133 -1.7058864
0.67558718 -0.48278168 -1.6978233
0.69642019 -0.49766922 -1.7074614
0.70117879 -0.47652057 -1.7003754
0.71647769 -0.4869177 -1.6910266
0.68822908 -0.44438386 -1.7032216
0.70225561 -0.45344067 -1.6950896
0.75493824 -0.48745739 -1.7080263
0.69954795 -0.42868346 -1.6915269
0.72344404 -0.42020971 -1.7058877
0.68645793 -0.37738341 -1.7090224
0.75335026 -0.41415775 -1.7055899
0.78748059 -0.43292105 -1.7080263
0.76440245 -0.33078641 -1.7077088
0.82814515 -0.35837033 -1.7060617
0.84177715 -0.36426944 -1.6981223
0.87953842 -0.38061023 -1.6982485
1.0931969 -0.47306848 -1.7051471
0.71322513 -0.26950526 -1.7075061
0.85286683 -0.27711314 -1.7090133
0.97297788 -0.31613961 -1.706889
1.5035456 -0.48853156 -1.6842763
1.4881998 -0.48354539 -1.6028241
1.4980217 -0.48673674 -1.5785811
0.78131926 -0.23366393 -1.7050048
0.80155128 -0.23971458 -1.7058877
0.94013345 -0.28115943 -1.708215
1.3786515 -0.41230413 -1.7035918
1.5093635 -0.45139533 -1.6894271
1.5053596 -0.45019796 -1.6521544
1.4958252 -0.44734654 -1.6062342
0.81950259 -0.22419046 -1.699457
0.82277179 -0.20437752 -1.7003754
0.82735854 -0.18493648 -1.7003754
0.84623861 -0.18915667 -1.7018226
0.85953665 -0.17097239 -1.6970755
0.90606189 -0.18022682 -1.7059221
1.5215064 -0.30264631 -1.670875
1.4449919 -0.25219136 -1.7061353
0.82733083 -0.12438352 -1.7058876
0.89233172 -0.13415597 -1.7060617
0.89707577 -0.11332692 -1.7050842
0.79352915 -0.081303343 -1.6913311
0.82298875 -0.084321722 -1.7104324
0.89395589 -0.091592863 -1.7080263
0.82792461 -0.045563325 -1.7095218
0.85366547 -0.026827438 -1.7084014
0.8290751 0.013024286 -1.7095218
0.87098962 0.034221396 -1.7107326
0.82754123 0.052064583 -1.7095218
0.85983294 0.054096207 -1.7046585
0.88388962 0.13999455 -1.7099826
1.5723321 0.32561445 -1.6883858
0.98259556 0.22775353 -1.7038293
1.5130541 0.35070729 -1.709904
0.79768991 0.20481206 -1.7122332
1.2840155 0.36212999 -1.7114513
1.4216317 0.40094179 -1.7104996
0.91356277 0.28104877 -1.7111442
0.93253398 0.28688505 -1.7114255
1.5882171 0.48859957 -1.604661
1.5790912 0.48579201 -1.5712661
0.75678307 0.27245885 -1.7103057
0.83114433 0.32154563 -1.7119309
0.9267993 0.35855177 -1.7125664
0.96765625 0.37435815 -1.7098237
0.9451744 0.39150423 -1.7068889
0.80745137 0.35697067 -1.7049909
0.76942658 0.36206484 -1.7102606
