# .PCD v0.7 - Point Cloud Data file format
VERSION 0.7
FIELDS x y z
SIZE 4 4 4
TYPE F F F
COUNT 1 1 1
WIDTH 1320
HEIGHT 1
VIEWPOINT 0 0 0 1 0 0 0
POINTS 1320
DATA ascii
1.4827443 -0.48177278 0.054443091
1.4916661 -0.48467165 0.070179567
1.491027 -0.48446405 0.083863862
1.4901712 -0.48418599 0.099264674
1.4798048 -0.48081771 0.11221482
1.4880304 -0.48349041 0.13000877
1.4772763 -0.47999614 0.14442332
1.4760215 -0.47958845 0.15797275
1.4935601 -0.48528707 0.17370901
1.4918647 -0.4847362 0.18913166
1.4902382 -0.48420769 0.20281324
1.478855 -0.48050916 0.21679202
1.4767576 -0.47982764 0.23206066
1.4839137 -0.48215285 0.24885486
1.4812438 -0.4812853 0.26585972
1.4786876 -0.4804548 0.28115067
1.4946773 -0.48565015 0.30013916
1.4824766 -0.48168591 0.31359494
1.4887848 -0.48373553 0.33093753
1.4766941 -0.47980705 0.34243181
1.4826896 -0.48175511 0.35992157
1.479646 -0.48076612 0.37351248
1.4760904 -0.47961089 0.38875464
1.4815887 -0.48139742 0.40651131
1.4777253 -0.48014206 0.42177194
1.4737124 -0.47883818 0.43701899
1.4786925 -0.48045638 0.45500559
1.474369 -0.47905162 0.47026107
1.4789848 -0.48055133 0.48844072
1.4738295 -0.47887626 0.50537479
1.4780481 -0.48024699 0.52377129
1.473091 -0.47863632 0.53898978
1.467983 -0.47697657 0.5541833
1.4716618 -0.47817197 0.57276779
1.4745148 -0.47909895 0.59318626
1.4695356 -0.47748107 0.60669327
1.4739075 -0.47890159 0.6222133
1.4686875 -0.47720549 0.63571364
1.4633555 -0.47547302 0.64916557
1.4659553 -0.47631773 0.66820389
1.4777389 -0.48014647 0.68974411
1.4488175 -0.47074935 0.70832396
1.4522184 -0.47185442 0.72423404
1.4547095 -0.47266376 0.74189562
1.4570174 -0.47341368 0.75965762
1.4676238 -0.47685996 0.78203869
1.4518172 -0.47172406 0.79252946
1.4657574 -0.47625345 0.84990448
1.493505 -0.44665271 0.059531171
1.5025206 -0.44934899 0.073601179
1.4921899 -0.44625944 0.088440627
1.5009539 -0.44888037 0.10268279
1.5000383 -0.44860661 0.11635021
1.4799128 -0.44258779 0.1283526
1.4881749 -0.44505864 0.14442332
1.4964423 -0.44753116 0.15898541
1.4946917 -0.44700766 0.1760136
1.4931632 -0.44655049 0.1896212
1.5008047 -0.44883579 0.20623127
1.4987946 -0.44823462 0.22158633
1.5063587 -0.45049679 0.23671836
1.5040576 -0.44980857 0.25215623
1.4921715 -0.44625393 0.26585972
1.4993217 -0.44839224 0.28120956
1.4871893 -0.44476399 0.29470786
1.4840209 -0.44381633 0.31162265
1.4903947 -0.44572261 0.32886916
1.4778731 -0.44197783 0.34197447
1.4932541 -0.4465777 0.36160836
1.4897778 -0.44553807 0.37690577
1.4861641 -0.44445738 0.39213976
1.4819775 -0.44320533 0.40903708
1.4780554 -0.44203237 0.42421657
1.4919531 -0.44618866 0.4465324
1.4876852 -0.44491228 0.46178529
1.4837677 -0.4437407 0.47531816
1.4883524 -0.44511178 0.49354067
1.4841694 -0.4438608 0.50707847
1.4787817 -0.44224951 0.52394623
1.474345 -0.44092265 0.53739566
1.4872512 -0.44478241 0.55924261
1.4645491 -0.43799314 0.56582516
1.4776738 -0.44191822 0.58624941
1.4810052 -0.44291452 0.60502094
1.4847813 -0.44404379 0.6222133
1.4706633 -0.43982157 0.63190699
1.465324 -0.43822482 0.64527833
1.4781635 -0.44206467 0.66483945
1.4637835 -0.43776408 0.67424053
1.4660922 -0.43845454 0.69334769
1.4696795 -0.43952742 0.7091952
1.4550333 -0.43514726 0.71827918
1.459132 -0.43637305 0.73253822
1.4537243 -0.43475586 0.74415922
1.4568138 -0.43567973 0.76018202
1.4589344 -0.43631393 0.77797192
1.4571567 -0.43578231 0.8452149
1.5037352 -0.4113754 0.056130119
1.5224016 -0.41648191 0.072362088
1.5216436 -0.41627461 0.087839924
1.5207376 -0.41602677 0.10333683
1.4908321 -0.40784556 0.11654062
1.4895172 -0.40748578 0.13339338
1.4977822 -0.40974689 0.14951925
1.5153009 -0.41453934 0.1685826
1.5138242 -0.41413546 0.1822854
1.5215966 -0.41626167 0.1989218
1.5198643 -0.41578782 0.2126804
1.5175362 -0.41515094 0.22985576
1.5103468 -0.4131842 0.27610049
1.5076619 -0.41244963 0.29144594
1.5015094 -0.41076657 0.32379025
1.5044912 -0.41158226 0.35651952
1.5104274 -0.41320625 0.3741253
1.49998 -0.41034815 0.48844072
1.5044518 -0.41157141 0.50678778
1.4904408 -0.40773854 0.51887888
1.4979002 -0.40977916 0.55756247
1.5021994 -0.41095528 0.5745542
1.4930158 -0.40844294 0.65305281
1.496316 -0.40934584 0.67050302
1.4994354 -0.4101992 0.68806237
1.4752905 -0.40359387 0.69500315
1.4868771 -0.40676358 0.7167564
1.4815487 -0.40530592 0.7285195
1.476146 -0.40382785 0.74021327
1.470645 -0.40232295 0.75189066
1.4823067 -0.40551329 0.77247989
1.4851522 -0.40629172 0.78876448
1.4736578 -0.40314722 0.85340768
1.5128872 -0.37580317 0.059531175
1.5219405 -0.37805194 0.075325541
1.5114614 -0.37544894 0.090125948
1.5009569 -0.37283957 0.10304834
1.5193822 -0.37741643 0.11804438
1.4988432 -0.37231463 0.13172226
1.51684 -0.37678504 0.14875926
1.5153482 -0.37641442 0.16410957
1.5233545 -0.37840325 0.18055959
1.5022988 -0.37317294 0.19349362
1.5100025 -0.37508655 0.21000518
1.5057099 -0.37402028 0.24051259
1.5129191 -0.37581101 0.25737473
1.5008367 -0.3728098 0.27092728
1.4981807 -0.37215009 0.28610966
1.5049098 -0.37382159 0.30315623
1.4832687 -0.36844596 0.31266788
1.5086811 -0.37475833 0.33397171
1.4864932 -0.36924687 0.3448109
1.4925799 -0.37075886 0.36213651
1.4890609 -0.3698847 0.37720409
1.4947932 -0.37130854 0.39474478
1.5003407 -0.37268659 0.41241077
1.4963353 -0.37169167 0.42758128
1.483328 -0.36846057 0.43826327
1.5069919 -0.37433872 0.46178529
1.4886559 -0.36978403 0.4891451
1.5023533 -0.3731865 0.51045686
1.5066085 -0.37424353 0.52884078
1.4923372 -0.37069854 0.54075164
1.4779943 -0.36713567 0.55239832
1.4817457 -0.36806759 0.57083791
1.4756144 -0.36654463 0.58745813
1.4892749 -0.36993781 0.60638779
1.493077 -0.3708823 0.62351197
1.4781008 -0.3671622 0.63475174
1.4726686 -0.36581281 0.6480183
1.4937994 -0.37106171 0.67325795
1.4990685 -0.37237057 0.71002346
1.4929981 -0.37086272 0.72347564
1.4708605 -0.36536372 0.72489893
1.4741623 -0.36618388 0.74084711
1.4686358 -0.36481106 0.75241071
1.4811484 -0.36791927 0.7713201
1.452373 -0.3607713 0.82737935
1.5113716 -0.33783162 0.064231426
1.4912732 -0.33333904 0.076740347
1.5099502 -0.33751386 0.092923932
1.4993652 -0.33514786 0.1057356
1.4886776 -0.3327589 0.1183651
1.497475 -0.33472538 0.13087243
1.4964573 -0.33449787 0.14257175
1.48531 -0.3320061 0.15660839
1.4936185 -0.33386326 0.17099425
1.5019925 -0.33573514 0.18384838
1.5100493 -0.33753604 0.19854474
1.508301 -0.33714521 0.21203987
1.5158501 -0.33883262 0.22867252
1.5042025 -0.33622909 0.24067558
1.5015509 -0.33563641 0.25747415
1.499301 -0.33513352 0.27089104
1.5062296 -0.33668229 0.28777996
1.5033972 -0.33604917 0.30293158
1.5096377 -0.3374441 0.32175386
1.497303 -0.33468696 0.33311883
1.5039276 -0.33616772 0.34870183
1.5100143 -0.33752826 0.36610302
1.4973619 -0.33470002 0.37720409
1.4936724 -0.33387539 0.39226213
1.4902749 -0.33311591 0.40560344
1.4957278 -0.33433482 0.42322394
1.5009782 -0.33550832 0.44101965
1.5060387 -0.33663955 0.45893475
1.4922385 -0.33355483 0.47113162
1.4969547 -0.334609 0.4891451
1.4834604 -0.33159271 0.49939087
1.4970825 -0.33463761 0.52073181
1.4920257 -0.33350733 0.53575343
1.4868162 -0.33234277 0.55075008
1.4997625 -0.33523664 0.57265055
1.4765989 -0.33005896 0.57889265
1.4819615 -0.33125761 0.59241742
1.4684341 -0.32823399 0.60030293
1.4813308 -0.33111671 0.6209836
1.4669859 -0.32791021 0.63033873
1.4712223 -0.32885709 0.64572257
1.466362 -0.3277708 0.65722799
1.4614273 -0.3266677 0.66866881
1.4652766 -0.32752815 0.68424374
1.4601409 -0.32638022 0.69567531
1.4813612 -0.33112344 0.71994865
1.4751735 -0.32974041 0.73316741
1.4784214 -0.33046639 0.74910748
1.4894054 -0.33292162 0.7713201
1.5001222 -0.33531708 0.79378557
1.4846731 -0.33186382 0.80250353
1.4806825 -0.33097178 0.85184312
1.5091119 -0.30018103 0.063817024
1.4987128 -0.29811245 0.076740347
1.5076926 -0.29989874 0.092324421
1.4970603 -0.29778379 0.10504901
1.4961042 -0.29759365 0.1183651
1.4950341 -0.29738081 0.13167217
1.4842385 -0.29523349 0.14238423
1.4925525 -0.2968871 0.15825523
1.5008874 -0.29854506 0.17265031
1.499151 -0.29819971 0.18767868
1.5069959 -0.2997601 0.20397829
1.5051928 -0.29940146 0.21737902
1.4935763 -0.29709083 0.22927439
1.5009785 -0.29856321 0.24581268
1.4985414 -0.29807839 0.26081175
1.4962521 -0.29762313 0.27413508
1.5034866 -0.2990621 0.28929201
1.5102453 -0.30040655 0.3062917
1.4979641 -0.29796359 0.31768101
1.5044181 -0.29924747 0.33477885
1.5014955 -0.29866603 0.34815165
1.4976815 -0.29790738 0.36483029
1.5036098 -0.2990866 0.38223648
1.508921 -0.30014303 0.40146148
1.4959595 -0.29756483 0.41226256
1.501364 -0.29863992 0.42990729
1.4882083 -0.2960231 0.44046155
1.4843817 -0.29526189 0.45368612
1.4893045 -0.29624113 0.47150099
1.4852123 -0.29542711 0.48473412
1.4892457 -0.29622945 0.50437587
1.484322 -0.29524997 0.51924515
1.4798213 -0.29435483 0.53243214
1.4844279 -0.29527113 0.54898846
1.4698789 -0.29237714 0.5603317
1.4741834 -0.29323331 0.57697231
1.4776835 -0.29392961 0.59536254
1.4725316 -0.29290482 0.60848755
1.4672676 -0.29185775 0.62156624
1.4660857 -0.29162261 0.64996088
1.4695023 -0.29230216 0.71464831
1.4633298 -0.29107445 0.727696
1.4681287 -0.29202902 0.7627039
1.4702444 -0.29244983 0.78035504
1.4673474 -0.29187357 0.84858781
1.4959409 -0.26108354 0.066301361
1.5052373 -0.26270598 0.078393839
1.5046031 -0.2625953 0.090072215
1.5036604 -0.26243073 0.10504901
1.4916682 -0.26033783 0.13247663
1.5002782 -0.2618404 0.14664389
1.4987892 -0.26158059 0.1615749
1.4975287 -0.26136065 0.17320082
1.5055594 -0.26276219 0.18933259
1.49389 -0.2607255 0.20301388
1.5018401 -0.26211298 0.21765302
1.4901721 -0.26007664 0.22944903
1.488405 -0.25976831 0.24097972
1.4862766 -0.25939682 0.25415549
1.4937347 -0.26069847 0.26905903
1.501049 -0.26197502 0.28411394
1.4982264 -0.26148239 0.29907256
1.5148964 -0.26439181 0.31636325
1.5021377 -0.26216504 0.32932061
1.4992495 -0.2616609 0.34261465
1.4870317 -0.25952867 0.35196808
1.4935231 -0.26066157 0.36748314
1.5002745 -0.2618399 0.38146546
1.4965097 -0.26118281 0.39641166
1.5021143 -0.26216099 0.41391283
1.4795306 -0.25821945 0.42179582
1.4947693 -0.26087901 0.44046155
1.4998667 -0.26176867 0.45823196
1.4953671 -0.26098338 0.47314388
1.4907149 -0.26017144 0.48803666
1.4859275 -0.25933591 0.50285602
1.4897465 -0.2600024 0.52254564
1.4846165 -0.25910708 0.53738004
1.4799404 -0.25829098 0.55051094
1.4843712 -0.25906429 0.56712246
1.4696347 -0.25649241 0.57826072
1.4737614 -0.25721255 0.59495276
1.469238 -0.25642309 0.60637176
1.4730623 -0.25709054 0.62321085
1.4676487 -0.25614581 0.63623613
1.4669056 -0.25601599 0.66298062
1.4738946 -0.2572358 0.69567531
1.4624782 -0.25524333 0.72007513
1.4650578 -0.25569355 0.73744541
1.4682666 -0.25625366 0.75327754
1.4800667 -0.258313 0.77380681
1.4646401 -0.25562072 0.78223228
1.459368 -0.25470054 0.83388996
1.521577 -0.22875881 0.063817024
1.5308447 -0.23015219 0.077743486
1.520146 -0.22854376 0.092324421
1.5094259 -0.22693205 0.10504901
1.5084618 -0.22678709 0.11836511
1.5073829 -0.22662492 0.13167217
1.5063436 -0.22646864 0.14332098
1.5052187 -0.22629948 0.15493482
1.5232961 -0.22901733 0.17210463
1.5313699 -0.23023124 0.18841343
1.5294652 -0.22994484 0.20362076
1.527885 -0.22970726 0.21541119
1.526212 -0.22945566 0.22721602
1.5239346 -0.22911336 0.24234332
1.5215062 -0.22874822 0.25747415
1.5192263 -0.22840555 0.27089104
1.5071075 -0.2265835 0.28246495
1.5146426 -0.22771634 0.29597795
1.5217233 -0.22878088 0.31131569
1.5096482 -0.22696544 0.32101232
1.5161186 -0.22793831 0.33812448
1.5223954 -0.22888185 0.35542256
1.5192704 -0.22841212 0.36884356
1.5160295 -0.22792485 0.38223648
1.5218203 -0.2287955 0.3997696
1.5137651 -0.22758445 0.42990729
1.5190085 -0.22837272 0.44772631
1.5140886 -0.22763309 0.46445537
1.5095108 -0.22694483 0.479451
1.5047791 -0.22623339 0.49442708
1.499911 -0.22550157 0.5093289
1.5135756 -0.2275559 0.53076077
1.4984531 -0.22528234 0.54404581
1.5029788 -0.22596273 0.56070954
1.4888356 -0.22383639 0.57040846
1.4937105 -0.22456935 0.58548898
1.4984337 -0.22527948 0.60070413
1.4931929 -0.22449158 0.61390436
1.4787104 -0.22231416 0.62321085
1.473967 -0.22160105 0.6345976
1.4872639 -0.22360013 0.65394837
1.4682077 -0.22073524 0.67271233
1.4728029 -0.221426 0.68660188
1.4675815 -0.22064106 0.69794118
1.4835205 -0.22303735 0.73370349
1.4875948 -0.22364996 0.7479586
1.4818971 -0.22279333 0.75943637
1.4928501 -0.22444002 0.78168088
1.4773061 -0.2221031 0.79014951
1.4821985 -0.2228387 0.84370041
1.5069773 -0.19037557 0.056361109
1.5162666 -0.191549 0.071726002
1.505682 -0.19021189 0.084504239
1.5048931 -0.19011223 0.097744845
1.5140033 -0.19126314 0.11005685
1.4930835 -0.18862028 0.12338559
1.5115676 -0.19095547 0.13999738
1.5004268 -0.18954797 0.15228575
1.5187756 -0.19186606 0.16765489
1.5174627 -0.19170018 0.1793258
1.5158525 -0.19149669 0.19266641
1.5143468 -0.19130655 0.20434077
1.5221057 -0.19228669 0.22072665
1.5100746 -0.19076683 0.23426992
1.5079889 -0.19050331 0.24754345
1.5055075 -0.19018985 0.26244032
1.5028763 -0.18985744 0.27733842
1.5101609 -0.19077773 0.29243368
1.526691 -0.19286592 0.31131569
1.523231 -0.19242878 0.32808283
1.5110123 -0.19088526 0.33764568
1.5173184 -0.19168188 0.35482818
1.5137861 -0.19123563 0.3698388
1.5201476 -0.19203928 0.38558021
1.5163221 -0.19155607 0.40059066
1.5123439 -0.19105348 0.41558921
1.4895909 -0.18817922 0.42344701
1.5049177 -0.19011536 0.44212973
1.5100399 -0.19076243 0.45987922
1.5054839 -0.19018689 0.47481269
1.5013158 -0.18966028 0.48803666
1.5064485 -0.19030872 0.50437587
1.5014679 -0.18967953 0.51924515
1.4969152 -0.18910435 0.53243214
1.5009754 -0.18961731 0.55065233
1.4955447 -0.1889312 0.56546527
1.4985867 -0.18931553 0.58548898
1.4934607 -0.18866798 0.59864807
1.4796861 -0.18692784 0.60637176
1.4750547 -0.18634282 0.61772943
1.4746263 -0.1862887 0.64433944
1.4821033 -0.18723331 0.70058084
1.467809 -0.18542741 0.70763946
1.4721043 -0.18597005 0.72168118
1.4843647 -0.18751894 0.74188787
1.4787078 -0.18680434 0.75327754
1.4994118 -0.18941979 0.77838552
1.4671228 -0.18534075 0.77595061
1.4628911 -0.18480621 0.82576978
1.5109183 -0.15480578 0.059674814
1.5102633 -0.15473866 0.074569508
1.5094614 -0.15465647 0.089483514
1.498702 -0.15355402 0.10204563
1.4978842 -0.15347028 0.11353314
1.5068908 -0.15439315 0.12586837
1.5156469 -0.1552902 0.13999738
1.5046417 -0.15416266 0.15062274
1.5133435 -0.15505423 0.16324772
1.5118686 -0.15490319 0.17651689
1.5201497 -0.15575154 0.19101295
1.5083543 -0.15454306 0.20465474
1.5163667 -0.15536399 0.21930261
1.523982 -0.15614428 0.23579115
1.5120586 -0.15492262 0.24754345
1.5101364 -0.15472563 0.25912914
1.5173197 -0.15546156 0.27581242
1.5246409 -0.15621175 0.29097742
1.5123001 -0.1549473 0.30238992
1.519014 -0.15563525 0.31933355
1.5161841 -0.15534528 0.33264652
1.5039074 -0.15408738 0.34208092
1.5105636 -0.15476944 0.35755253
1.5070021 -0.15440455 0.3724294
1.5129254 -0.15501133 0.38977948
1.5186611 -0.15559903 0.40725565
1.514607 -0.1551837 0.42223653
1.5104141 -0.15475413 0.43715018
1.5151097 -0.1552352 0.45655757
1.5110885 -0.15482321 0.46983108
1.5069523 -0.15439937 0.48306879
1.5116051 -0.15487614 0.50106198
1.5066433 -0.15436777 0.51594222
1.5103359 -0.15474609 0.53575987
1.4956782 -0.15324435 0.54723209
1.4995806 -0.15364417 0.56546527
1.5026309 -0.15395668 0.58548898
1.4882473 -0.15248302 0.59495276
1.4834518 -0.15199159 0.63298428
1.4743791 -0.151062 0.65405369
1.4784324 -0.15147732 0.66947162
1.4725642 -0.15087609 0.68241525
1.485348 -0.1521859 0.70219696
1.488934 -0.15255331 0.71791536
1.4964788 -0.15332638 0.7479586
1.4907471 -0.15273909 0.75943637
1.5026195 -0.1539555 0.78002048
1.4659493 -0.15019833 0.82736486
1.5337915 -0.12071199 0.067173749
1.5231931 -0.11987794 0.080073908
1.5224385 -0.11981846 0.093404159
1.5117383 -0.11897642 0.10436241
1.5007046 -0.11810804 0.11847313
1.5094043 -0.11879266 0.13411509
1.5182614 -0.11948974 0.14664389
1.5070133 -0.11860449 0.15888315
1.515291 -0.11925603 0.17484568
1.5135051 -0.11911549 0.18977261
1.5313358 -0.1205187 0.20732996
1.5294738 -0.12037219 0.22072665
1.5176405 -0.11944093 0.23259616
1.5155592 -0.11927707 0.24587199
1.5133626 -0.11910422 0.25912914
1.5107512 -0.1188987 0.27403298
1.5083096 -0.1187066 0.28724691
1.5148696 -0.11922278 0.30570579
1.5219083 -0.11977681 0.32101235
1.518696 -0.11952402 0.33597085
1.5250452 -0.12002369 0.35317308
1.5308025 -0.1204768 0.3721945
1.5270895 -0.12018456 0.38723803
1.5135818 -0.11912151 0.39972496
1.5100467 -0.11884328 0.41295892
1.515528 -0.11927465 0.4305211
1.5112376 -0.11893699 0.44543803
1.5068092 -0.11858842 0.46028554
1.5022275 -0.11822787 0.47511506
1.5069873 -0.1186026 0.49297297
1.5115327 -0.11896017 0.5109964
1.5058858 -0.11851582 0.52750492
1.5006553 -0.11810413 0.54229581
1.5046161 -0.11841587 0.5605424
1.5083735 -0.11871163 0.57889265
1.4940004 -0.11758045 0.58841938
1.498724 -0.11795221 0.60358417
1.4841971 -0.11680887 0.61287361
1.4879941 -0.11710767 0.62972945
1.4916101 -0.11739228 0.64669818
1.4768109 -0.1162276 0.65568292
1.4892117 -0.11720352 0.67683941
1.4749732 -0.11608289 0.68401664
1.4877505 -0.11708854 0.70383829
1.492115 -0.1174321 0.71791536
1.4866128 -0.11699902 0.72931004
1.4810114 -0.11655812 0.74068826
1.4931116 -0.11751048 0.76105756
1.5049736 -0.11844407 0.78168088
1.5265105 -0.084008932 0.060067419
1.525929 -0.083976932 0.073406443
1.5253255 -0.083943672 0.085060202
1.5146668 -0.083357163 0.0961034
1.5136528 -0.083301432 0.110978
1.5124907 -0.083237417 0.12586837
1.5212796 -0.083721109 0.13999738
1.5099018 -0.083094902 0.15392219
1.508503 -0.083017893 0.16711247
1.5170991 -0.083491035 0.17983212
1.544976 -0.085025147 0.19854476
1.5332949 -0.08438243 0.21068065
1.531642 -0.084291354 0.22241347
1.5200332 -0.083652511 0.23259616
1.5179486 -0.083537772 0.24587199
1.525872 -0.08397384 0.25915828
1.5140226 -0.083321705 0.26905906
1.5211234 -0.083712533 0.28578925
1.5185754 -0.083572343 0.29907259
1.5159116 -0.083425723 0.31233317
1.5225396 -0.083790444 0.32932064
1.5289738 -0.084144495 0.34649488
1.5157902 -0.083418988 0.35919544
1.5126026 -0.083243571 0.3724294
1.5189749 -0.083594225 0.38810697
1.5150938 -0.083380722 0.40303636
1.5110736 -0.083159409 0.41790038
1.5164988 -0.083458036 0.43550694
1.5121605 -0.0832192 0.45038322
1.5167041 -0.083469242 0.46983108
1.5120213 -0.083211511 0.48473415
1.5072012 -0.08294633 0.49956408
1.5116751 -0.083192497 0.51760721
1.5065331 -0.082909554 0.53243214
1.5112228 -0.08316765 0.54898846
1.5151162 -0.083381929 0.56733584
1.5101151 -0.083106674 0.58055598
1.5049989 -0.082825162 0.59373188
1.4812528 -0.08151833 0.59937042
1.4865372 -0.081809081 0.61287361
1.49034 -0.082018472 0.62972945
1.4847963 -0.081713296 0.64273065
1.4889934 -0.081944324 0.65809107
1.4930305 -0.082166538 0.6735788
1.478785 -0.081382498 0.68078721
1.4833493 -0.081633672 0.69470179
1.4952548 -0.082288846 0.7162692
1.4889567 -0.081942305 0.72931004
1.5093381 -0.083063945 0.75571036
1.5026959 -0.08269839 0.7688728
1.504791 -0.082813732 0.78660381
1.493834 -0.082210772 0.84858781
1.5379871 -0.048333291 0.062125139
1.5273201 -0.047998015 0.076740362
1.5365703 -0.048288651 0.090660937
1.5058045 -0.047321804 0.10204564
1.5249164 -0.04792244 0.11503689
1.513754 -0.047571547 0.12917282
1.5124149 -0.047529526 0.14402173
1.5210426 -0.047800671 0.15825523
1.5394683 -0.04837979 0.17377141
1.5178462 -0.047700297 0.18646
1.5161622 -0.047647249 0.19970499
1.524495 -0.047909155 0.21264951
1.5327141 -0.048167542 0.22575951
1.5205534 -0.047785357 0.23923635
1.5378463 -0.048328832 0.25747418
1.5256988 -0.047947064 0.26915458
1.523293 -0.047871429 0.28246498
1.5309089 -0.048110742 0.29597798
1.5279284 -0.048017103 0.31101388
1.5251572 -0.047929961 0.32434216
1.5320284 -0.048145972 0.3398101
1.5188868 -0.047732912 0.35256818
1.5347785 -0.048232339 0.3721945
1.5213654 -0.047810815 0.38478717
1.5175129 -0.047689822 0.39972496
1.5231614 -0.047867265 0.4172385
1.51899 -0.047736254 0.43219241
1.523771 -0.047886398 0.45158431
1.5192705 -0.047745019 0.46651602
1.5146155 -0.047598749 0.48142928
1.5098228 -0.047448128 0.4962697
1.5143405 -0.04759017 0.51430303
1.5186584 -0.047725771 0.53244627
1.5033667 -0.047245357 0.5455786
1.5166602 -0.047662947 0.56733584
1.5023228 -0.047212519 0.57697231
1.4978807 -0.047072865 0.58841938
1.4834199 -0.046618439 0.59773886
1.4966267 -0.047033466 0.61830097
1.5003816 -0.047151368 0.63524145
1.4856132 -0.046687406 0.64433944
1.4806466 -0.046531301 0.65568292
1.4938223 -0.046945315 0.67519647
1.4886198 -0.04678176 0.68660188
1.5104768 -0.047468647 0.71070844
1.5148118 -0.047604904 0.72489893
1.4822785 -0.046582505 0.72331226
1.5035708 -0.047251686 0.7479586
1.4986455 -0.047096897 0.75778818
1.5186214 -0.047724593 0.78460884
1.481612 -0.046561591 0.83226055
1.5286386 -0.012006108 0.063402645
1.5279431 -0.012000625 0.078393854
1.5372815 -0.01207394 0.090660937
1.5263424 -0.01198811 0.10504902
1.5253675 -0.011980422 0.11836512
1.5141692 -0.011892506 0.13247664
1.5129557 -0.01188297 0.14568545
1.5215715 -0.011950622 0.15992846
1.5300535 -0.012017261 0.17433286
1.5187528 -0.01192845 0.1847901
1.5272129 -0.01199497 0.19767876
1.5353352 -0.012058748 0.21236904
1.541275 -0.01210542 0.24067561
1.5391161 -0.012088434 0.25411686
1.5466915 -0.01214792 0.26925373
1.534142 -0.012049395 0.28260058
1.5411071 -0.012104053 0.29957002
1.5380948 -0.012080391 0.31467217
1.5349286 -0.012055596 0.32977083
1.5319924 -0.01203253 0.3431533
1.5289397 -0.01200857 0.35650966
1.535085 -0.012056791 0.37385589
1.5317643 -0.012030745 0.38723803
1.5283267 -0.012003745 0.40059069
1.524317 -0.011972275 0.41558924
1.5297887 -0.012015131 0.43324593
1.5254579 -0.011981217 0.44825724
1.5305538 -0.012021272 0.46611193
1.5163631 -0.011909753 0.47812214
1.5306146 -0.012021632 0.49917391
1.5351119 -0.012056978 0.51738387
1.5199363 -0.01193783 0.53080183
1.524065 -0.011970256 0.54907453
1.5092221 -0.011853729 0.5605424
1.5136166 -0.011888182 0.57725501
1.4998541 -0.01178006 0.58514851
1.5039747 -0.011812545 0.6019308
1.4932408 -0.011728147 0.62808788
1.4834753 -0.011651437 0.65081871
1.4875832 -0.011683743 0.6662277
1.4922905 -0.011720759 0.68009681
1.4870601 -0.011679692 0.69145912
1.5088358 -0.01185064 0.71566325
1.5033338 -0.011807427 0.72715068
1.5075158 -0.011840389 0.74138767
1.5018045 -0.011795448 0.75289053
1.5138283 -0.011889863 0.77342236
1.5158863 -0.011906018 0.79123086
1.5286319 0.024013694 0.060067426
1.5280495 0.024004456 0.07340645
1.5274453 0.023995036 0.085060209
1.5267504 0.023984188 0.096735664
1.5158753 0.02381324 0.10933755
1.5249646 0.023956053 0.12169277
1.5236952 0.023936084 0.13667312
1.5224448 0.023916474 0.14996614
1.5210783 0.023894956 0.16324773
1.5295279 0.024027754 0.1776706
1.5380514 0.024161626 0.19056204
1.5365499 0.02413808 0.20231551
1.5443919 0.024261223 0.21878147
1.5421677 0.024226233 0.23394805
1.5301955 0.024038181 0.2458127
1.5474234 0.024308844 0.26417711
1.5352184 0.024117095 0.27590373
1.5422568 0.02422772 0.29284266
1.5298362 0.024032515 0.30434081
1.5365648 0.024138251 0.32138059
1.5239334 0.023939947 0.33264652
1.5400865 0.024193563 0.35206306
1.5369558 0.024144448 0.36549091
1.5235929 0.023934519 0.37814203
1.5299186 0.02403388 0.39391813
1.5259745 0.023971889 0.408934
1.5315228 0.024059091 0.42656666
1.5277424 0.023999663 0.43991694
1.5228534 0.023922833 0.45655757
1.5092595 0.023709329 0.46687615
1.5146545 0.023794025 0.48306879
1.5193312 0.023867516 0.50106198
1.5143439 0.023789255 0.51594222
1.5103559 0.023726549 0.52750492
1.5145168 0.023791935 0.54568517
1.4997094 0.023559298 0.55706078
1.5221896 0.023912514 0.58246607
1.5077422 0.023685478 0.59207416
1.5038354 0.023624144 0.6019308
1.4991906 0.023551188 0.61341065
1.4937812 0.02346619 0.62647164
1.4981513 0.023534795 0.64178526
1.4924946 0.023445982 0.65483612
1.4867239 0.023355324 0.66783708
1.489925 0.023405509 0.68496382
1.4929397 0.023452954 0.70219696
1.4965444 0.023509517 0.71791536
1.4992003 0.023551241 0.73535258
1.5122526 0.023756279 0.75407416
1.5064578 0.023665262 0.76558763
1.5085944 0.023698878 0.78331399
1.5073843 0.0236798 0.84860563
1.5474745 0.060800429 0.064231448
1.5369599 0.06038731 0.075550705
1.546314 0.060754832 0.087873735
1.5355179 0.060330562 0.10072073
1.5247401 0.059907191 0.11170813
1.5335276 0.06025254 0.12752455
1.532204 0.060200445 0.14257178
1.5307302 0.060142566 0.15763201
1.519367 0.059696127 0.16988394
1.5473862 0.060796905 0.18841344
1.5454615 0.060721267 0.20362078
1.5438647 0.060658678 0.2154112
1.5515578 0.060960874 0.23206069
1.5396059 0.060491249 0.24403767
1.5469935 0.060781464 0.26080009
1.5348219 0.060303312 0.27255335
1.5418925 0.060581129 0.28947684
1.5295053 0.060094457 0.30100209
1.5359163 0.060346227 0.31971747
1.5330698 0.060234465 0.33311886
1.5297313 0.060103215 0.34815168
1.5355644 0.060332455 0.36715406
1.5420024 0.060585357 0.38295913
1.5386044 0.060451839 0.39641127
1.5249861 0.059916828 0.408934
1.5213623 0.059774492 0.42223653
1.5176225 0.059627447 0.43550694
1.5324366 0.060209543 0.45608425
1.5284013 0.060051054 0.46945009
1.5237181 0.059866995 0.48445714
1.5188967 0.059677571 0.4993909
1.5233821 0.059853759 0.51751745
1.5093778 0.059303489 0.52750492
1.5141251 0.059490111 0.54404581
1.5093235 0.059301462 0.55724835
1.5044069 0.059108224 0.57040852
1.5086887 0.059276484 0.5871495
1.5127923 0.059437774 0.6040085
1.4982196 0.058865152 0.61341071
1.5020287 0.05901482 0.63033879
1.4915278 0.058602173 0.65483618
1.5039911 0.059092004 0.67603147
1.4987833 0.058887262 0.68751776
1.5025516 0.059035257 0.70317382
1.5061553 0.059176937 0.71895343
1.5014212 0.05899097 0.7288034
1.5047802 0.059122875 0.74467498
1.5079708 0.059248339 0.76066625
1.5118573 0.059400987 0.77508646
1.4873347 0.058437478 0.77898681
1.5179058 0.059638686 0.84853107
1.5358417 0.096626937 0.058767978
1.5451598 0.097213201 0.074366011
1.544549 0.097174756 0.086172104
1.5436293 0.09711694 0.10137476
1.5226586 0.095797472 0.1150369
1.5215987 0.095730893 0.12834632
1.540452 0.096916966 0.14182742
1.529228 0.09621089 0.15428953
1.5375638 0.096735351 0.17041077
1.536021 0.096638247 0.18384841
1.5539393 0.09776555 0.20152964
1.5224665 0.095785484 0.21099892
1.5302 0.096272036 0.22741877
1.5377533 0.096747264 0.24403767
1.545132 0.097211465 0.26080009
1.5231483 0.095828339 0.27080619
1.5400374 0.096890911 0.28947684
1.5270058 0.096071102 0.30434081
1.5340682 0.096515395 0.31971747
1.5409784 0.096950091 0.33524063
1.5376225 0.096739031 0.35036922
1.5345123 0.096543349 0.36380053
1.5401471 0.096897818 0.38295913
1.5266547 0.096048929 0.39560032
1.5323461 0.096407034 0.41318387
1.5378315 0.096752077 0.430944
1.5239544 0.095879048 0.44324932
1.5290909 0.096202165 0.46111393
1.5239799 0.095880657 0.47779894
1.5287247 0.096179157 0.49583334
1.5237882 0.095868498 0.51086044
1.5187141 0.095549315 0.52581161
1.5228848 0.095811747 0.5440973
1.5087172 0.094920479 0.55395168
1.5038352 0.094613276 0.56712252
1.5168223 0.095430396 0.58910316
1.5030059 0.094561063 0.5970189
1.4984176 0.094272457 0.60848761
1.4930611 0.093935393 0.6215663
1.4981602 0.094256245 0.63524151
1.502431 0.094524942 0.6506657
1.4974344 0.094210528 0.66212851
1.4930775 0.093936458 0.67193431
1.4999712 0.094370142 0.70482683
1.5117726 0.095112577 0.726565
1.5061982 0.094761923 0.73809701
1.5086393 0.094915465 0.75571042
1.5286629 0.096175268 0.78252149
1.5129418 0.095186241 0.79123092
1.5531754 0.13451958 0.056130148
1.552551 0.13446552 0.071446143
1.5418308 0.13353699 0.086172104
1.5510722 0.13433743 0.098632447
1.5402187 0.13339734 0.11149552
1.5293956 0.13245998 0.12248815
1.5479684 0.13406859 0.13935298
1.5367832 0.13309978 0.15192647
1.5451293 0.13382272 0.16812702
1.5436088 0.13369106 0.18165472
1.5518551 0.13440518 0.19641967
1.5498574 0.13423209 0.21171588
1.547714 0.13404654 0.22696452
1.5552609 0.1347001 0.2437612
1.5334232 0.13280885 0.25411686
1.5412645 0.13348804 0.26755285
1.5483707 0.1341034 0.28454205
1.5458379 0.133884 0.29809371
1.5330858 0.13277958 0.31131572
1.5299642 0.13250922 0.32642126
1.5461491 0.133911 0.34581846
1.5426892 0.13361131 0.36105117
1.5390867 0.13329932 0.37622204
1.5445602 0.13377336 0.39552304
1.531431 0.13263628 0.40648061
1.5374479 0.1331574 0.42252001
1.5241301 0.13200393 0.43324593
1.5303507 0.1325427 0.44772634
1.5354388 0.13298336 0.46566391
1.5308061 0.1325821 0.48078519
1.517086 0.13139394 0.49110612
1.5216653 0.13179049 0.50918132
1.5266042 0.13221821 0.5257358
1.5213838 0.13176611 0.54076707
1.5172304 0.1314064 0.55239838
1.5117496 0.13093171 0.5673359
1.5160606 0.13130507 0.5841397
1.5023043 0.13011363 0.59207422
1.5069966 0.13051994 0.60731006
1.5023382 0.13011648 0.61882931
1.4982708 0.12976421 0.62868559
1.5110639 0.13087232 0.64965999
1.4962349 0.12958796 0.65885353
1.4995379 0.12987395 0.67603147
1.4936035 0.12936004 0.6891405
1.5153716 0.13124533 0.71331871
1.518095 0.1314813 0.7308898
1.5206277 0.13170059 0.74856257
1.5335462 0.13281943 0.76746017
1.5187881 0.13154127 0.77464789
1.4943113 0.12942137 0.77870631
1.4987352 0.12980445 0.8338725
1.5595682 0.17217797 0.054792125
1.5589588 0.17211062 0.070179597
1.5483654 0.17094111 0.08332973
1.5573964 0.17193818 0.099264711
1.5465622 0.17074209 0.11221486
1.5455301 0.17062812 0.1257887
1.5244315 0.16829877 0.13922611
1.5332209 0.16926919 0.15192647
1.5514293 0.17127936 0.16920476
1.5499027 0.17111079 0.18281917
1.5480423 0.17090546 0.19813229
1.546036 0.17068391 0.21339913
1.5537109 0.17153125 0.23012906
1.5418351 0.17022012 0.24221841
1.5391171 0.16992007 0.25912467
1.5560902 0.17179392 0.27779475
1.5438502 0.17044263 0.28961298
1.5409472 0.17012219 0.3048611
1.5479798 0.17089854 0.32039338
1.544414 0.17050485 0.33736241
1.5410507 0.17013364 0.35258675
1.5375326 0.16974512 0.36780417
1.5435197 0.17040613 0.38536766
1.5396814 0.16998246 0.40060791
1.5448418 0.1705521 0.42009038
1.5406717 0.17009172 0.43531495
1.5268033 0.16856059 0.44772634
1.5318795 0.169121 0.46566391
1.5272577 0.16861084 0.48078519
1.5224968 0.16808519 0.49583334
1.5275675 0.16864499 0.51234394
1.5130918 0.16704682 0.52416468
1.5272266 0.16860732 0.54410511
1.5131087 0.16704872 0.55407256
1.5169405 0.16747174 0.57248974
1.5106432 0.16677651 0.58910316
1.5061228 0.1662775 0.60070419
1.5107369 0.16678692 0.61599982
1.5066972 0.16634084 0.62593436
1.5110551 0.16682203 0.64139122
1.5054343 0.16620143 0.65463316
1.5269661 0.16857852 0.67996758
1.5029027 0.16592194 0.68509358
1.5149381 0.16725065 0.70667511
1.5177314 0.1675591 0.7242341
1.520335 0.16784646 0.74189568
1.5235763 0.16820432 0.75797272
1.5177724 0.16756357 0.76966828
1.5287116 0.16877122 0.79212183
1.4945412 0.1649989 0.79317218
1.5548931 0.20884824 0.059912819
1.5542346 0.20875978 0.075325578
1.5534276 0.20865142 0.090703711
1.5426949 0.20720983 0.10371321
1.5318562 0.20575404 0.11654066
1.5405225 0.20691799 0.13257211
1.5391595 0.20673494 0.14781179
1.5376458 0.20653163 0.16306432
1.5460243 0.20765702 0.17772895
1.5540578 0.20873605 0.19425035
1.5422678 0.20715247 0.20832145
1.5499785 0.2081881 0.2249988
1.5577707 0.20923476 0.24014799
1.5455747 0.20759659 0.25397316
1.5430315 0.20725499 0.26925701
1.5500836 0.20820223 0.28634295
1.5472255 0.20781831 0.30166987
1.5438721 0.20736794 0.31868073
1.5313648 0.20568798 0.33017254
1.5381247 0.206596 0.34581846
1.5346828 0.20613365 0.36105117
1.5411336 0.20700011 0.3769058
1.5282037 0.20526335 0.3880206
1.5243583 0.20474687 0.40312609
1.5299208 0.20549408 0.42084986
1.5257559 0.20493457 0.43597075
1.5309455 0.2056317 0.45389569
1.5174773 0.20382264 0.4644554
1.5223448 0.20447651 0.48244759
1.5181141 0.20390823 0.49583334
1.513768 0.20332441 0.50918132
1.518681 0.20398435 0.5257358
1.5140762 0.20336583 0.53908759
1.509356 0.20273182 0.55239838
1.5039036 0.20199946 0.5673359
1.5081923 0.20257547 0.5841397
1.5123041 0.20312777 0.60106194
1.5070479 0.2024218 0.61435473
1.5003978 0.20152862 0.6562717
1.5141509 0.20337583 0.72255474
1.5167661 0.20372708 0.74021333
1.5208257 0.20427234 0.75462681
1.5062039 0.20230837 0.76185358
1.5260202 0.20497008 0.78876454
1.5595372 0.24700648 0.056849774
1.5687766 0.24846977 0.07282012
1.5679955 0.24834609 0.088395908
1.5572064 0.24663728 0.10333687
1.5364325 0.24334699 0.11729254
1.535363 0.24317758 0.13086294
1.5438523 0.24452214 0.14706796
1.5423532 0.24428473 0.16239266
1.5408947 0.24405371 0.17601365
1.5489154 0.24532406 0.19255349
1.5569892 0.24660282 0.20753658
1.5451245 0.24472372 0.22158638
1.5426452 0.24433099 0.23863766
1.5402548 0.24395244 0.25397316
1.5474527 0.24509244 0.27096117
1.5544636 0.24620281 0.28814384
1.5519209 0.24580012 0.30186707
1.5586026 0.24685834 0.31924734
1.5557916 0.24641316 0.33300593
1.5428419 0.24436216 0.34630328
1.5490341 0.24534288 0.36386845
1.5454279 0.24477169 0.37926146
1.5416794 0.24417797 0.39459065
1.5382197 0.24363008 0.40819684
1.5441747 0.24457321 0.42439166
1.5309491 0.24247852 0.43531495
1.5271387 0.24187502 0.44882479
1.5326731 0.24275157 0.46517187
1.529116 0.24218819 0.4770208
1.5537276 0.24608627 0.49786702
1.530597 0.24242273 0.50537485
1.5267365 0.24181125 0.51720655
1.5321382 0.24266681 0.53222638
1.5175886 0.24036244 0.54410511
1.5227306 0.24117675 0.55921811
1.5357327 0.24323615 0.58134419
1.5306635 0.24243322 0.59489071
1.5254779 0.24161191 0.608392
1.530678 0.24243559 0.62221336
1.5076715 0.23879166 0.62642235
1.5204237 0.24081136 0.64747339
1.5057144 0.23848166 0.65692478
1.5180674 0.24043818 0.67827797
1.5121634 0.2395031 0.69166476
1.5158665 0.24008961 0.70753491
1.5104924 0.23923846 0.71921998
1.532541 0.24273063 0.74215847
1.5446475 0.24464811 0.76276577
1.5388565 0.24373092 0.77467144
1.498229 0.23729612 0.81080234
1.4998531 0.23755331 0.82879955
1.5628552 0.28542805 0.064142205
1.5523348 0.28350669 0.079248235
1.5514956 0.28335333 0.094722494
1.5601993 0.28494292 0.11262901
1.5591731 0.28475559 0.12646505
1.5480775 0.28272915 0.14113958
1.5464709 0.28243572 0.15829706
1.5448691 0.28214324 0.17370905
1.552882 0.28360659 0.19032873
1.5607252 0.28503895 0.20709747
1.558888 0.28470349 0.22093458
1.5566771 0.28429973 0.23649499
1.5545876 0.28391805 0.25029504
1.5520978 0.28346339 0.26578355
1.559443 0.28480485 0.28128904
1.5469801 0.28252873 0.29500827
1.5537095 0.28375772 0.31235886
1.540984 0.28143367 0.3258267
1.5381284 0.28091207 0.33948418
1.5539634 0.28380409 0.35923934
1.5412474 0.28148171 0.37070814
1.5380063 0.28088978 0.38436624
1.5346482 0.28027651 0.39799505
1.5402346 0.2812967 0.41587192
1.5460911 0.28236631 0.43217066
1.5508177 0.28322962 0.45204517
1.5280137 0.2790648 0.46010476
1.5339279 0.28014496 0.47485155
1.5303121 0.27948466 0.48675767
1.5255418 0.2786133 0.50199276
1.5305066 0.27952006 0.51866919
1.5161178 0.27689233 0.53067601
1.5213687 0.27785125 0.54574299
1.5252643 0.27856269 0.5643332
1.5203615 0.27766725 0.57784212
1.533711 0.28010526 0.59847444
1.5461602 0.282379 0.62108815
1.5323234 0.27985194 0.62933904
1.5184644 0.27732083 0.63738441
1.5226904 0.27809259 0.65305287
1.5184531 0.27731875 0.66316962
1.5036982 0.27462408 0.67258692
1.5247749 0.27847323 0.69822198
1.52843 0.27914086 0.71420014
1.5311427 0.27963626 0.73198718
1.5344632 0.28024268 0.74818897
1.5368141 0.28067201 0.76617581
1.5398198 0.28122097 0.78254038
1.515523 0.27678353 0.78707105
1.5173705 0.27712095 0.82661384
1.5274762 0.27896661 0.84964323
1.5558301 0.32219696 0.060676046
1.5649521 0.32408601 0.076764934
1.5641396 0.32391769 0.092436917
1.5631747 0.32371795 0.10812786
1.5522981 0.32146549 0.1230069
1.5508919 0.3211742 0.14029147
1.5494671 0.32087922 0.15584718
1.53834 0.31857491 0.16858265
1.5562944 0.32229304 0.18459286
1.5738772 0.32593429 0.20267509
1.572314 0.32561058 0.21495591
1.5604814 0.32316017 0.22927094
1.5681428 0.3247467 0.24467911
1.5560478 0.32224199 0.25879544
1.5537771 0.32177171 0.27265263
1.5607176 0.32320902 0.28999332
1.557852 0.32261565 0.3056404
1.5548415 0.32199219 0.32123023
1.5424569 0.3194274 0.33300593
1.5582985 0.3227081 0.35279649
1.5647657 0.32404736 0.36891964
1.5615535 0.32338211 0.38285032
1.5582225 0.3226923 0.39675182
1.5538919 0.32179549 0.4140861
1.5592902 0.32291344 0.43225077
1.5550559 0.32203659 0.44787666
1.5417683 0.31928483 0.4589195
1.5382961 0.31856582 0.47091475
1.5529233 0.32159492 0.49051547
1.5585389 0.32275787 0.50565219
1.5454073 0.32003847 0.51467621
1.5409503 0.31911543 0.52842885
1.5462084 0.32020429 0.54369879
1.5421028 0.31935409 0.55572611
1.5550847 0.3220425 0.57801396
1.531742 0.3172085 0.58484626
1.525404 0.31589594 0.60187435
1.5397356 0.3188639 0.61938703
1.5350648 0.31789657 0.63136178
1.5393488 0.31878379 0.64713371
1.5171076 0.31417784 0.64967436
1.5302138 0.316892 0.66934663
1.5251586 0.31584516 0.68127298
1.5200261 0.31478223 0.69313234
1.5333813 0.31754801 0.71155095
1.5368938 0.31827545 0.72770715
1.5402665 0.31897378 0.74393207
1.5442901 0.31980705 0.75854552
1.5473585 0.32044244 0.77498245
1.5258927 0.31599712 0.83946246
1.557194 0.36093813 0.069790944
1.556452 0.36076623 0.0854664
1.5555589 0.36055923 0.1011615
1.5448017 0.35806578 0.11608887
1.5436158 0.35779095 0.13166498
1.5519834 0.35973036 0.14812653
1.5409734 0.35717845 0.16101074
1.5587208 0.36129206 0.17876677
1.5569376 0.36087871 0.19445236
1.5552253 0.36048186 0.20839183
1.5628023 0.36223811 0.22546035
1.5511914 0.3595469 0.23797308
1.5394875 0.35683402 0.25029507
1.5562346 0.36071584 0.26910588
1.5442958 0.35794845 0.28128907
1.5511034 0.35952643 0.29869589
1.5389464 0.35670856 0.31064963
1.5457888 0.35829464 0.32643858
1.5425951 0.35755429 0.34198684
1.539247 0.35677823 0.35752979
1.5456314 0.35825816 0.37359658
1.5325272 0.35522071 0.38675362
1.5480598 0.358821 0.40541115
1.5351363 0.35582539 0.41670659
1.5315354 0.35499087 0.4304423
1.5282853 0.35423747 0.44244787
1.5436645 0.35780224 0.45997575
1.5303638 0.35471919 0.47091478
1.5361221 0.35605398 0.48585457
1.5417551 0.35735962 0.50088441
1.5281765 0.35421231 0.51157576
1.5243223 0.3533189 0.5235526
1.5376613 0.35641071 0.54540712
1.5329661 0.35532251 0.55916053
1.5458336 0.35830495 0.58147728
1.5499489 0.3592588 0.59882504
1.526625 0.3538526 0.60547841
1.5408597 0.35715201 0.623052
1.5361855 0.3560687 0.63509762
1.5217237 0.35271659 0.64501774
1.5168757 0.35159293 0.65694004
1.5119505 0.35045126 0.6687969
1.5247593 0.35342023 0.6886968
1.5292263 0.35445562 0.70301336
1.5239584 0.35323456 0.71496552
1.5274186 0.35403657 0.73112953
1.5475233 0.35869658 0.75769949
1.5418484 0.35738117 0.76979333
1.5439687 0.35787261 0.78802788
1.5301746 0.35467535 0.83735955
1.5324552 0.35520399 0.85411412
1.5485382 0.39759701 0.062815629
1.557456 0.39988673 0.080752954
1.5566139 0.39967054 0.096521027
1.5460758 0.39696479 0.10985521
1.5452173 0.39674437 0.12205429
1.5439835 0.39642763 0.13769643
1.5524031 0.39858937 0.15254936
1.560509 0.40067065 0.16933604
1.5590183 0.40028787 0.18338913
1.5665989 0.40223426 0.20217608
1.5552304 0.3993153 0.21495591
1.5629427 0.40129548 0.23037304
1.5511043 0.39825585 0.24467911
1.5681002 0.40261963 0.26183775
1.5562797 0.39958462 0.27427307
1.5539021 0.39897421 0.28828406
1.5510833 0.39825049 0.30403411
1.5484545 0.39757553 0.31799716
1.5453589 0.39678064 0.33366266
1.5424799 0.39604148 0.34757301
1.5390973 0.39517298 0.36320433
1.545392 0.39678922 0.37937036
1.5425445 0.39605805 0.39152837
1.5485616 0.39760301 0.40788317
1.5454962 0.39681599 0.42009315
1.5516955 0.39840767 0.43487051
1.5479608 0.39744875 0.44883409
1.5352874 0.39419475 0.45826077
1.5411414 0.3956978 0.47318745
1.5370831 0.39465591 0.4870545
1.5241945 0.3913466 0.4961645
1.5378244 0.39484611 0.51777667
1.5425713 0.39606497 0.53479546
1.547147 0.39723983 0.55193895
1.5515497 0.39837018 0.56920534
1.5563915 0.39961335 0.58485436
1.5423163 0.39599952 0.59535247
1.5372255 0.39469239 0.60922545
1.5500412 0.39798298 0.63038206
1.5356735 0.39429387 0.6405772
1.5315797 0.39324281 0.65094042
1.5356547 0.39428911 0.66685885
1.5306722 0.39300975 0.67895937
1.5352093 0.39417478 0.69329542
1.5388871 0.39511904 0.70944136
1.5416415 0.39582616 0.72743589
1.5529821 0.39873791 0.74976969
1.52911 0.39260864 0.75510311
1.5400712 0.395423 0.7776379
1.5074493 0.38704711 0.77806872
1.536695 0.39455616 0.85023135
1.5578382 0.43935579 0.067132249
1.5573001 0.43920404 0.079475448
1.5470607 0.43631619 0.091275319
1.5557278 0.43876064 0.1077022
1.5451667 0.43578213 0.12105193
1.5440912 0.43547881 0.13505727
1.5427394 0.43509752 0.15081492
1.5508144 0.43737489 0.16756441
1.5587175 0.43960381 0.18452117
1.5571084 0.43914992 0.19864696
1.5460614 0.43603444 0.20968619
1.5444734 0.43558651 0.22195992
1.5520723 0.43772966 0.23741165
1.5405099 0.43446866 0.24993238
1.538352 0.43386015 0.26389059
1.5550411 0.43856695 0.2812587
1.5523109 0.43779698 0.29709294
1.5497566 0.43707654 0.31115636
1.5558269 0.43878856 0.33070648
1.5435781 0.43533406 0.34271079
1.5410116 0.43461016 0.35496092
1.5383611 0.43386266 0.36716238
1.5348145 0.43286249 0.38285035
1.5502179 0.43720666 0.40159029
1.5556675 0.43874356 0.41988385
1.5423303 0.43498209 0.43313667
1.5386338 0.43393967 0.44710442
1.5348201 0.43286398 0.46103811
1.5498415 0.4371005 0.47888851
1.5365593 0.43335453 0.48998857
1.5512676 0.43750271 0.50819272
1.547492 0.43643788 0.52047104
1.5516224 0.43760273 0.53941786
1.5373586 0.43358001 0.55193895
1.5417335 0.43481377 0.56920534
1.5465447 0.43617067 0.58485436
1.5512252 0.43749073 0.60058481
1.5364852 0.43333367 0.61280912
1.5498595 0.43710557 0.63227683
1.5362307 0.43326184 0.64084256
1.5403857 0.43443373 0.65679431
1.5273356 0.43075326 0.66339827
1.5401125 0.43435666 0.68336481
1.5431323 0.43520829 0.7013104
1.5283995 0.43105319 0.7111879
1.5414027 0.43472046 0.72986007
1.5439367 0.43543512 0.74803424
1.5462823 0.43609661 0.76630968
1.5492673 0.43693852 0.78291482
1.5211375 0.42900515 0.84035403
1.5662245 0.48183358 0.066159278
1.5656953 0.4816708 0.078684062
1.5649796 0.48145056 0.092976108
1.554718 0.47829366 0.10481853
1.56344 0.48097694 0.11796948
1.5622587 0.48061353 0.13400824
1.5515627 0.47732294 0.14736272
1.5504405 0.47697777 0.15976788
1.5583706 0.47941738 0.17674895
1.5663298 0.481866 0.19213484
1.5551848 0.47843736 0.20517726
1.5815947 0.48656207 0.22520098
1.5604923 0.48007011 0.23852962
1.5584434 0.47943982 0.25276807
1.5468438 0.47587129 0.26536918
1.5542796 0.47815874 0.27942663
1.5518897 0.47742358 0.29360679
1.5590963 0.47964063 0.30783641
1.5561299 0.47872803 0.32384989
1.5533695 0.47787878 0.33804524
1.5407877 0.47400811 0.35183772
1.5568163 0.47893921 0.36856467
1.5439849 0.47499171 0.38222083
1.5407382 0.47399291 0.39630312
1.5558968 0.47865632 0.41529924
1.5708543 0.48325786 0.43460196
1.5491902 0.47659311 0.44189239
1.5633655 0.48095396 0.46321896
1.550269 0.47692499 0.47466639
1.5548826 0.47834429 0.4934839
1.5507073 0.47705981 0.5076614
1.5651612 0.48150638 0.52613884
1.5431168 0.47472474 0.53237844
1.5470989 0.47594973 0.5514133
1.551461 0.47729161 0.56882465
1.5550325 0.47839043 0.58814675
1.5596633 0.47981504 0.60400975
1.5539154 0.47804675 0.62001473
1.5569246 0.47897258 0.63958639
1.552206 0.47752091 0.65202004
1.5385654 0.47332451 0.66059083
1.5432184 0.47475591 0.6749692
1.528744 0.47030303 0.68509597
1.5492297 0.47660527 0.71107978
1.5432398 0.47476244 0.72519737
1.5371323 0.47288358 0.73925978
1.5482063 0.4762904 0.76177734
1.5512129 0.47721535 0.77846253
1.5446608 0.47519964 0.79259568
1.5456957 0.47551805 0.81290042
1.5149733 0.46606654 0.8317076
