# .PCD v0.7 - Point Cloud Data file format
VERSION 0.7
FIELDS x y z
SIZE 4 4 4
TYPE F F F
COUNT 1 1 1
WIDTH 1423
HEIGHT 1
VIEWPOINT 0 0 0 1 0 0 0
POINTS 1423
DATA ascii
1.4906142 -0.48432985 -0.26756999
1.4927781 -0.48503295 -0.25388247
1.4854269 -0.4826445 -0.2386651
1.4873512 -0.48326969 -0.22502629
1.47952 -0.48072517 -0.21171609
1.4906553 -0.48434329 -0.19939449
1.4920583 -0.48479915 -0.18743436
1.4841042 -0.48221463 -0.17263706
1.4949422 -0.48573613 -0.16002572
1.4962134 -0.48614913 -0.1463026
1.4784166 -0.48036662 -0.13089027
1.4698421 -0.47758064 -0.11824028
1.4705467 -0.47780961 -0.10812266
1.4807804 -0.48113468 -0.096947894
1.4718562 -0.47823513 -0.086199328
1.491665 -0.48467135 -0.070207179
1.4732397 -0.4786846 -0.054094341
1.4831398 -0.48190123 -0.040836163
1.4834222 -0.48199308 -0.027225874
1.4740814 -0.4789581 -0.013526251
1.4741367 -0.47897604 -0.0017044344
1.4740814 -0.4789581 0.013526008
1.4834497 -0.48200208 0.025510568
1.4926471 -0.48499048 0.041097686
1.4779332 -0.44199574 -0.73787075
1.4927247 -0.44641918 -0.72861713
1.4900458 -0.44561812 -0.71083611
1.4856945 -0.44431683 -0.64629292
1.4999166 -0.4485701 -0.63650227
1.4784617 -0.44215384 -0.61176026
1.4835203 -0.44366661 -0.59827054
1.479499 -0.44246396 -0.5812127
1.5028884 -0.44945893 -0.57289892
1.4985933 -0.44817445 -0.55583972
1.5031834 -0.44954708 -0.54216874
1.4804122 -0.44273707 -0.51890606
1.5029113 -0.44946578 -0.5116033
1.5020778 -0.44921646 -0.4812139
1.5002201 -0.44866094 -0.45270628
1.5044022 -0.44991156 -0.43732551
1.4983124 -0.4480904 -0.42269984
1.4958609 -0.44735727 -0.39290157
1.4901676 -0.4456546 -0.37522316
1.493248 -0.44657585 -0.3616358
1.4962146 -0.44746307 -0.34802088
1.4900473 -0.4456186 -0.3305797
1.4927545 -0.44642827 -0.31699514
1.495348 -0.44720379 -0.30338642
1.498127 -0.44803503 -0.28806269
1.4907578 -0.44583115 -0.27436423
1.5027155 -0.44940719 -0.26072872
1.4953737 -0.44721159 -0.24547775
1.4994794 -0.44843948 -0.21647961
1.5012321 -0.44896358 -0.20281348
1.493359 -0.44660902 -0.18793486
1.5043949 -0.44990945 -0.1754359
1.5059712 -0.45038086 -0.16002572
1.4880219 -0.44501293 -0.14613141
1.5082791 -0.45107108 -0.13427196
1.4902387 -0.44567591 -0.11900312
1.500623 -0.44878143 -0.10782296
1.5014673 -0.44903398 -0.094150536
1.5021131 -0.44922704 -0.082167573
1.5028129 -0.44943637 -0.066785231
1.5033691 -0.44960272 -0.051369078
1.4944432 -0.44693333 -0.022135038
1.4945617 -0.44696873 -0.010210223
1.5041709 -0.44984251 0.003425085
1.4945219 -0.44695669 0.015301285
1.503916 -0.44976616 0.029098785
1.4939458 -0.44678456 0.045925424
1.4671347 -0.40136263 -0.71331888
1.473083 -0.40298989 -0.70001829
1.461313 -0.39976993 -0.6784898
1.4853445 -0.40634426 -0.67159218
1.464317 -0.40059182 -0.64637613
1.4786092 -0.40450165 -0.63694054
1.4756315 -0.40368703 -0.618101
1.4987267 -0.41000518 -0.61205715
1.4948165 -0.40893552 -0.59489089
1.4732578 -0.4030377 -0.56918567
1.5008066 -0.41057417 -0.54909807
1.5059383 -0.4119781 -0.53378266
1.4920664 -0.40818307 -0.51383317
1.4871547 -0.40683952 -0.49724516
1.4952987 -0.40906748 -0.47026131
1.4992001 -0.4101347 -0.45671514
1.4826761 -0.40561423 -0.40650764
1.4771086 -0.40409109 -0.38892233
1.4896951 -0.40753439 -0.37792069
1.4646531 -0.40068373 -0.35755274
1.5056055 -0.41188708 -0.35142714
1.4707936 -0.40236351 -0.32934746
1.511292 -0.41344264 -0.32413164
1.4953625 -0.40908489 -0.30486131
1.5002668 -0.41042653 -0.27775824
1.4835281 -0.40584734 -0.26083049
1.4954495 -0.40910867 -0.24730714
1.4783981 -0.40444392 -0.23079017
1.5089351 -0.41279793 -0.22161388
1.4918365 -0.40812027 -0.20362099
1.4950371 -0.40899587 -0.17659713
1.5062296 -0.41205782 -0.16242011
1.4787331 -0.40453565 -0.14594372
1.5087345 -0.41274297 -0.13514212
1.5125303 -0.41378152 -0.077050053
1.5131876 -0.41396135 -0.061638031
1.5136487 -0.41408747 -0.047945585
1.5140297 -0.41419166 -0.032550968
1.504637 -0.41162211 -0.015328749
1.4950631 -0.40900296 -0.0017044314
1.4950205 -0.40899134 0.011821755
1.5141244 -0.41421753 0.027400158
1.4945517 -0.40886307 0.040574152
1.4757274 -0.36657256 -0.73753172
1.4819176 -0.36811018 -0.72423428
1.478435 -0.36724511 -0.70835078
1.4748158 -0.36634615 -0.69253784
1.4703259 -0.36523083 -0.6784898
1.4753053 -0.36646774 -0.66691506
1.4616845 -0.36308435 -0.64903647
1.4671257 -0.36443588 -0.63586867
1.4680252 -0.36465934 -0.60731024
1.4640751 -0.36367813 -0.5904423
1.4774673 -0.36700478 -0.58249289
1.4641559 -0.36369815 -0.5622018
1.4676957 -0.36457744 -0.55231577
1.4626092 -0.363314 -0.53738028
1.4854434 -0.36898604 -0.530761
1.470942 -0.36538389 -0.51266348
1.4844482 -0.3687388 -0.50253898
1.4794014 -0.3674852 -0.48613375
1.4829648 -0.36837032 -0.47446665
1.4962201 -0.371663 -0.46399611
1.4907753 -0.37031046 -0.44772655
1.494046 -0.37112287 -0.43599781
1.4789606 -0.3673757 -0.41726533
1.4918208 -0.37057021 -0.40650764
1.4768124 -0.36684206 -0.38646078
1.4796301 -0.367542 -0.37484357
1.4827483 -0.36831656 -0.36152485
1.4853872 -0.36897203 -0.34983501
1.4788139 -0.36733922 -0.33432239
1.4717503 -0.36558464 -0.32062244
1.4744097 -0.36624524 -0.30737665
1.4790956 -0.3674092 -0.28246519
1.4906993 -0.37029162 -0.27258036
1.4929509 -0.37085089 -0.259166
1.4950891 -0.37138209 -0.24573193
1.4875164 -0.36950094 -0.23079017
1.4891851 -0.36991554 -0.21906658
1.4907634 -0.37030756 -0.207357
1.4924628 -0.37072968 -0.19394456
1.4940485 -0.37112355 -0.18051735
1.4955204 -0.37148923 -0.16707638
1.5063725 -0.37418485 -0.1562935
1.4978222 -0.37206101 -0.14352471
1.4987018 -0.37227947 -0.13342056
1.4899727 -0.37011111 -0.12082711
1.5103021 -0.37516099 -0.10882022
1.5014791 -0.37296933 -0.094625354
1.5022235 -0.37315422 -0.081120849
1.5029929 -0.37334538 -0.064231656
1.5035319 -0.37347925 -0.049038302
1.5136298 -0.37598753 -0.034031335
1.513881 -0.37605 -0.018731937
1.5139865 -0.37607622 -0.0034035062
1.5236509 -0.37847686 0.011974296
1.5040559 -0.37360942 0.027051115
1.523129 -0.37834722 0.042795986
1.4823804 -0.33135116 -0.74084735
1.4870806 -0.33240187 -0.73088998
1.4828906 -0.33146527 -0.71663558
1.4712117 -0.32885483 -0.69497526
1.4674482 -0.32801351 -0.67934
1.4731779 -0.32929423 -0.66619235
1.4877577 -0.3325533 -0.65695155
1.474632 -0.32961932 -0.63750416
1.4800051 -0.33082029 -0.62429386
1.4839609 -0.33170453 -0.61435491
1.4794145 -0.33068827 -0.59906435
1.4747372 -0.3296428 -0.58385438
1.487561 -0.33250925 -0.5774945
1.4918163 -0.33346036 -0.56585211
1.4965785 -0.3345249 -0.55249089
1.5012265 -0.33556387 -0.53908759
1.4872849 -0.3324475 -0.51919371
1.4916501 -0.33342329 -0.50587481
1.4959013 -0.3343735 -0.49251735
1.5005522 -0.33541313 -0.47743204
1.5045609 -0.33630916 -0.46399611
1.5084553 -0.33717963 -0.45052484
1.5028419 -0.33592489 -0.43430483
1.5069269 -0.33683798 -0.41917941
1.491135 -0.33330807 -0.40227121
1.4850452 -0.33194682 -0.38646078
1.4973555 -0.33469859 -0.37723112
1.4910142 -0.33328113 -0.36152485
1.484154 -0.33174768 -0.34760678
1.4969447 -0.33460674 -0.33480588
1.480634 -0.3309609 -0.31731325
1.4832799 -0.3315523 -0.3040615
1.495399 -0.33426127 -0.29266265
1.5071383 -0.3368853 -0.28274137
1.4998741 -0.33526161 -0.26753893
1.501822 -0.33569697 -0.25580931
1.4937863 -0.33390084 -0.24415672
1.4955642 -0.33429819 -0.23244859
1.4972509 -0.33467519 -0.22075365
1.4889603 -0.33282202 -0.20934828
1.5102582 -0.33758271 -0.19687051
1.4922992 -0.33356833 -0.18268919
1.4937981 -0.33390343 -0.16933826
1.5048923 -0.33638328 -0.15698726
1.5061721 -0.33666933 -0.14352471
1.497475 -0.33472538 -0.13087267
1.4885497 -0.33273023 -0.12004253
1.4992509 -0.33512229 -0.10742508
1.5001085 -0.33531398 -0.094014861
1.5008521 -0.33548015 -0.080597483
1.5014083 -0.33560455 -0.068865635
1.5019376 -0.33572286 -0.055437591
1.5023968 -0.3358255 -0.040312614
1.5026829 -0.3358894 -0.02687682
1.512598 -0.33810574 -0.015230485
1.5029082 -0.33593971 -0.0033598698
1.5028796 -0.33593339 0.01007909
1.5027609 -0.33590686 0.021824149
1.5025178 -0.3358525 0.03526083
1.5216689 -0.34013325 0.049327232
1.4777944 -0.29395151 -0.74304509
1.4913571 -0.29664934 -0.73753172
1.4783547 -0.294063 -0.71895367
1.4740583 -0.29320845 -0.70482701
1.4881992 -0.29602113 -0.69752038
1.4755006 -0.29349527 -0.67768621
1.4715542 -0.29271027 -0.66215485
1.4771653 -0.29382643 -0.64903647
1.4729519 -0.29298833 -0.63361692
1.4783189 -0.29405585 -0.62048721
1.4920151 -0.2967802 -0.61270916
1.48744 -0.29587016 -0.59739709
1.4924963 -0.29687592 -0.58413988
1.4876397 -0.29590991 -0.56900424
1.4832404 -0.2950348 -0.55231577
1.487911 -0.29596391 -0.53909761
1.4924684 -0.29687038 -0.52583838
1.488163 -0.29601404 -0.50768757
1.4924515 -0.2968671 -0.49442732
1.4966265 -0.29769751 -0.48112941
1.501183 -0.29860386 -0.46613887
1.5051154 -0.29938599 -0.45276433
1.5089333 -0.30014548 -0.43935534
1.5126362 -0.30088195 -0.42591289
1.5071886 -0.2997984 -0.40817079
1.5007 -0.29850778 -0.39394504
1.5040145 -0.29916701 -0.38057756
1.4877503 -0.29593191 -0.36417487
1.4904312 -0.29646513 -0.35259491
1.4930313 -0.29698238 -0.34096783
1.4962397 -0.29762056 -0.32601997
1.4890336 -0.29618713 -0.31233338
1.4910066 -0.29657957 -0.30239013
1.5031738 -0.29899982 -0.29097763
1.4959556 -0.297564 -0.27581263
1.5079255 -0.29994503 -0.26418534
1.5195364 -0.30225453 -0.25406966
1.4925768 -0.29689199 -0.23594359
1.5040054 -0.29916531 -0.22575971
1.5155958 -0.30147076 -0.21373937
1.5076408 -0.29988843 -0.19896258
1.4898117 -0.29634196 -0.1831467
1.5008843 -0.29854447 -0.17267722
1.5019605 -0.29875857 -0.16265789
1.5032957 -0.29902416 -0.149288
1.5046618 -0.29929584 -0.13421994
1.4958452 -0.2975421 -0.12171959
1.49683 -0.29773802 -0.10840568
1.4977009 -0.29791129 -0.095083505
1.4984577 -0.29806179 -0.081754096
1.5087473 -0.30010849 -0.072221868
1.4897068 -0.29632109 -0.058031466
1.5098019 -0.30031824 -0.04367112
1.5003432 -0.29843688 -0.028384345
1.5005291 -0.29847378 -0.015033961
1.500598 -0.29848748 -0.0033380508
1.5005792 -0.29848373 0.0083313519
1.5102576 -0.30040896 0.021824151
1.5100133 -0.30036032 0.035260834
1.509654 -0.30028886 0.048694834
1.4786353 -0.25806314 -0.73207992
1.4937639 -0.26070344 -0.72325873
1.4991547 -0.26164433 -0.71167254
1.495515 -0.26100919 -0.6958515
1.50144 -0.26204315 -0.68257707
1.4891996 -0.25990692 -0.66123569
1.4767083 -0.25772688 -0.64016378
1.4821552 -0.25867745 -0.62705803
1.4777019 -0.25790021 -0.61178803
1.4737512 -0.2572107 -0.59497911
1.48253 -0.2587429 -0.5720638
1.4775599 -0.25787541 -0.55706102
1.4915569 -0.26031831 -0.54735059
1.4962053 -0.26112965 -0.53411686
1.4820971 -0.25866738 -0.51437241
1.4952643 -0.26096538 -0.5060454
1.4907149 -0.26017138 -0.4880369
1.4948536 -0.26089367 -0.47481292
1.4894515 -0.25995085 -0.4586499
1.4933376 -0.26062909 -0.44543824
1.4880915 -0.25971356 -0.42782286
1.501214 -0.26200381 -0.41726533
1.5047439 -0.26261982 -0.40395099
1.4890687 -0.25988403 -0.38566154
1.4819623 -0.25864384 -0.3733514
1.4946967 -0.26086625 -0.36253324
1.4785544 -0.25804898 -0.3448008
1.4935527 -0.26066664 -0.32226324
1.4862792 -0.2593973 -0.30868587
1.4985445 -0.26153782 -0.29742688
1.4913599 -0.26028398 -0.28230762
1.4937301 -0.26069763 -0.26908574
1.5054252 -0.26273867 -0.25915849
1.5075958 -0.26311752 -0.24581289
1.4899228 -0.26003313 -0.23111241
1.4913809 -0.26028758 -0.2212086
1.4930031 -0.26057076 -0.20962898
1.4945347 -0.26083809 -0.19806361
1.5055561 -0.26276159 -0.18935947
1.4971528 -0.26129496 -0.1765171
1.4984355 -0.2615189 -0.16492055
1.4994667 -0.26169878 -0.1549616
1.5005898 -0.26189488 -0.14332119
1.4918087 -0.26036233 -0.13083822
1.4927502 -0.2605266 -0.11925793
1.4838915 -0.25898057 -0.10533238
1.4944718 -0.26082706 -0.094462045
1.505064 -0.26267576 -0.081754096
1.5057095 -0.26278841 -0.068418458
1.4963365 -0.26115251 -0.056361321
1.4868696 -0.25950027 -0.044480022
1.4970443 -0.26127607 -0.031514306
1.4972378 -0.26130986 -0.019896293
1.4973438 -0.26132834 -0.008303646
1.4973582 -0.26133084 0.0049608066
1.497277 -0.26131672 0.016580191
1.4971089 -0.26128739 0.028172081
1.5066571 -0.26295376 0.041705649
1.506299 -0.26289123 0.053396121
1.4754168 -0.22181888 -0.72769624
1.4808624 -0.22263767 -0.71629554
1.4720553 -0.22131355 -0.68823928
1.4779384 -0.22219802 -0.67522281
1.482277 -0.2228504 -0.66542661
1.4872639 -0.22360004 -0.65394861
1.473956 -0.2215993 -0.63462383
1.4878383 -0.22368635 -0.62705803
1.4833679 -0.22301437 -0.61178803
1.4787644 -0.22232231 -0.59659761
1.493073 -0.22447345 -0.58714974
1.4888356 -0.22383633 -0.5704087
1.4937012 -0.22456786 -0.55724859
1.4897237 -0.22396985 -0.53903705
1.4943186 -0.22466072 -0.52587026
1.4987997 -0.22533438 -0.51266348
1.5031667 -0.22599098 -0.49941763
1.5068982 -0.22655198 -0.48778298
1.5110502 -0.22717622 -0.47446665
1.515087 -0.22778305 -0.46111414
1.5190085 -0.22837266 -0.44772655
1.5132967 -0.227514 -0.43159044
1.5174102 -0.22813234 -0.41655955
1.5113815 -0.22722599 -0.40061757
1.5047812 -0.22623363 -0.38646078
1.5180652 -0.22823086 -0.37388289
1.5015961 -0.22575484 -0.35755274
1.4949794 -0.22476004 -0.34208113
1.4971614 -0.2250881 -0.33217931
1.5096482 -0.22696541 -0.32101256
1.5026662 -0.22591577 -0.30570599
1.495219 -0.2247961 -0.29220998
1.5067995 -0.22653715 -0.2841408
1.5212253 -0.22870599 -0.259166
1.5133764 -0.22752593 -0.24581289
1.51544 -0.22783624 -0.23244858
1.5075986 -0.22665732 -0.21765323
1.5091963 -0.22689752 -0.20601919
1.5008998 -0.22565018 -0.19308452
1.5023124 -0.22586255 -0.18150288
1.5034549 -0.22603433 -0.17155594
1.5047081 -0.22622274 -0.15992865
1.5058705 -0.2263975 -0.14831859
1.5067981 -0.22653697 -0.13834883
1.4980788 -0.22522603 -0.12422936
1.5088358 -0.2268433 -0.11338609
1.4996711 -0.22546542 -0.10272165
1.5005004 -0.22559011 -0.089483723
1.5110075 -0.22716981 -0.078420721
1.5115564 -0.2272523 -0.066737764
1.5120156 -0.22732139 -0.055077605
1.5124333 -0.22738415 -0.041732561
1.5127046 -0.22742504 -0.030039657
1.5128872 -0.2274524 -0.018371701
1.522877 -0.22895437 -0.0050531765
1.5129739 -0.22746551 0.0083313547
1.5227077 -0.22892886 0.02351729
1.5125606 -0.22740334 0.036713731
1.5121863 -0.22734702 0.05006009
1.4940536 -0.18874277 -0.74470145
1.4810137 -0.18709548 -0.72608131
1.4856966 -0.18768717 -0.71629554
1.4903159 -0.18827064 -0.70647913
1.4866205 -0.18780382 -0.69078869
1.4827633 -0.18731655 -0.67522281
1.4794761 -0.18690129 -0.65811729
1.4851176 -0.18761392 -0.64507896
1.4906459 -0.18831231 -0.63199145
1.4862213 -0.18775333 -0.61668056
1.4809952 -0.18709315 -0.60311675
1.4953911 -0.18891183 -0.59373212
1.4912124 -0.18838385 -0.57697254
1.5048239 -0.19010344 -0.56900424
1.5003738 -0.18954125 -0.55231577
1.5039279 -0.18999019 -0.54240602
1.4997694 -0.18946496 -0.52420843
1.5130906 -0.19114777 -0.51586765
1.4991888 -0.18939158 -0.49463505
1.5034142 -0.18992534 -0.48142949
1.507525 -0.19044468 -0.4681873
1.5120084 -0.1910111 -0.45326054
1.5158751 -0.1914995 -0.43994382
1.5005115 -0.18955871 -0.42122763
1.5141286 -0.1912789 -0.40893421
1.5080062 -0.19050547 -0.39309672
1.5113521 -0.19092813 -0.37981749
1.5057205 -0.19021676 -0.36086467
1.4987381 -0.18933468 -0.34703979
1.5016856 -0.18970703 -0.33384383
1.5045187 -0.19006489 -0.32062244
1.5072373 -0.19040833 -0.30737665
1.4997857 -0.189467 -0.29384598
1.5019655 -0.18974237 -0.28230762
1.5141209 -0.19127797 -0.27083305
1.4965677 -0.18906049 -0.25581449
1.4984599 -0.18929945 -0.24430199
1.5000141 -0.18949585 -0.23441149
1.5017481 -0.18971495 -0.22284669
1.5031631 -0.18989365 -0.21293496
1.5047306 -0.1900916 -0.20137298
1.5064167 -0.19030462 -0.18812987
1.5178442 -0.19174825 -0.17601538
1.5092702 -0.19066517 -0.16324793
1.5106262 -0.19083641 -0.14996633
1.5117171 -0.19097422 -0.13834883
1.5128573 -0.19111834 -0.12504666
1.5039876 -0.18999785 -0.11100467
1.4948857 -0.18884802 -0.098758832
1.4955895 -0.18893695 -0.087263823
1.5060321 -0.19025612 -0.077908166
1.5065058 -0.19031596 -0.067971267
1.4971222 -0.18913054 -0.054357633
1.5074079 -0.19042987 -0.043103959
1.5076902 -0.19046551 -0.031514302
1.5178261 -0.19174606 -0.018371699
1.508 -0.19050467 -0.006632335
1.5080062 -0.1905055 0.0049608103
1.5277257 -0.19299668 0.020157872
1.5076907 -0.19046563 0.031487573
1.5172775 -0.19167674 0.045042254
1.4778543 -0.15141799 -0.7406885
1.4826452 -0.15190883 -0.73094952
1.4963325 -0.15331121 -0.72552371
1.4838083 -0.1520281 -0.70547903
1.4891298 -0.1525733 -0.69405609
1.4852958 -0.15218045 -0.67848176
1.490412 -0.15270473 -0.66704822
1.4947231 -0.1531464 -0.65722823
1.4905219 -0.15271594 -0.64181161
1.4868586 -0.15234055 -0.62485486
1.4823598 -0.15187962 -0.60962439
1.4961778 -0.15329537 -0.60195726
1.5013463 -0.15382496 -0.58880955
1.4865658 -0.15231058 -0.57177216
1.5007946 -0.15376845 -0.5622018
1.4869146 -0.15234634 -0.54219502
1.5009458 -0.15378395 -0.53245872
1.506078 -0.15430978 -0.51760745
1.5010734 -0.153797 -0.50122374
1.5053674 -0.154237 -0.48803687
1.4900451 -0.15266708 -0.47048765
1.5131054 -0.1550298 -0.46322545
1.5075278 -0.15445831 -0.44710475
1.5013212 -0.15382239 -0.43275073
1.5141442 -0.1551362 -0.42391059
1.5173236 -0.155462 -0.41226277
1.5208447 -0.15582278 -0.39893678
1.4953086 -0.15320638 -0.37825927
1.4985353 -0.15353701 -0.36512768
1.5113361 -0.1548485 -0.35423905
1.5042748 -0.15412508 -0.34044501
1.4873769 -0.15239368 -0.32463193
1.4991938 -0.15360449 -0.316897
1.5018876 -0.1538804 -0.30373368
1.494698 -0.15314381 -0.28866056
1.5164113 -0.15536861 -0.28081581
1.5185025 -0.15558277 -0.26915476
1.5011582 -0.15380572 -0.25252292
1.5032933 -0.15402453 -0.23934484
1.5151525 -0.15523957 -0.22762659
1.5069858 -0.15440284 -0.21460077
1.5087914 -0.15458785 -0.20137298
1.4905365 -0.15271752 -0.18729213
1.5019871 -0.15389071 -0.17536339
1.5133435 -0.1550542 -0.16324793
1.5046391 -0.15416233 -0.15064935
1.5057406 -0.15427522 -0.13908257
1.5066141 -0.15436469 -0.12917301
1.507678 -0.15447378 -0.11595175
1.498702 -0.15355402 -0.10204584
1.5092638 -0.1546362 -0.092793882
1.5100117 -0.15471286 -0.079550758
1.5205833 -0.15579593 -0.066737764
1.5012211 -0.15381217 -0.05269834
1.5116079 -0.15487629 -0.038144808
1.5118537 -0.1549015 -0.026527761
1.5120399 -0.15492064 -0.011619695
1.5021327 -0.15390557 0.0032942039
1.5119941 -0.15491599 0.016580196
1.5117595 -0.15489191 0.031487573
1.5113788 -0.15485287 0.046418436
1.4881829 -0.11712249 -0.72608131
1.4936728 -0.11755462 -0.71464854
1.5080936 -0.11868943 -0.70743638
1.5134411 -0.11911036 -0.6958515
1.4928639 -0.1174909 -0.66869521
1.4894865 -0.11722507 -0.65160435
1.503577 -0.11833402 -0.64409113
1.4992328 -0.11799213 -0.628712
1.5125257 -0.11903831 -0.62265247
1.4993742 -0.11800327 -0.60195726
1.5231286 -0.11987277 -0.59607881
1.518312 -0.11949363 -0.58081859
1.514569 -0.11919918 -0.56238061
1.5100249 -0.11884149 -0.54571187
1.5241232 -0.11995104 -0.53578031
1.5198576 -0.11961535 -0.51751769
1.524302 -0.11996511 -0.50419384
1.5096412 -0.11881128 -0.48473433
1.5143085 -0.11917862 -0.46985775
1.5087891 -0.11874428 -0.45371273
1.5031048 -0.11829683 -0.43770036
1.5169206 -0.1193842 -0.42555737
1.520565 -0.11967102 -0.41226277
1.5140121 -0.11915527 -0.39808199
1.5174177 -0.11942331 -0.3848139
1.5110216 -0.11891989 -0.36915016
1.5141755 -0.11916826 -0.35590935
1.5074884 -0.11864183 -0.34044501
1.5002966 -0.11807588 -0.32675371
1.4929795 -0.11749998 -0.31321886
1.5070457 -0.11860703 -0.29384595
1.5092361 -0.11877941 -0.2823076
1.5113435 -0.11894535 -0.27072635
1.5130776 -0.11908184 -0.26079834
1.5051787 -0.1184601 -0.24759653
1.4974239 -0.11784975 -0.23287939
1.5191218 -0.11955748 -0.2226544
1.5108991 -0.1189103 -0.20962898
1.512449 -0.11903237 -0.19806361
1.5038154 -0.11835288 -0.18690026
1.5150985 -0.11924087 -0.1765171
1.5064855 -0.11856299 -0.16384263
1.5174401 -0.11942511 -0.1549616
1.5185767 -0.11951458 -0.14332119
1.5196223 -0.11959689 -0.131699
1.5105114 -0.11887973 -0.12092403
1.5113889 -0.11894893 -0.10933775
1.5022278 -0.11822783 -0.097128287
1.5028293 -0.11827522 -0.087263815
1.513407 -0.11910778 -0.07623899
1.5238318 -0.11992817 -0.066737764
1.5242949 -0.1199646 -0.055077597
1.5147951 -0.11921698 -0.039789062
1.5150836 -0.11923969 -0.026527759
1.5152566 -0.11925328 -0.013264434
1.5053451 -0.11847323 -1.0037997e-07
1.5052879 -0.1184687 0.013176968
1.5250216 -0.12002176 0.028357431
1.5247167 -0.11999774 0.041705657
1.5243545 -0.11996931 0.053396128
1.5264456 -0.084005371 -0.74357724
1.5050399 -0.082827225 -0.71895367
1.5104713 -0.083126202 -0.70743638
1.4976735 -0.082421914 -0.68751794
1.503607 -0.082748368 -0.67440253
1.5094261 -0.083068691 -0.66123569
1.4960612 -0.08233317 -0.64181161
1.5002234 -0.082562231 -0.63199145
1.4964359 -0.082353853 -0.61505914
1.5017381 -0.082645558 -0.60195726
1.4976239 -0.082419239 -0.58517492
1.5020467 -0.082662545 -0.57369196
1.5075932 -0.08296784 -0.55890912
1.5124056 -0.083232664 -0.54571187
1.5076801 -0.082972616 -0.52916574
1.5027821 -0.082703143 -0.51274407
1.5166717 -0.083467454 -0.50273269
1.5114882 -0.083182245 -0.48639911
1.5151567 -0.083384067 -0.4748129
1.5192361 -0.083608657 -0.46155274
1.5136201 -0.083299607 -0.44543821
1.4982356 -0.082452863 -0.42672178
1.5307794 -0.084243871 -0.42156541
1.5150938 -0.083380677 -0.40303653
1.5181191 -0.083547093 -0.39145169
1.5113742 -0.083175935 -0.37739825
1.5048962 -0.08281938 -0.3618404
1.5177207 -0.083525158 -0.35092375
1.520349 -0.083669819 -0.33932033
1.5134833 -0.083291985 -0.32393008
1.4966837 -0.082367517 -0.30668139
1.4992989 -0.08251141 -0.29358909
1.5113097 -0.083172426 -0.28394562
1.5235558 -0.083846375 -0.27248433
1.515744 -0.083416387 -0.25915581
1.5179443 -0.083537504 -0.24589874
1.5101589 -0.083109125 -0.23111241
1.5118788 -0.083203658 -0.21954381
1.5135068 -0.083293304 -0.20798886
1.5247345 -0.083911225 -0.19935814
1.5063908 -0.082901642 -0.18524151
1.5077575 -0.08297693 -0.17372946
1.5187873 -0.083583944 -0.16492055
1.5102308 -0.083113007 -0.15064935
1.5113364 -0.083173864 -0.13908257
1.5221617 -0.083769612 -0.13002284
1.5131528 -0.083273821 -0.11761813
1.5140064 -0.083320789 -0.10602994
1.5146668 -0.083357148 -0.096103594
1.5153546 -0.083394937 -0.084530927
1.5158746 -0.083423607 -0.074596211
1.5165333 -0.083459854 -0.059675019
1.5169955 -0.083485365 -0.046418641
1.5173771 -0.083506346 -0.031514298
1.517594 -0.083518267 -0.018251615
1.5176952 -0.08352381 -0.004987543
1.5176809 -0.083522975 0.0082769096
1.5175734 -0.083517075 0.019896086
1.507395 -0.08295697 0.031280424
1.536956 -0.084583879 0.047029208
1.4970384 -0.047046319 -0.73862225
1.5018382 -0.047197178 -0.72880358
1.4975523 -0.047062352 -0.71464854
1.4931457 -0.046923891 -0.70058107
1.5075245 -0.047375813 -0.69334358
1.4945519 -0.046968181 -0.67357904
1.4912214 -0.046863455 -0.65647721
1.4968907 -0.047041614 -0.64343262
1.4925389 -0.046904944 -0.62811422
1.4979606 -0.047075294 -0.61505914
1.5026164 -0.047221623 -0.60358441
1.5171313 -0.047677718 -0.594087
1.5035774 -0.047251783 -0.57369196
1.4991543 -0.047112729 -0.55706102
1.5127532 -0.047540214 -0.5490151
1.5180721 -0.047707226 -0.53411686
1.503758 -0.047257449 -0.51437241
1.5176725 -0.047694713 -0.50437611
1.5225444 -0.047847897 -0.4894582
1.5076711 -0.047380418 -0.47019464
1.5117148 -0.047507495 -0.45701352
1.5151626 -0.04761586 -0.44543821
1.528604 -0.048038278 -0.43492797
1.5130645 -0.047549937 -0.41626272
1.5170727 -0.047675941 -0.40139431
1.5306292 -0.048101939 -0.3889223
1.5238435 -0.047888674 -0.37484354
1.507602 -0.04737822 -0.35691944
1.5106578 -0.047474302 -0.34374321
1.5135984 -0.047566634 -0.33054078
1.5160797 -0.047644716 -0.31895477
1.4992065 -0.047114473 -0.30176136
1.5305827 -0.048100393 -0.29766211
1.5131561 -0.047552805 -0.2823076
1.5254021 -0.047937736 -0.27083302
1.5175724 -0.047691688 -0.25748646
1.509892 -0.04745023 -0.24264109
1.5218328 -0.04782556 -0.23094891
1.5136559 -0.047568604 -0.21790519
1.5152767 -0.047619451 -0.20632201
1.5265064 -0.04797237 -0.19767895
1.5180471 -0.047706533 -0.18481679
1.5194148 -0.047749508 -0.17320102
1.5205153 -0.047784079 -0.16324793
1.5018239 -0.047196679 -0.14965822
1.5128765 -0.047544114 -0.13908255
1.513754 -0.047571532 -0.129173
1.5146947 -0.047601275 -0.11761813
1.5056914 -0.047318213 -0.10370231
1.5364699 -0.048285536 -0.092351459
1.5271492 -0.047992583 -0.080074109
1.5075943 -0.047378119 -0.07081493
1.5281934 -0.048025366 -0.056732107
1.5186391 -0.047725137 -0.043103952
1.5189235 -0.047734078 -0.031514294
1.5291348 -0.048054993 -0.01837169
1.5092467 -0.047430038 -0.0049547283
1.5292124 -0.048057437 0.010013658
1.509079 -0.047424734 0.023059169
1.5188518 -0.04773182 0.034802917
1.5285318 -0.048036043 0.046723828
1.4977312 -0.011763289 -0.73862225
1.493536 -0.011730447 -0.72443944
1.4990177 -0.011773423 -0.71302682
1.5036521 -0.011809842 -0.70320028
1.4991367 -0.011774438 -0.68916684
1.4952437 -0.011743861 -0.67357904
1.5017784 -0.011795182 -0.65887994
1.4975835 -0.011762221 -0.64343262
1.5116646 -0.011872789 -0.63586867
1.507905 -0.011843226 -0.61885583
1.5033119 -0.011807106 -0.60358441
1.489898 -0.011701846 -0.58315289
1.4949298 -0.011741305 -0.57012868
1.5092221 -0.01185366 -0.56054264
1.5134535 -0.011886802 -0.5490151
1.5093415 -0.011854556 -0.53079939
1.5139159 -0.011890499 -0.51760745
1.5183749 -0.011925547 -0.50437611
1.5232489 -0.011963755 -0.4894582
1.5179155 -0.011921973 -0.47317058
1.511919 -0.011874767 -0.45864987
1.5254579 -0.011981161 -0.44825742
1.5293114 -0.012011382 -0.43492797
1.5229452 -0.011961434 -0.42058894
1.5067978 -0.011834596 -0.40375781
1.5102637 -0.011861777 -0.3905929
1.5330199 -0.012040473 -0.38223669
1.5164489 -0.011910416 -0.36584255
1.510227 -0.011861541 -0.34867424
1.5030822 -0.011805395 -0.33497009
1.5059478 -0.011827926 -0.32184023
1.4982297 -0.011767308 -0.30995086
1.5008773 -0.011788111 -0.2968643
1.5328894 -0.012039465 -0.28931895
1.5153759 -0.011901898 -0.27403316
1.5177095 -0.011920317 -0.26079834
1.5193839 -0.01193343 -0.25085911
1.5212529 -0.011948094 -0.2392631
1.5131476 -0.011884437 -0.22614849
1.5148283 -0.01189767 -0.21460076
1.5166433 -0.011911976 -0.20137297
1.5179288 -0.011922049 -0.19144201
1.5193479 -0.011933137 -0.17983231
1.5208592 -0.011945118 -0.1665664
1.5121372 -0.011876514 -0.15394877
1.513423 -0.011886648 -0.14074679
1.5144546 -0.011894754 -0.129173
1.5153958 -0.011902206 -0.11761813
1.5263405 -0.011988037 -0.10507584
1.5172176 -0.011916453 -0.091152094
1.5179552 -0.011922236 -0.077908158
1.5185773 -0.011927124 -0.064658292
1.5090336 -0.011852142 -0.052698333
1.5194323 -0.01193386 -0.039789055
1.5196915 -0.011935888 -0.028198808
1.5198798 -0.011937319 -0.014935684
1.5199494 -0.011937976 -0.0033162178
1.5199306 -0.011937798 0.0082769133
1.5198004 -0.011936785 0.021540735
1.5195546 -0.011934759 0.034802921
1.5291337 -0.012009981 0.050060101
1.498391 0.023538634 -0.73700106
1.5129862 0.023767933 -0.72986817
1.5094696 0.02371268 -0.71403033
1.5050435 0.023643119 -0.69991803
1.5186856 0.023857458 -0.69420832
1.5056965 0.023653369 -0.67440253
1.5016394 0.023589712 -0.65887994
1.5073311 0.023679057 -0.64574915
1.5036833 0.023621777 -0.628712
1.5084449 0.023696579 -0.61719739
1.5031728 0.023613729 -0.60358441
1.499071 0.023549354 -0.5867976
1.5041342 0.023628807 -0.57369196
1.5090826 0.023706591 -0.56054264
1.5133135 0.023773048 -0.5490151
1.5180461 0.023847375 -0.53578657
1.5220971 0.023911031 -0.52416486
1.5171306 0.023833008 -0.50768757
1.5209581 0.023893148 -0.49610016
1.525229 0.023960263 -0.48280695
1.519825 0.023875384 -0.46654272
1.5243354 0.023946134 -0.45158449
1.5282176 0.024007229 -0.43826348
1.5416186 0.024217691 -0.42758149
1.5360769 0.024130609 -0.40986022
1.5299118 0.024033869 -0.39394501
1.5332907 0.024086857 -0.38057753
1.5264325 0.02397915 -0.36650932
1.5100873 0.023722373 -0.34867424
1.513072 0.02376922 -0.33548149
1.5159417 0.023814341 -0.32226321
1.5183551 0.023852307 -0.31069031
1.5210084 0.023893971 -0.29742685
1.5235456 0.023933785 -0.28414077
1.5259669 0.023971872 -0.27083302
1.5378504 0.024158495 -0.26083046
1.5203233 0.023883179 -0.24422698
1.5320256 0.024067 -0.23413347
1.5337703 0.024094416 -0.22241366
1.5356526 0.02412398 -0.20901904
1.5274992 0.023995828 -0.1943465
1.5190086 0.023862492 -0.18150286
1.5203516 0.023883652 -0.16988412
1.521776 0.023906061 -0.1566086
1.5330393 0.024082908 -0.1442579
1.5242771 0.02394522 -0.13002282
1.5253537 0.023962207 -0.11671457
1.5162241 0.023818677 -0.10438908
1.5168748 0.023828989 -0.094462022
1.5275364 0.023996478 -0.083407275
1.5380368 0.024161402 -0.073886417
1.5286319 0.024013702 -0.060067613
1.5290978 0.024020974 -0.046724018
1.5194509 0.023869457 -0.03315872
1.5296574 0.024029793 -0.021709342
1.5197898 0.02387476 -0.0083036292
1.5298076 0.024032176 0.0033378464
1.5297014 0.024030445 0.018344797
1.5394436 0.02418351 0.033594828
1.5290978 0.024020966 0.046723831
1.5210063 0.059760556 -0.73421258
1.5229673 0.059837565 -0.70667529
1.5283086 0.060047373 -0.69503009
1.5160455 0.059565585 -0.67354155
1.5126932 0.059433918 -0.65629834
1.5275605 0.060018044 -0.6469599
1.5139942 0.059484996 -0.62760097
1.5187333 0.05967132 -0.61602652
1.5240471 0.059879996 -0.60273957
1.5292448 0.060084261 -0.58940673
1.5243505 0.059891857 -0.57416767
1.5199168 0.059717748 -0.5573926
1.5153075 0.05953661 -0.54073888
1.5105242 0.059348736 -0.52420843
1.5239408 0.059875879 -0.51586765
1.5188879 0.059677273 -0.4994176
1.523185 0.059846133 -0.48613372
1.5178199 0.059635252 -0.46985775
1.5218592 0.059794039 -0.45658433
1.5262687 0.059967246 -0.4415969
1.5300612 0.060116258 -0.42825079
1.5337372 0.06026068 -0.41487202
1.5372964 0.060400631 -0.40146169
1.5310483 0.060155116 -0.38558042
1.524641 0.059903346 -0.36983901
1.5173008 0.059614979 -0.35755271
1.5207323 0.059749745 -0.34264144
1.5233052 0.059850831 -0.33099726
1.5163505 0.059577603 -0.3156448
1.5190451 0.059683401 -0.3023901
1.5216241 0.059784789 -0.28911236
1.5240872 0.059881587 -0.2758126
1.5362821 0.060360745 -0.26418531
1.5382507 0.060437992 -0.25245133
1.5406553 0.060532466 -0.23731257
1.5226444 0.059824958 -0.22265439
1.5243007 0.059889928 -0.2109991
1.5157411 0.059553694 -0.19970517
1.5172191 0.059611749 -0.18812986
1.528921 0.06007148 -0.17433304
1.5302051 0.060121905 -0.16265787
1.52162 0.059784599 -0.14831857
1.5328085 0.060224243 -0.13590673
1.533802 0.060263284 -0.12417621
1.5447929 0.060695119 -0.1114957
1.5257616 0.059947319 -0.096735843
1.5264544 0.059974495 -0.085087046
1.5368757 0.060384098 -0.077242121
1.5374908 0.060408238 -0.063817225
1.5379325 0.060425524 -0.05207986
1.5383697 0.06044269 -0.036953893
1.5286665 0.060061455 -0.02170934
1.5387897 0.060459256 -0.0084128855
1.53879 0.060459197 0.008385825
1.5386581 0.060454071 0.021824172
1.5384092 0.060444232 0.035260852
1.5280018 0.060035404 0.050060108
1.52977 0.096244976 -0.73521471
1.5255129 0.095977172 -0.72090125
1.5136064 0.095228121 -0.69916183
1.5105383 0.095035061 -0.68179333
1.5156842 0.095358774 -0.67022985
1.502431 0.094525017 -0.65066582
1.5158359 0.095368303 -0.64470643
1.5206993 0.095674254 -0.63310349
1.5248022 0.095932461 -0.62311739
1.5109723 0.095062353 -0.60400867
1.5068734 0.094804443 -0.58714968
1.5305955 0.096297003 -0.58103734
1.5168707 0.095433451 -0.56070971
1.5310895 0.096327998 -0.55080432
1.5164006 0.09540388 -0.53247297
1.5204186 0.095656723 -0.52084243
1.5148711 0.095307618 -0.50604534
1.5186877 0.095547765 -0.49442729
1.522936 0.095815092 -0.48112938
1.5270684 0.096074909 -0.46779481
1.5305847 0.09629634 -0.45611122
1.5349838 0.096573025 -0.44101986
1.5286818 0.096176535 -0.42659357
1.5419762 0.097012959 -0.41580966
1.5358794 0.096629404 -0.39979666
1.5393028 0.096844696 -0.38635203
1.5232053 0.095831953 -0.3681877
1.5267423 0.096054457 -0.35317326
1.5297601 0.096244358 -0.33981028
1.5127825 0.095176242 -0.32393008
1.5253239 0.095965289 -0.31269476
1.5377839 0.096749082 -0.30126461
1.5400374 0.096890941 -0.28947702
1.5329704 0.09644635 -0.27258033
1.5251653 0.095955327 -0.25915846
1.5273644 0.09609367 -0.24581288
1.5395663 0.096861258 -0.23227909
1.5217674 0.095741466 -0.21600337
1.5235908 0.095856205 -0.20268914
1.5349958 0.096573785 -0.19225349
1.5266981 0.096051641 -0.17767078
1.5182641 0.09552104 -0.16324791
1.5295603 0.096231766 -0.15094648
1.5407569 0.096936174 -0.13845988
1.5218723 0.095748134 -0.12504664
1.5328572 0.096439131 -0.11246524
1.5437379 0.09712375 -0.099701211
1.5245249 0.095914908 -0.086740054
1.5351912 0.096586116 -0.073886409
1.5458136 0.097254336 -0.059176799
1.5263181 0.096027792 -0.045069139
1.5366648 0.096678734 -0.030235976
1.5368869 0.096692681 -0.0151322
1.5269771 0.096069276 -0.003338028
1.5369282 0.096695423 0.010079115
1.5467861 0.09731555 0.021965889
1.5365583 0.096672058 0.035260856
1.5462199 0.097279906 0.047334608
1.5380855 0.13321267 -0.7117216
1.5039022 0.13025211 -0.66619229
1.5180771 0.13147978 -0.65860075
1.5322123 0.132704 -0.65085721
1.5272233 0.13227193 -0.63694048
1.5327027 0.13274644 -0.62353897
1.5195343 0.13160597 -0.60273951
1.5240805 0.1319997 -0.59106237
1.5291611 0.13243976 -0.57769012
1.5341253 0.13286975 -0.56427389
1.5389727 0.13328949 -0.55081469
1.5342901 0.13288394 -0.53403723
1.5194285 0.13159677 -0.51586759
1.5333205 0.13280001 -0.5056603
1.5276384 0.13230786 -0.49083161
1.541362 0.13349643 -0.48039743
1.54548 0.13385311 -0.46687806
1.5399154 0.13337114 -0.45052481
1.5341851 0.13287488 -0.4343048
1.5383552 0.13323596 -0.41917938
1.541941 0.13354662 -0.40568864
1.5454094 0.13384697 -0.39216703
1.5390803 0.13329878 -0.37624919
1.5325928 0.13273694 -0.36047229
1.5360477 0.13303621 -0.34533918
1.5288888 0.13241614 -0.33145863
1.5313686 0.13263096 -0.31971765
1.5337534 0.13283749 -0.30798486
1.5461584 0.13391186 -0.2964147
1.5388749 0.13328095 -0.28107005
1.5409706 0.13346256 -0.26925391
1.5527995 0.13448705 -0.25908887
1.5446172 0.13377829 -0.24730711
1.5467086 0.13395955 -0.23376806
1.5518517 0.13440491 -0.19644703
1.5436056 0.13369079 -0.18168195
1.5550311 0.13468029 -0.16923217
1.5564432 0.13480259 -0.1556049
1.5577366 0.13491459 -0.14196578
1.539053 0.13329645 -0.12668124
1.5598433 0.13509709 -0.11635042
1.5509633 0.13432801 -0.10034444
1.5523919 0.13445175 -0.07484597
1.5430286 0.13364071 -0.0608528
1.5335407 0.132819 -0.047029395
1.5438871 0.13371509 -0.032136276
1.5441077 0.13373417 -0.018611832
1.5442153 0.13374352 -0.0033816597
1.5441741 0.13373995 0.011821785
1.5539451 0.13458627 0.027225666
1.5336862 0.13283163 0.041978259
1.5341001 0.16936623 -0.73617405
1.5306325 0.16898344 -0.72014481
1.5421454 0.17025451 -0.69483888
1.5200615 0.16781639 -0.67093259
1.5159826 0.16736607 -0.65527487
1.5202131 0.16783313 -0.64527851
1.5250607 0.16836838 -0.63359463
1.5113987 0.16686003 -0.61435485
1.5153629 0.16729765 -0.60438961
1.5291684 0.16882178 -0.59635842
1.5156856 0.16733322 -0.57584471
1.5479925 0.17090002 -0.57455438
1.5248523 0.1683453 -0.55080432
1.5289836 0.1688014 -0.53908753
1.5336013 0.16931114 -0.52564323
1.5475385 0.17084989 -0.51530093
1.5330229 0.16924736 -0.49557644
1.5367436 0.16965815 -0.48377162
1.550393 0.17116502 -0.47316411
1.5449016 0.17055872 -0.45671511
1.5397165 0.16998634 -0.43872276
1.5434632 0.17039999 -0.42518803
1.5470926 0.17080072 -0.41162091
1.5414042 0.17017266 -0.39384535
1.5351069 0.16947743 -0.37792066
1.5286516 0.16876474 -0.36213672
1.5418055 0.17021687 -0.34923068
1.5347006 0.1694326 -0.33524081
1.5378952 0.16978522 -0.32007998
1.5308623 0.16900881 -0.30462545
1.5331323 0.16925938 -0.29284284
1.5453949 0.17061318 -0.28115088
1.5281825 0.16871293 -0.26418531
1.5399495 0.17001201 -0.25406963
1.5224502 0.16808005 -0.23747568
1.5337944 0.16933246 -0.2289131
1.5357215 0.16954525 -0.21543835
1.5473878 0.17083319 -0.20324172
1.549298 0.17104413 -0.18793483
1.5508691 0.17121758 -0.17432553
1.5422593 0.17026712 -0.16138557
1.5434406 0.17039748 -0.14951946
1.5347769 0.16944094 -0.13509148
1.5555725 0.17173679 -0.12490177
1.5366485 0.16964751 -0.11149569
1.5474768 0.17084301 -0.098632619
1.5581982 0.17202669 -0.085587859
1.5290157 0.16880488 -0.072221838
1.5395162 0.16996419 -0.059176795
1.5400198 0.17001981 -0.043954674
1.5403743 0.17005891 -0.028755352
1.540565 0.17007995 -0.015230455
1.5505781 0.17118537 -0.0017153944
1.5405807 0.17008168 0.013526045
1.5404048 0.1700623 0.027051147
1.5401115 0.17002988 0.040574186
1.5191524 0.20404766 -0.73521471
1.532853 0.20588796 -0.72943258
1.5293262 0.20541428 -0.71341872
1.5248982 0.20481949 -0.69916713
1.5218287 0.2044072 -0.68165648
1.518573 0.20396994 -0.66425335
1.5151329 0.20350777 -0.64695984
1.5206707 0.20425169 -0.63359463
1.5260926 0.20497994 -0.62018114
1.5215254 0.20436649 -0.60472709
1.5168035 0.20373216 -0.58940667
1.5205944 0.20424131 -0.57937747
1.5249395 0.20482501 -0.56763202
1.5198617 0.20414296 -0.55249083
1.5234129 0.20462003 -0.54244226
1.5181072 0.20390734 -0.52742046
1.5226109 0.20451221 -0.51403362
1.5264523 0.20502821 -0.50230139
1.5307386 0.20560393 -0.48884204
1.5343975 0.20609537 -0.47702098
1.5384648 0.2066417 -0.4634926
1.5328937 0.20589337 -0.44715157
1.5266875 0.2050598 -0.4326382
1.5399361 0.20683929 -0.42179924
1.542639 0.20720229 -0.41162091
1.5361118 0.20632562 -0.39722767
1.539489 0.20677927 -0.38368723
1.5331067 0.20592204 -0.36780435
1.5362294 0.20634146 -0.35429147
1.5299166 0.20549347 -0.33693835
1.5324247 0.20583035 -0.32512808
1.5355117 0.20624508 -0.30994654
1.5280821 0.20524712 -0.29620722
1.5403347 0.20689286 -0.28454223
1.5424408 0.20717575 -0.27268031
1.5542368 0.20876016 -0.26242578
1.5466583 0.20774223 -0.24716654
1.5585393 0.20933796 -0.23501705
1.5308313 0.20561643 -0.21880859
1.56214 0.20982166 -0.20926996
1.5440109 0.20738657 -0.19473417
1.5456362 0.2076049 -0.1811319
1.5372896 0.2064838 -0.16644885
1.5485339 0.20799418 -0.153887
1.5397818 0.20681854 -0.14106153
1.5409431 0.20697458 -0.12749854
1.5318542 0.20575374 -0.11656781
1.542581 0.20719445 -0.10542482
1.5432317 0.20728195 -0.095235802
1.5439067 0.20737261 -0.083357081
1.5545456 0.20880163 -0.068482518
1.5451134 0.20753467 -0.056157529
1.5554934 0.20892888 -0.041097891
1.5557897 0.2089687 -0.027400361
1.5460703 0.20766318 -0.011925453
1.5560229 0.20899999 0.0034251225
1.5361133 0.20632583 0.016907459
1.5557593 0.20896459 0.029098822
1.5554008 0.20891649 0.04452166
1.5244187 0.24144427 -0.73617405
1.538867 0.24373268 -0.72861707
1.5353447 0.24317472 -0.71251857
1.5316578 0.24259083 -0.69654447
1.5376031 0.2435324 -0.68298525
1.5329146 0.24278985 -0.66882414
1.5379198 0.24358259 -0.65694016
1.5330085 0.24280469 -0.64290822
1.5293336 0.24222265 -0.62559307
1.5162883 0.24015658 -0.60472709
1.5214428 0.24097291 -0.59130716
1.5258528 0.24167135 -0.57954127
1.5307899 0.24245331 -0.56603783
1.5350189 0.24312314 -0.55417335
1.5210735 0.24091437 -0.53403723
1.5349782 0.24311671 -0.52377146
1.5300473 0.24233571 -0.50707865
1.5343596 0.24301866 -0.49354088
1.529116 0.24218825 -0.47702098
1.5232041 0.24125192 -0.46232754
1.5371058 0.24345371 -0.44992891
1.5314133 0.24255207 -0.43363759
1.5441674 0.24457219 -0.42441913
1.5482119 0.2452127 -0.40903646
1.5416725 0.24417695 -0.39461806
1.5354187 0.24318644 -0.37861556
1.5382326 0.24363217 -0.36672071
1.5317013 0.24259765 -0.35090902
1.5443196 0.24459626 -0.33948436
1.5368155 0.24340762 -0.32718587
1.539577 0.24384506 -0.31359515
1.5422213 0.24426384 -0.29998055
1.5544636 0.24620284 -0.28814402
1.5471575 0.24504574 -0.27268389
1.5494487 0.24540861 -0.25900388
1.5516222 0.24575283 -0.24530415
1.5536773 0.24607833 -0.23158574
1.5558462 0.24642183 -0.21614525
1.5478535 0.24515595 -0.20111774
1.5508978 0.24563809 -0.17543586
1.5423504 0.24428429 -0.16242006
1.553524 0.24605407 -0.14973442
1.5449152 0.24469055 -0.13514207
1.5560002 0.24644621 -0.12052877
1.5569799 0.24660134 -0.10677642
1.5578409 0.24673772 -0.093015954
1.5586672 0.24686855 -0.077540778
1.5494752 0.24541277 -0.061637994
1.5499978 0.24549556 -0.046247408
1.5503373 0.24554932 -0.032550931
1.5406828 0.24402016 -0.0187319
1.5605438 0.24716586 -0.0034471038
1.5605142 0.24716109 0.010340921
1.5702145 0.24869746 0.026001198
1.5600128 0.2470817 0.041359495
1.5465482 0.2824499 -0.74566132
1.5342577 0.28020519 -0.72521621
1.5388941 0.28105202 -0.71499294
1.5262698 0.2787464 -0.69483888
1.5411893 0.28147116 -0.68528056
1.5282009 0.27909908 -0.66543657
1.5338552 0.28013173 -0.65185469
1.5393927 0.28114304 -0.63822329
1.526531 0.27879414 -0.61715215
1.540296 0.28130808 -0.60889596
1.5349917 0.28033933 -0.59507173
1.5301938 0.27946308 -0.57966143
1.5345082 0.280251 -0.56775349
1.5300505 0.27943692 -0.55078137
1.5434364 0.2818816 -0.54216868
1.5288242 0.27921286 -0.52377146
1.5332624 0.28002349 -0.51018953
1.5282083 0.27910039 -0.49354088
1.5323868 0.27986357 -0.47996557
1.5270228 0.2788839 -0.4634926
1.5309434 0.27959999 -0.44992891
1.5536951 0.28375509 -0.44171777
1.5384349 0.2809681 -0.42269981
1.5324863 0.27988175 -0.40651152
1.5450292 0.28217253 -0.39706913
1.538821 0.28103867 -0.38098189
1.5324552 0.27987608 -0.36503524
1.5259333 0.27868494 -0.34923068
1.5381284 0.28091213 -0.33948436
1.5413301 0.28149685 -0.32413161
1.5344036 0.28023186 -0.30850604
1.5466602 0.28247032 -0.2967374
1.5494537 0.28298047 -0.28127414
1.5518093 0.28341076 -0.2675184
1.5440603 0.28199556 -0.25388244
1.546181 0.28238279 -0.24017559
1.5481839 0.28274852 -0.22645047
1.5498416 0.28305131 -0.21441305
1.5518359 0.28341556 -0.19894953
1.5532867 0.28368044 -0.18688454
1.5550152 0.28399622 -0.17138799
1.5564272 0.28425407 -0.15758711
1.5479238 0.28270108 -0.14286999
1.5588958 0.28470498 -0.1299504
1.5501409 0.28310603 -0.1153864
1.5510724 0.28327608 -0.1016309
1.5517914 0.28340745 -0.089574687
1.5525012 0.28353709 -0.075805523
1.5629883 0.28545231 -0.06070393
1.5634995 0.28554565 -0.045088977
1.5540237 0.28381515 -0.029311899
1.5640689 0.28564966 -0.01387527
1.5641277 0.28566045 0.0017204662
1.5640354 0.28564358 0.017343787
1.5637927 0.28559929 0.032937687
1.5633988 0.28552729 0.048556156
1.5426358 0.31946462 -0.73879451
1.5384449 0.31859666 -0.72428143
1.55426 0.32187173 -0.71293372
1.5423586 0.31940714 -0.69102037
1.5474862 0.32046905 -0.67895949
1.5344596 0.31777135 -0.65913212
1.5400336 0.31892565 -0.64543241
1.5363991 0.31817302 -0.62796772
1.5325843 0.31738296 -0.61061728
1.5371104 0.3183203 -0.59863502
1.5415366 0.31923696 -0.58664531
1.5452633 0.32000861 -0.57632941
1.540309 0.31898269 -0.56089056
1.5259569 0.31601056 -0.54230368
1.5485168 0.32068244 -0.53680396
1.525146 0.3158426 -0.51358873
1.5388027 0.31867078 -0.50302613
1.5331662 0.31750348 -0.48805013
1.5367748 0.31825081 -0.47606695
1.5304041 0.31693146 -0.4629451
1.5343015 0.31773862 -0.44928899
1.5475186 0.32047573 -0.43827102
1.5417464 0.31928036 -0.42187512
1.5353745 0.31796077 -0.40733999
1.5482957 0.32063672 -0.39607158
1.5230639 0.31541142 -0.37522313
1.5357509 0.31803879 -0.36389598
1.5388021 0.3186706 -0.35019597
1.53216 0.3172951 -0.33437943
1.5250269 0.31581798 -0.32039356
1.5373149 0.31836262 -0.30872029
1.5398946 0.31889686 -0.29500845
1.5619371 0.32346162 -0.28306419
1.5640104 0.32389101 -0.2708624
1.556597 0.32235572 -0.25532821
1.5487788 0.32073674 -0.24168614
1.5604775 0.32315934 -0.2292989
1.5623775 0.32355285 -0.21538366
1.5544431 0.32190973 -0.20020078
1.5660213 0.32430744 -0.18574671
1.5578127 0.32260746 -0.17071675
1.5592122 0.32289737 -0.15682749
1.570246 0.32518226 -0.14381959
1.5617906 0.32343137 -0.12728842
1.5626978 0.32361913 -0.11509232
1.5538492 0.3217867 -0.10052939
1.5643318 0.32395756 -0.0889799
1.5748141 0.3261283 -0.075504638
1.5558935 0.32221007 -0.058956869
1.556385 0.32231182 -0.043369096
1.5762774 0.32643127 -0.029868452
1.5666968 0.32444727 -0.013962533
1.5569633 0.32243156 0.0017204689
1.5666633 0.32444036 0.01745287
1.5566641 0.32236969 0.031217495
1.5660774 0.32431901 0.047103044
1.5378067 0.3564446 -0.73191369
1.5335758 0.35546383 -0.71741939
1.5388618 0.35668901 -0.70539182
1.5262194 0.35375872 -0.68528056
1.5395064 0.35683855 -0.67895949
1.5445064 0.35799745 -0.66688663
1.5314111 0.35496202 -0.64713383
1.5271385 0.35397169 -0.63138926
1.5317957 0.35505119 -0.61938715
1.5370029 0.35625818 -0.6056419
1.5323372 0.35517666 -0.59007835
1.5372951 0.35632589 -0.57632941
1.5329566 0.3553203 -0.55918813
1.5278721 0.3541418 -0.54386616
1.5410967 0.35720703 -0.53509241
1.517822 0.35181221 -0.51190299
1.5308678 0.35483608 -0.50302613
1.5345607 0.35569206 -0.49102601
1.5480018 0.35880753 -0.48015341
1.5328392 0.35529307 -0.46235353
1.5268626 0.35390773 -0.44759318
1.5390682 0.35673687 -0.44000843
1.5333433 0.35540989 -0.42360607
1.536886 0.35623106 -0.40985441
1.5592113 0.36140576 -0.40093133
1.5341501 0.35559693 -0.37991339
1.5377127 0.35642269 -0.36442077
1.5308671 0.35483602 -0.35019594
1.5433125 0.3577207 -0.33855915
1.5362468 0.35608295 -0.32442364
1.5293877 0.35449299 -0.30872026
1.5507824 0.3594521 -0.30044657
1.533802 0.35551628 -0.28470972
1.5457649 0.35828903 -0.27265278
1.5386791 0.35664675 -0.25547916
1.5501651 0.35930899 -0.24491872
1.5521882 0.35977793 -0.23102319
1.5444403 0.35798198 -0.21576156
1.5462158 0.35839355 -0.20191842
1.5478733 0.3587777 -0.18805991
1.5592809 0.36142188 -0.17354381
1.5508349 0.35946423 -0.16030097
1.5521386 0.35976642 -0.14640266
1.5533241 0.36004126 -0.13249321
1.5446764 0.35803676 -0.11783257
1.545728 0.35828054 -0.10227413
1.5465386 0.35846841 -0.088423774
1.5472314 0.35862899 -0.074566692
1.5576055 0.36103362 -0.059327666
1.5580974 0.36114758 -0.043641854
1.55844 0.36122704 -0.027923925
1.5683856 0.36353225 -0.010537425
1.5586691 0.36128014 0.005221942
1.548803 0.35899329 0.020812385
1.5582688 0.36118734 0.036634676
1.5578429 0.36108863 0.052350458
1.5385401 0.39503008 -0.73440164
1.5446889 0.39660874 -0.72051203
1.5411217 0.3956928 -0.70425224
1.5470155 0.3972061 -0.69034052
1.5431504 0.39621368 -0.6742413
1.5384471 0.39500615 -0.65996242
1.5432889 0.39624926 -0.6478011
1.5390294 0.39515564 -0.63193423
1.5430024 0.39617565 -0.62152112
1.5475593 0.39734575 -0.60932493
1.5520155 0.39848986 -0.59712112
1.538188 0.39493951 -0.57801408
1.5338848 0.39383468 -0.56079561
1.5471376 0.39723745 -0.55196691
1.5517442 0.39842018 -0.53800684
1.5464773 0.39706787 -0.52263319
1.5410651 0.39567831 -0.50740206
1.535527 0.39425632 -0.49225909
1.5478835 0.39742896 -0.48477548
1.5328398 0.3935664 -0.46691316
1.5357668 0.3943179 -0.45654541
1.5484302 0.39756933 -0.44710454
1.5329931 0.39360574 -0.42965883
1.5450479 0.39670089 -0.42184749
1.5387437 0.39508221 -0.40715834
1.5515298 0.39836517 -0.39567742
1.5288887 0.39255193 -0.36442077
1.5319107 0.39332786 -0.35063222
1.5253419 0.39164129 -0.33473787
1.5277703 0.39226475 -0.32271698
1.5402758 0.39547566 -0.30911064
1.5520363 0.39849517 -0.29880604
1.544966 0.39667985 -0.28306416
1.5377485 0.39482668 -0.26747257
1.5492473 0.39777908 -0.25691408
1.5513598 0.39832154 -0.24294622
1.5437655 0.39637166 -0.22754653
1.5451751 0.39673346 -0.21711007
1.5469513 0.39718962 -0.20318042
1.5582285 0.40008503 -0.19041066
1.5597785 0.40048301 -0.17636441
1.5515727 0.39837623 -0.16130285
1.5528769 0.39871103 -0.14731768
1.5542018 0.39905119 -0.131585
1.5552548 0.39932156 -0.11757728
1.5561894 0.39956152 -0.1035606
1.5473347 0.39728796 -0.0889799
1.5578589 0.39999014 -0.071995847
1.5487285 0.39764589 -0.057597451
1.5491564 0.3977558 -0.04364185
1.5494664 0.39783537 -0.029682929
1.5593596 0.40037549 -0.014049794
1.5497329 0.39790386 -7.1202898e-08
1.5690114 0.40285367 0.017671036
1.5590843 0.40030479 0.033352006
1.5586915 0.40020394 0.049166936
1.5509242 0.43740588 -0.7322638
1.5401725 0.43437353 -0.70829964
1.5534275 0.43811193 -0.70179844
1.5408233 0.43455711 -0.68163294
1.5457933 0.43595883 -0.66937476
1.5499768 0.43713871 -0.65884864
1.5547681 0.43849 -0.64654666
1.5415547 0.4347634 -0.62688935
1.5544558 0.43840191 -0.61997664
1.5505886 0.43731126 -0.60235673
1.5555887 0.43872145 -0.58827472
1.5501957 0.4372004 -0.57432508
1.545867 0.43597963 -0.55697137
1.5407934 0.43454871 -0.54150075
1.5452828 0.43581483 -0.52750981
1.5582851 0.43948188 -0.51826936
1.5441954 0.43550816 -0.4981899
1.5483209 0.43667164 -0.48416978
1.5430883 0.43519595 -0.46731451
1.546474 0.43615076 -0.45507264
1.5493073 0.43694988 -0.44454649
1.5525328 0.43785957 -0.43222788
1.5463452 0.4361144 -0.41739774
1.5302794 0.43158349 -0.40197119
1.5331922 0.43240491 -0.38980493
1.536009 0.43319932 -0.37764373
1.5383549 0.43386099 -0.36719042
1.5413804 0.43471429 -0.35322824
1.5376453 0.43366089 -0.32324117
1.5419049 0.43486217 -0.30053982
1.5440662 0.43547174 -0.2883122
