# .PCD v0.7 - Point Cloud Data file format
VERSION 0.7
FIELDS x y z
SIZE 4 4 4
TYPE F F F
COUNT 1 1 1
WIDTH 242
HEIGHT 1
VIEWPOINT 0 0 0 1 0 0 0
POINTS 242
DATA ascii
0.79193133 -0.34269932 0.7752431
0.77891916 -0.33706847 0.77599591
0.77645832 -0.33600357 0.83684772
0.75011379 -0.32460326 0.83717501
0.76433444 -0.30958736 0.72797567
0.7989949 -0.32362628 0.77619147
0.77901947 -0.31553543 0.77017277
0.74433637 -0.30148733 0.83705962
0.81505805 -0.30798486 0.76578438
0.78862131 -0.29799521 0.75244623
0.76167595 -0.28781343 0.7396034
0.77621692 -0.29330796 0.76704478
1.3970692 -0.49061581 0.75039548
1.3908377 -0.48842749 0.76328838
0.80634117 -0.28316689 0.76950014
0.79997462 -0.28093114 0.77692866
0.76414937 -0.26835018 0.77360451
1.4286653 -0.46420151 0.68259239
1.3695643 -0.44499847 0.7636556
0.87035412 -0.28279522 0.83672607
1.5248145 -0.41714206 0.24684675
1.5224056 -0.41648307 0.26234072
1.5332198 -0.41944149 0.31257907
1.5172213 -0.41506484 0.34330824
1.5161676 -0.41477659 0.39191335
1.5310583 -0.41885015 0.41234097
1.5177648 -0.41521344 0.42530885
1.5229542 -0.41663322 0.44342637
1.5186779 -0.4154633 0.45891947
1.5137593 -0.41411772 0.47606674
1.5127907 -0.41385278 0.54386598
1.5147238 -0.41438159 0.59690851
1.5186276 -0.41544959 0.6142242
1.5044447 -0.41156951 0.62422454
1.5073752 -0.41237125 0.643327
1.5271363 -0.37934268 0.22815315
1.521065 -0.37783453 0.48290992
1.4430532 -0.35845628 0.66783708
0.56953532 -0.14147334 0.72146714
0.8026697 -0.179418 0.84612674
0.66030055 -0.14759468 0.77660733
0.61476111 -0.13741541 0.75072348
0.60673279 -0.13562088 0.75755018
1.4625645 -0.29092225 0.63298428
1.4515069 -0.28872266 0.65891325
1.4547369 -0.28936514 0.67594987
1.457785 -0.2899715 0.69309384
1.4570458 -0.28982443 0.74068826
1.4202105 -0.28249747 0.76993322
0.79032046 -0.15720452 0.83443409
0.64825505 -0.12894599 0.76370043
0.63426101 -0.12616239 0.7758196
0.58175629 -0.11571854 0.7292248
1.4830569 -0.25883484 0.11681785
1.4628257 -0.25530389 0.64758062
1.4529132 -0.25357392 0.67018163
1.459712 -0.25476053 0.70280701
1.4049752 -0.24520747 0.76832151
0.66400635 -0.11588769 0.7788232
0.59921235 -0.10457934 0.72973132
1.5274085 -0.22963563 0.41748109
1.4642118 -0.22013442 0.65728557
1.4622624 -0.21984135 0.70926577
0.82331103 -0.12377935 0.83620429
0.6584155 -0.098988369 0.77271622
0.6261645 -0.09413968 0.74796778
0.63697916 -0.095765576 0.77793735
1.4703267 -0.18574558 0.62907702
1.4696965 -0.18566583 0.65568292
1.4646924 -0.18503366 0.66696239
1.4603302 -0.18448268 0.67661059
0.68790227 -0.086902305 0.77513766
0.66722965 -0.084290728 0.76687652
0.66056484 -0.083448783 0.77271622
0.62820858 -0.079361245 0.74796778
0.61374933 -0.077534601 0.74712795
1.4744639 -0.15107068 0.60260546
1.469849 -0.15059786 0.61389261
1.4694787 -0.15055995 0.64036202
1.4655709 -0.15015958 0.72052318
0.84706581 -0.086788766 0.83129251
0.83365452 -0.0854147 0.83073729
0.81216311 -0.083212726 0.83807319
0.66736442 -0.068376914 0.76834196
0.60263509 -0.061744854 0.7187618
1.1613932 -0.091403715 0.84641069
0.65322214 -0.05140974 0.75541902
0.62722665 -0.049363866 0.73827499
0.61916095 -0.048729077 0.74509406
1.1542375 -0.063521616 0.84178424
0.67810017 -0.037318189 0.77439493
0.65829128 -0.03622799 0.76514059
0.63143629 -0.034750119 0.74865252
0.59144652 -0.032549307 0.71695989
1.1374414 -0.035745554 0.83249575
0.77345103 -0.024306707 0.83712763
0.67879111 -0.021331925 0.77439493
0.56991947 -0.017910464 0.69632679
1.5532095 -0.012199058 0.22867255
1.4801626 -0.011625387 0.60743976
1.4792082 -0.011617878 0.63553751
1.1559484 -0.0090790316 0.84178424
0.84874189 -0.0066661756 0.83408195
0.67487848 -0.0053006294 0.7780816
0.65509087 -0.0051452098 0.76871932
0.55062729 -0.0043247454 0.66059887
1.1866097 0.018640704 0.85041738
1.131593 0.017776439 0.82412446
0.6765117 0.01062746 0.77660733
0.6241954 0.0098056048 0.72930366
0.63546032 0.0099825691 0.75907212
1.4879959 0.058463473 0.63784796
1.4179771 0.055712353 0.7604847
1.176805 0.046236761 0.84586751
0.67352366 0.026462745 0.7788232
0.62707013 0.024637593 0.73964584
0.60540503 0.023786411 0.73172325
1.4879074 0.093611136 0.68335104
1.4734031 0.092698641 0.82255095
1.1591768 0.072929151 0.83420038
0.8336547 0.052449055 0.83346796
0.80602866 0.050711013 0.83267415
0.67440742 0.042430054 0.77735078
0.62705278 0.03945078 0.752096
0.67335171 0.058318537 0.76393479
0.66014832 0.057175022 0.76225662
0.65349615 0.056598853 0.76800996
0.61317486 0.053106651 0.73674709
1.4883618 0.16431661 0.82575953
1.1463814 0.12656166 0.82836682
0.64552605 0.071266666 0.7604059
0.59979659 0.066218123 0.72073513
0.56599599 0.062486514 0.6969533
1.4925206 0.20047046 0.62377393
1.4961919 0.20096369 0.64079899
1.4953817 0.20085485 0.66782528
1.4895489 0.20007135 0.68096656
1.4933541 0.20058246 0.69660598
1.1907024 0.1599313 0.84708285
0.67308182 0.090406135 0.77439493
0.6598891 0.088634148 0.77271622
0.62756592 0.084292606 0.74796778
0.59415895 0.079805478 0.7240209
1.1722574 0.18566732 0.83297056
0.79767913 0.1263399 0.83267415
0.63503784 0.10058008 0.75280184
0.62217635 0.098542973 0.75072348
0.58898795 0.093286484 0.72662979
1.1827478 0.21600807 0.84578234
0.82268226 0.15024842 0.77473819
0.68042243 0.12426712 0.77664852
0.62129176 0.11346801 0.74934739
0.62738293 0.11458041 0.770235
0.56108969 0.1024731 0.70906818
1.462517 0.30287266 0.7692281
1.1800417 0.24437492 0.84183276
0.62798506 0.13004939 0.75420278
0.59563172 0.12334932 0.72973138
0.5568648 0.11532108 0.69756913
1.178405 0.27313957 0.83525813
0.77382559 0.17936312 0.83157855
0.65353209 0.15148054 0.76834196
0.63348919 0.14683487 0.75969136
0.62700683 0.14533231 0.76533717
0.5693298 0.13196351 0.71052742
0.85539025 0.21962683 0.82714665
0.81257516 0.20863377 0.82981539
0.64571977 0.16579261 0.77198374
0.62582487 0.16068448 0.76323247
0.61154652 0.15701838 0.76253271
0.55468976 0.14242007 0.70720285
0.8074342 0.22771992 0.82981539
0.62646395 0.17668104 0.77228665
0.59540117 0.16792043 0.74712801
0.55649239 0.15694703 0.71560037
1.1613716 0.35728452 0.8273232
0.66271794 0.2038786 0.77513772
0.63014227 0.19385701 0.76514065
0.62991202 0.19378616 0.7784971
0.59816831 0.18402055 0.75414264
0.54208481 0.166767 0.69880819
1.1656193 0.38887995 0.82492661
0.8696112 0.29012415 0.77434117
0.77878273 0.25982153 0.83360076
0.61611438 0.20555124 0.74716246
0.62838793 0.209646 0.77561408
0.57695216 0.19248573 0.74274862
1.1881368 0.42775548 0.8279227
1.164804 0.41935518 0.82913971
0.63659537 0.22918838 0.77660739
0.62327427 0.22439249 0.77561408
0.59269077 0.21338175 0.75072354
0.57453483 0.20684521 0.74075961
0.55947345 0.20142277 0.74089026
0.61487716 0.23787798 0.76514065
0.60182989 0.23283038 0.76393121
0.55316406 0.21400295 0.71631861
0.56345165 0.21798295 0.74606013
0.87128568 0.36089826 0.77395976
0.76099706 0.31521523 0.83091688
0.64059007 0.26534098 0.77513772
0.62821716 0.260216 0.77364779
0.60987908 0.2526201 0.76441526
0.59097135 0.24478826 0.75560015
0.55383223 0.22940475 0.73698258
0.61881882 0.27357683 0.77660739
0.60070175 0.26556739 0.76728833
0.58278155 0.25764495 0.75768381
0.57518774 0.25428778 0.76458931
0.53240097 0.23537192 0.72529256
0.61373317 0.28880084 0.77512944
0.58989263 0.27758229 0.75827092
0.56627208 0.2664673 0.75414264
0.54664916 0.25723347 0.74606013
0.63456291 0.31707305 0.77414119
0.58602619 0.29282057 0.76871938
0.56203574 0.28083327 0.75209606
0.5320242 0.26583734 0.72792906
0.59869391 0.31699204 0.77587479
0.56895155 0.30124423 0.75209451
0.56881773 0.30117339 0.76533717
0.53333557 0.2823866 0.73369682
0.63148665 0.35364944 0.77443957
0.60200566 0.33713925 0.77815574
0.57886398 0.32417929 0.7615276
0.57304376 0.32091981 0.76728833
0.55450505 0.3105377 0.75907218
0.61493242 0.36366993 0.76948184
0.58533531 0.34616625 0.76023126
0.54982132 0.32516333 0.72997624
0.78865707 0.49185109 0.7747274
0.64087951 0.39968863 0.77196014
0.62854964 0.39199907 0.77211541
0.61698788 0.38478845 0.77127415
0.58818728 0.36682677 0.74824721
0.58692509 0.3660396 0.76317364
0.59074205 0.38804489 0.76291871
0.55007339 0.3613306 0.72612637
0.59609187 0.41198432 0.77365589
0.5731709 0.39614269 0.77210498
0.53834498 0.37207302 0.7561391
0.54146504 0.37422943 0.77920979
