# .PCD v0.7 - Point Cloud Data file format
VERSION 0.7
FIELDS x y z
SIZE 4 4 4
TYPE F F F
COUNT 1 1 1
WIDTH 82
HEIGHT 1
VIEWPOINT 0 0 0 1 0 0 0
POINTS 82
DATA ascii
1.4992299 -0.48712924 -1.5057937
1.5083675 -0.49009824 -0.8081032
1.5065056 -0.48949331 -0.78977025
1.4960673 -0.44741896 -1.5211834
1.5018076 -0.44913563 -1.5005834
1.4933614 -0.44660971 -1.4662917
1.4892839 -0.44539031 -1.4119704
1.480637 -0.44280431 -1.33163
1.4718648 -0.44018087 -1.2805681
1.5090457 -0.45130032 -0.78530824
1.4842117 -0.40603426 -1.2460545
1.5765716 -0.19916722 -1.418328
1.5723542 -0.19863448 -1.3929633
1.5678691 -0.19806787 -1.3677191
1.5093557 -0.08306478 -1.2159545
1.5296839 -0.084183529 -0.75965786
1.5083491 -0.047401652 -1.1870282
1.5093412 0.023710676 -1.0867045
1.5461937 0.060750175 -0.77362424
1.4689971 0.092421539 -1.1041312
1.4291843 0.089916714 -1.0572357
1.4372085 0.090421624 -1.0462579
1.4207746 0.089387655 -1.0177963
1.444824 0.090900719 -1.0183911
1.4372132 0.090421855 -0.99435502
1.421033 0.089403868 -0.96492046
1.4376932 0.090452015 -0.95799607
1.4292655 0.089921832 -0.93445939
1.4205384 0.089372754 -0.91114384
1.4189863 0.089275055 -0.89493442
1.435219 0.09029644 -0.88774598
1.4419501 0.090719812 -0.87672687
1.4323766 0.090117626 -0.85385948
1.4397585 0.090582006 -0.84130257
1.4210364 0.089404039 -0.81379515
1.4367776 0.09039443 -0.80622512
1.4437447 0.090832822 -0.79363155
1.4497437 0.091210172 -0.78257519
1.4918133 0.093856983 -0.78853267
1.4854287 0.12865211 -1.1286497
1.4368776 0.12444723 -1.0769844
1.4289635 0.12376178 -1.0541091
1.4369498 0.12445337 -1.0431137
1.4042491 0.12162119 -1.0030916
1.4526523 0.12581336 -1.0209662
1.4275507 0.12363935 -0.98712307
1.4278251 0.12366319 -0.96898019
1.4268675 0.1235801 -0.95245856
1.4257257 0.12348127 -0.93603349
1.4328128 0.12409514 -0.92506641
1.4313804 0.12397105 -0.90872508
1.4138283 0.12245088 -0.88033825
1.4204917 0.12302803 -0.8694641
1.4279966 0.12367796 -0.85698861
1.4430566 0.12498235 -0.85109764
1.4158678 0.12262749 -0.81846267
1.4316059 0.12399059 -0.81094444
1.4377401 0.12452184 -0.79993594
1.4533956 0.12587772 -0.79208362
1.4769547 0.12791823 -0.79034287
1.4609836 0.16129418 -1.0901427
1.452 0.1603024 -1.0686904
1.4612142 0.16131961 -1.0559019
1.4448434 0.15951228 -1.0273186
1.4291986 0.15778512 -0.9974944
1.4449288 0.1595217 -0.99213576
1.4287043 0.15773046 -0.96271765
1.4453068 0.15956342 -0.95562971
1.4358299 0.15851712 -0.93362987
1.4260885 0.15744168 -0.91185737
1.4414046 0.1591326 -0.90616202
1.4322598 0.15812302 -0.88302261
1.4143047 0.1561408 -0.85496324
1.4207451 0.15685177 -0.84408593
1.4271171 0.15755533 -0.83313447
1.4247568 0.15729468 -0.81720668
1.4317908 0.15807115 -0.80466682
1.4212768 0.15691046 -0.78246492
1.4446921 0.15949552 -0.78097749
1.4865968 0.16412185 -0.7868886
1.6234308 0.41682628 -1.4095488
1.635386 0.41989586 -1.3310521
