# .PCD v0.7 - Point Cloud Data file format
VERSION 0.7
FIELDS x y z
SIZE 4 4 4
TYPE F F F
COUNT 1 1 1
WIDTH 191
HEIGHT 1
VIEWPOINT 0 0 0 1 0 0 0
POINTS 191
DATA ascii
1.3157316 0.4389613 -0.73556995
1.3133516 0.4381673 -0.71883011
1.311527 0.43755856 -0.70067066
1.3257759 0.44231233 -0.69302118
1.3236207 0.44159332 -0.67492485
1.3205822 0.44057959 -0.65844703
1.3352704 0.44547996 -0.64892268
1.3152845 0.43881211 -0.62279266
1.3377634 0.44631165 -0.61870426
1.3428341 0.44800335 -0.60637414
1.3390505 0.4467411 -0.5901407
1.3526683 0.45128438 -0.58157623
1.3486166 0.44993258 -0.56541485
1.3355563 0.44557527 -0.54575831
1.3583348 0.45317483 -0.53894264
1.3449308 0.44870284 -0.5195449
1.3497002 0.45029408 -0.50561321
1.3628 0.4546645 -0.49644363
1.3668578 0.45601827 -0.48388779
1.3527743 0.45131969 -0.46509388
1.3479972 0.4497259 -0.44805169
1.3516548 0.45094618 -0.4356339
1.355643 0.4522768 -0.42163673
1.3590817 0.45342407 -0.40914962
1.3719764 0.45772594 -0.3977032
1.3477119 0.44963074 -0.37736538
1.3695415 0.45691365 -0.36835617
1.3817501 0.4609867 -0.35813075
1.356969 0.45271915 -0.33849776
1.3600585 0.4537499 -0.32442528
1.3441523 0.44844317 -0.30765769
1.3562396 0.45247576 -0.29577008
1.3772477 0.45948461 -0.28716284
1.4075367 0.46958983 -0.2800459
1.3911285 0.46411559 -0.26354918
1.3745558 0.45858654 -0.24737597
1.3952796 0.46550053 -0.23791498
1.4065732 0.46926829 -0.22658074
1.399006 0.46674371 -0.21220829
1.4009165 0.46738109 -0.19770649
1.3932745 0.46483153 -0.18198179
1.4133989 0.47154555 -0.17305593
1.397316 0.46617991 -0.14347154
1.3701035 0.45710111 -0.12796409
1.4090573 0.47009709 -0.11690411
1.4099712 0.470402 -0.10393721
1.4013096 0.46751225 -0.090351894
1.4115565 0.47093084 -0.076370463
1.4026575 0.46796194 -0.062956728
1.3842148 0.46180895 -0.047769915
1.4037869 0.46833879 -0.020999853
1.4039073 0.46837887 -0.0080850804
1.384949 0.46205392 0.0047650323
1.2567599 0.45246142 -0.74614561
1.2215691 0.43979201 -0.71045893
1.2439418 0.44784665 -0.70854932
1.2413807 0.4469246 -0.69233841
1.2637564 0.45498037 -0.68993664
1.2532518 0.45119846 -0.66774237
1.2502391 0.4501138 -0.65168989
1.2561933 0.45225742 -0.63862491
1.2699119 0.45719641 -0.63118571
1.2658614 0.45573819 -0.61668271
1.2543094 0.45157924 -0.59530175
1.2770094 0.45975167 -0.59014869
1.2731454 0.45836058 -0.57437479
1.2696884 0.45711601 -0.55725795
1.2654879 0.45560369 -0.5417245
1.2791969 0.46053928 -0.53212696
1.3010997 0.46842471 -0.52736896
1.252962 0.45109409 -0.49295086
1.3012209 0.46846837 -0.49825859
1.2791163 0.46051025 -0.4747546
1.282486 0.46172345 -0.46437195
1.2688462 0.45681274 -0.44469267
1.272449 0.45810986 -0.43290737
1.3029118 0.4690772 -0.42998534
1.2887923 0.46399379 -0.41063872
1.283079 0.46193689 -0.39588183
1.2504327 0.45018354 -0.37168932
1.2806854 0.46107516 -0.36790538
1.2749127 0.45899683 -0.3520222
1.3051348 0.46987748 -0.34747383
1.2991354 0.46771753 -0.33149248
1.2743049 0.45877799 -0.31268203
1.2584519 0.45307061 -0.29652232
1.2703333 0.45734811 -0.28545734
1.2910726 0.46481481 -0.27763048
1.2750974 0.45906335 -0.26036048
1.3049515 0.4698115 -0.2539269
1.2701474 0.4572812 -0.23349336
1.3091555 0.47132498 -0.22817715
1.2833039 0.46201786 -0.20993032
1.3129129 0.47267774 -0.20232464
1.2960685 0.46661344 -0.18595234
1.2880346 0.46372092 -0.17415462
1.2894155 0.46421817 -0.16220166
1.2906981 0.46467984 -0.15023634
1.3199669 0.47521731 -0.14126523
1.3210765 0.47561681 -0.12901734
1.2845795 0.46247709 -0.11344729
1.3136109 0.47292903 -0.10375194
1.2863373 0.46310994 -0.088122979
1.3151945 0.47349915 -0.077857397
1.3158509 0.47373545 -0.064118467
1.3069248 0.4705219 -0.051540896
1.297852 0.4672555 -0.040650569
1.2981364 0.46735784 -0.028611628
1.2983382 0.4674305 -0.015053217
1.2984123 0.46745726 -0.0030107421
1.2983776 0.46744475 0.010525229
1.3076494 0.47078276 0.022730626
1.2241929 0.47360456 -0.74642509
1.1976327 0.46332914 -0.71547347
1.2197829 0.47189847 -0.71382165
1.2173209 0.47094604 -0.69766724
1.2064264 0.46673122 -0.67697674
1.236792 0.47847873 -0.67934066
1.2172616 0.47092307 -0.65429789
1.2386185 0.4791854 -0.65315056
1.2186731 0.47146904 -0.62853205
1.2153027 0.47016522 -0.61284935
1.1863484 0.45896363 -0.58474755
1.2080775 0.46736997 -0.58181947
1.2292635 0.47556621 -0.57995528
1.2339368 0.47737414 -0.5684312
1.2041128 0.46583614 -0.54139543
1.2084732 0.46752304 -0.53010809
1.2208675 0.47231805 -0.52392572
1.233252 0.47710922 -0.51754814
1.2194765 0.47177991 -0.50030059
1.214272 0.4697665 -0.48678833
1.2347314 0.47768158 -0.48513794
1.2386327 0.47919092 -0.47356629
1.233628 0.47725472 -0.4586823
1.2108004 0.4684234 -0.43754083
1.2143153 0.46978319 -0.42619494
1.2266263 0.47454596 -0.41784441
1.2206531 0.47223502 -0.40484598
1.2149678 0.47003567 -0.39053753
1.2270567 0.47471252 -0.38194233
1.2028152 0.46533418 -0.36373025
1.2140024 0.46966213 -0.3579329
1.2348969 0.47774562 -0.35169429
1.2196435 0.47184449 -0.33516082
1.1951619 0.46237329 -0.31654194
1.2158396 0.47037289 -0.30997345
1.2177056 0.47109485 -0.30143449
1.2016082 0.4648672 -0.28711718
1.2127385 0.46917316 -0.27936015
1.2058308 0.46650079 -0.2659871
1.226252 0.47440106 -0.25855321
1.2097262 0.46800783 -0.24480832
1.2203704 0.47212568 -0.2381039
1.2220323 0.47276866 -0.22809404
1.2236192 0.47338259 -0.21809377
1.2159269 0.47040668 -0.20649354
1.2173603 0.47096118 -0.19654383
1.2369965 0.47855783 -0.19084503
1.2013562 0.46476966 -0.17530626
1.2210693 0.47239605 -0.16802239
1.231491 0.47642791 -0.15920591
1.2420084 0.48049679 -0.14878736
1.224478 0.47371474 -0.13655698
1.2348272 0.47771856 -0.12604225
1.2263988 0.47445795 -0.11504562
1.2272885 0.47480208 -0.10356606
1.2373883 0.47870943 -0.092776157
1.2193955 0.47174856 -0.081411317
1.2106278 0.46835658 -0.070868894
1.248425 0.48297921 -0.061370529
1.2208663 0.47231758 -0.050013911
1.2398716 0.47967017 -0.03917772
1.2308189 0.47616792 -0.02736764
1.2496462 0.48345163 -0.016090199
1.2404032 0.47987586 -0.0043640602
1.2590507 0.48708999 0.0058904202
1.2309949 0.47623608 0.015826918
1.1886019 0.49233505 -0.73159546
1.1955097 0.49519637 -0.53435695
1.1912025 0.49341229 -0.51930833
1.1906734 0.49319312 -0.43434706
1.1932743 0.49427035 -0.42590281
1.2031655 0.49836746 -0.39194694
1.2047294 0.49901527 -0.30856255
1.2043564 0.49886078 -0.26374891
1.197366 0.49596527 -0.25046563
1.1988549 0.49658197 -0.2419779
1.2038742 0.49866107 -0.21077031
1.2070893 0.49999276 -0.1879966
1.205904 0.49950182 -0.11132669
