# .PCD v0.7 - Point Cloud Data file format
VERSION 0.7
FIELDS x y z
SIZE 4 4 4
TYPE F F F
COUNT 1 1 1
WIDTH 1063
HEIGHT 1
VIEWPOINT 0 0 0 1 0 0 0
POINTS 1063
DATA ascii
1.5087444 -0.4902207 -1.5386597
1.5047358 -0.48891822 -1.485136
1.5100135 -0.4906331 -1.4644926
1.5135769 -0.49179092 -1.4455887
1.5184213 -0.49336496 -1.4249868
1.5230397 -0.49486557 -1.4044067
1.5130228 -0.49161085 -1.3707956
1.5170833 -0.49293014 -1.3503993
1.4962611 -0.4861646 -1.3142855
1.5291672 -0.49685648 -1.3195381
1.522566 -0.49471161 -1.2964001
1.5157427 -0.49249455 -1.27341
1.4937614 -0.48535249 -1.238188
1.495186 -0.48581532 -1.2200419
1.5102997 -0.49072602 -1.2158053
1.4887129 -0.48371214 -1.1795576
1.5060911 -0.4893586 -1.171801
1.483795 -0.4821142 -1.1361418
1.4842811 -0.48227209 -1.1183573
1.4912106 -0.48452371 -1.1081189
1.4902738 -0.48421937 -1.0921152
1.4903086 -0.48423064 -1.074477
1.4901923 -0.48419285 -1.0568748
1.4809004 -0.48117375 -1.0355219
1.4804095 -0.48101416 -1.0181417
1.4957672 -0.48600423 -1.0116224
1.4869863 -0.48315114 -0.98890674
1.4789733 -0.48054755 -0.9646821
1.469704 -0.47753575 -0.94235337
1.4928117 -0.48504388 -0.94082183
1.4904468 -0.48427546 -0.92544365
1.4797339 -0.48079467 -0.90511018
1.4770842 -0.47993365 -0.88993591
1.4752234 -0.47932908 -0.87313205
1.4806267 -0.48108473 -0.86296123
1.4609222 -0.47468233 -0.83838123
1.4661095 -0.47636783 -0.82830954
1.4720752 -0.4783062 -0.81652796
1.4771262 -0.47994736 -0.80637997
1.4865602 -0.48301262 -0.76448506
1.5070688 -0.45070907 -1.4509324
1.5239452 -0.45575616 -1.4166076
1.5342758 -0.45884576 -1.4044067
1.5209631 -0.45486435 -1.343938
1.4973403 -0.44779965 -1.2797841
1.5154483 -0.45321515 -1.2723647
1.5109937 -0.45188287 -1.2461139
1.4986478 -0.44819066 -1.2139111
1.4934999 -0.44665116 -1.1880912
1.5021578 -0.44924039 -1.1761397
1.5042199 -0.44985712 -1.156482
1.4893557 -0.4454118 -1.1268663
1.4987204 -0.44821244 -1.1132576
1.4832858 -0.44359642 -1.0840596
1.4990538 -0.44831216 -1.077893
1.5080088 -0.4509902 -1.064198
1.4998034 -0.44853628 -1.0410594
1.4924029 -0.4463231 -1.0164295
1.4685678 -0.43919486 -0.98123187
1.5010571 -0.44891125 -0.9837712
1.4929092 -0.44647443 -0.95957434
1.4926734 -0.44640398 -0.94077069
1.4912654 -0.44598287 -0.92375684
1.4989319 -0.44827569 -0.91013855
1.463964 -0.43781805 -0.87334114
1.4879284 -0.44498491 -0.86974591
1.4774512 -0.44185156 -0.8482365
1.4836205 -0.44369656 -0.8364231
1.4896892 -0.44551152 -0.824588
1.4956851 -0.44730461 -0.81267768
1.493886 -0.44676661 -0.79448348
1.4889209 -0.44528174 -0.76009148
1.5386982 -0.42094019 -1.5438967
1.536073 -0.42022195 -1.5178581
1.5206308 -0.41599742 -1.4765595
1.5330014 -0.41938165 -1.4627458
1.536571 -0.42035821 -1.4438658
1.5399762 -0.42128977 -1.4249868
1.5141901 -0.41423544 -1.3797598
1.5257462 -0.41739687 -1.3660082
1.5284257 -0.41812995 -1.3473983
1.5100991 -0.41311631 -1.3078743
1.4973286 -0.4096227 -1.2768383
1.5310458 -0.4188467 -1.265451
1.5010953 -0.41065314 -1.2241229
1.5177041 -0.41519675 -1.2183125
1.5023674 -0.41100121 -1.1897773
1.4956573 -0.4091655 -1.165844
1.4976538 -0.40971172 -1.1463286
1.4904556 -0.40774244 -1.1226699
1.4908249 -0.40784353 -1.1050359
1.4910403 -0.40790248 -1.0874346
1.4989969 -0.41007912 -1.0756129
1.5000147 -0.41035759 -1.0563912
1.4837002 -0.4058944 -1.0278051
1.5073396 -0.41236138 -1.0270274
1.4986665 -0.4099887 -1.004195
1.4978698 -0.40977073 -0.98695159
1.4969236 -0.40951192 -0.96975237
1.5050293 -0.4117294 -0.95617247
1.4780053 -0.40433639 -0.92526346
1.5013587 -0.41072524 -0.92375684
1.5007397 -0.4105559 -0.90511018
1.4989954 -0.4100787 -0.88822764
1.4727519 -0.40289927 -0.85508728
1.4620967 -0.39998436 -0.8337779
1.4936621 -0.40861964 -0.8364231
1.4921191 -0.40819752 -0.81820238
1.4638529 -0.40046477 -0.78794849
1.4954029 -0.40909594 -0.78994358
1.4847307 -0.40617633 -0.76746035
1.4816688 -0.4053387 -0.75130427
1.5309976 -0.38030174 -1.533433
1.5283083 -0.37963364 -1.5074986
1.5339484 -0.38103476 -1.4868472
1.5393556 -0.38237783 -1.4662098
1.537347 -0.38187888 -1.4388651
1.519019 -0.37732622 -1.4000735
1.5278797 -0.37952724 -1.3897995
1.5147223 -0.376259 -1.3597592
1.530686 -0.38022432 -1.3560345
1.5184802 -0.37719235 -1.3245543
1.5119649 -0.37557396 -1.3014632
1.5201992 -0.37761942 -1.2912389
1.5133107 -0.37590829 -1.268339
1.5012485 -0.37291202 -1.2359568
1.5103534 -0.37517366 -1.2241229
1.5040438 -0.37360638 -1.199946
1.4909734 -0.37035966 -1.1682175
1.4995772 -0.37249684 -1.1564662
1.5068908 -0.37431353 -1.1463286
1.4996482 -0.37251455 -1.1226699
1.4842302 -0.36868471 -1.0934039
1.4911436 -0.37040198 -1.083371
1.4991375 -0.37238765 -1.071594
1.4898916 -0.37009096 -1.050169
1.4965304 -0.37174004 -1.0400989
1.4880117 -0.36962402 -1.0172507
1.4803033 -0.36770922 -0.99292094
1.4958001 -0.37155867 -0.98662323
1.4856194 -0.36902976 -0.96584237
1.4834812 -0.36849856 -0.95052224
1.4894869 -0.36999041 -0.94049752
1.4797785 -0.36757886 -0.91844499
1.4865494 -0.36926067 -0.90676224
1.4764402 -0.36674958 -0.88499659
1.4661111 -0.36418384 -0.86341685
1.4724594 -0.36576074 -0.85186982
1.4711144 -0.36542666 -0.8337779
1.4687183 -0.36483145 -0.81741351
1.4661521 -0.36419398 -0.80116224
1.462606 -0.3633132 -0.78663033
1.4848368 -0.36883533 -0.78588814
1.4819576 -0.36812013 -0.76966846
1.4702126 -0.36520272 -0.74913418
1.5239311 -0.34063891 -1.5211834
1.52658 -0.34123096 -1.5039997
1.5464242 -0.34566668 -1.4971596
1.5432338 -0.34495357 -1.4714063
1.5397755 -0.34418049 -1.4457631
1.5345006 -0.34300151 -1.4219908
1.5450402 -0.34535739 -1.4099569
1.533502 -0.34277824 -1.3780329
1.5363284 -0.34340999 -1.3594722
1.5255228 -0.34099469 -1.3262739
1.5278832 -0.34152231 -1.3078743
1.5300366 -0.34200367 -1.2895432
1.5155078 -0.33875617 -1.2603492
1.5338148 -0.34284815 -1.2529835
1.5200859 -0.33977935 -1.2224109
1.5214176 -0.3400771 -1.2043819
1.5225899 -0.34033912 -1.1863763
1.5313762 -0.34230316 -1.1744424
1.5098644 -0.33749461 -1.1370165
1.5024872 -0.33584565 -1.113436
1.5107312 -0.33768839 -1.1016613
1.494923 -0.33415484 -1.0725881
1.4937114 -0.33388406 -1.0568575
1.4934617 -0.33382821 -1.0395339
1.4919611 -0.33349276 -1.0239309
1.4984692 -0.33494759 -1.0139033
1.5049132 -0.33638787 -1.0038321
1.5041389 -0.33621484 -0.98662323
1.4939014 -0.3339265 -0.96584237
1.4917512 -0.33344591 -0.95052224
1.4977905 -0.33479577 -0.94049752
1.4963877 -0.33448219 -0.92360479
1.4938625 -0.3339178 -0.90844595
1.5005962 -0.33542293 -0.89671779
1.4809046 -0.33102131 -0.87169164
1.4788507 -0.33056229 -0.85517788
1.4928117 -0.33368289 -0.85009938
1.4819775 -0.3312611 -0.82879972
1.4708998 -0.32878494 -0.80774629
1.4768829 -0.33012247 -0.79620093
1.4922836 -0.33356482 -0.78754324
1.4893923 -0.33291852 -0.77134699
1.4776165 -0.33028638 -0.75077301
1.5320046 -0.30473462 -1.5349914
1.5363948 -0.30560783 -1.5160787
1.5335177 -0.30503556 -1.4902607
1.546214 -0.30756101 -1.4765595
1.5515763 -0.30862764 -1.4559739
1.5318494 -0.30470374 -1.4186941
1.5424173 -0.30680576 -1.4067405
1.5367091 -0.30567041 -1.3831813
1.52337 -0.30301705 -1.3531904
1.5320238 -0.30473837 -1.3429958
1.5284749 -0.30403253 -1.3164074
1.5293586 -0.30420831 -1.2997767
1.539059 -0.30613777 -1.2878184
1.5320486 -0.30474332 -1.2649341
1.5248109 -0.30330363 -1.2421989
1.5250498 -0.30335113 -1.2258061
1.5186784 -0.30208391 -1.2016493
1.5185719 -0.30206269 -1.1854101
1.5117494 -0.30070555 -1.1615031
1.5125164 -0.3008582 -1.1437563
1.5131255 -0.30097938 -1.1260384
1.506761 -0.29971337 -1.100883
1.5149522 -0.30134267 -1.0891337
1.5230738 -0.30295813 -1.077294
1.4975765 -0.29788643 -1.0445229
1.5042493 -0.29921371 -1.034507
1.502691 -0.29890376 -1.0189092
1.5113546 -0.30062705 -1.0055002
1.4940685 -0.29718864 -0.97751606
1.4930593 -0.29698795 -0.96050626
1.4918665 -0.29675061 -0.94359612
1.4988976 -0.29814923 -0.93194062
1.4974128 -0.29785389 -0.91511631
1.503255 -0.29901594 -0.90510428
1.5015142 -0.2986697 -0.8883422
1.4816389 -0.2947163 -0.86341685
1.4956964 -0.29751247 -0.85841638
1.4849077 -0.29536647 -0.83708292
1.4920156 -0.29678035 -0.82383913
1.4808292 -0.29455519 -0.80279648
1.4867914 -0.2957412 -0.79125756
1.4839513 -0.29517627 -0.7750867
1.4897062 -0.29632086 -0.76352429
1.5403942 -0.26884171 -1.5333003
1.5464231 -0.26989391 -1.5126575
1.5434777 -0.26937994 -1.486846
1.5402097 -0.26880959 -1.4611967
1.5439199 -0.26945713 -1.4424299
1.5474135 -0.27006677 -1.4237188
1.5522372 -0.27090868 -1.4033061
1.5390538 -0.26860777 -1.3731581
1.5493497 -0.27040479 -1.3611749
1.5431108 -0.26931587 -1.3378631
1.5366386 -0.26818636 -1.3146931
1.5375081 -0.26833805 -1.2980613
1.5333513 -0.26761255 -1.2717378
1.519834 -0.26525345 -1.2410258
1.5291353 -0.26687679 -1.2291956
1.5227877 -0.26576895 -1.2050246
1.5083716 -0.26325291 -1.1749097
1.5184144 -0.26500565 -1.1615031
1.5179645 -0.26492715 -1.1454244
1.5185758 -0.2650339 -1.1277341
1.5042094 -0.26252651 -1.0967379
1.5124246 -0.26396024 -1.0850331
1.504357 -0.26255232 -1.0618739
1.5111712 -0.26374149 -1.0518564
1.501599 -0.26207095 -1.0305917
1.5000147 -0.26179445 -1.0150465
1.5076147 -0.26312083 -1.0033767
1.5068305 -0.26298398 -0.98625612
1.5058938 -0.26282048 -0.96917969
1.5131319 -0.26408374 -0.95749241
1.4950999 -0.26093668 -0.93004757
1.5114822 -0.26379585 -0.92191827
1.4929175 -0.26055574 -0.89493454
1.4910929 -0.26023722 -0.87830442
1.4976486 -0.26138145 -0.86673439
1.4878421 -0.2596699 -0.84368104
1.4855154 -0.25926387 -0.82730079
1.491688 -0.26034117 -0.81577545
1.4795097 -0.25821573 -0.79647708
1.4846134 -0.2591064 -0.78663033
1.508029 -0.26319307 -0.78420538
1.4954592 -0.26099938 -0.76516747
1.5003605 -0.26185477 -0.75521547
1.5413436 -0.23173061 -1.5383955
1.5403637 -0.23158321 -1.5108107
1.5517138 -0.23328969 -1.4988863
1.5485938 -0.23282066 -1.4731436
1.5378968 -0.23121235 -1.4407686
1.5341326 -0.2306464 -1.4153583
1.5226949 -0.22892687 -1.383435
1.5390153 -0.23138049 -1.3799618
1.525588 -0.2293618 -1.3499905
1.5342928 -0.23067054 -1.3398644
1.5368431 -0.23105399 -1.3214867
1.5529383 -0.23347376 -1.3177147
1.5385834 -0.2313156 -1.2882756
1.509932 -0.22700803 -1.244778
1.5283353 -0.22977488 -1.237657
1.5389575 -0.23137186 -1.2241229
1.5155978 -0.2278599 -1.1893876
1.5075595 -0.22665136 -1.167173
1.5175744 -0.22815703 -1.153825
1.5103539 -0.22707145 -1.1301634
1.5108401 -0.22714458 -1.1125948
1.5031303 -0.22598551 -1.0892334
1.5113019 -0.2272141 -1.0776085
1.5042812 -0.2261585 -1.0528487
1.4947274 -0.22472221 -1.0315958
1.5035726 -0.22605205 -1.0183661
1.4947108 -0.22471964 -0.99571085
1.5021774 -0.22584218 -0.98415357
1.492893 -0.22444636 -0.96176642
1.490711 -0.22411829 -0.94654745
1.4968052 -0.22503448 -0.93666089
1.4943925 -0.22467178 -0.92152786
1.4928176 -0.22443497 -0.90483415
1.499614 -0.22545683 -0.89326763
1.4977491 -0.22517645 -0.87666601
1.4871402 -0.22358143 -0.85517579
1.4935467 -0.22454466 -0.84368104
1.4834206 -0.2230223 -0.82086813
1.4808716 -0.22263904 -0.80464357
1.4868973 -0.22354491 -0.79319859
1.4752872 -0.22179951 -0.7724849
1.4898864 -0.22399433 -0.76561415
1.487582 -0.22364791 -0.74798506
1.5459286 -0.19529614 -1.5245864
1.5502759 -0.19584534 -1.5057188
1.570457 -0.19839481 -1.498901
1.5656594 -0.19778869 -1.4748527
1.5694991 -0.19827381 -1.4559739
1.5510665 -0.19594523 -1.4170032
1.5494183 -0.19573697 -1.3279647
1.5518148 -0.19603972 -1.309595
1.5234247 -0.19245325 -1.2657958
1.5252551 -0.19268446 -1.2477456
1.5114211 -0.19093679 -1.2172302
1.5192926 -0.19193129 -1.2072333
1.5127076 -0.19109939 -1.1832567
1.5203584 -0.19206588 -1.1732521
1.496277 -0.18902366 -1.1390895
1.5048724 -0.19010948 -1.1275271
1.5053533 -0.19017027 -1.110021
1.4987901 -0.18934111 -1.0850704
1.4907717 -0.18832821 -1.0619472
1.5069095 -0.19036686 -1.0561649
1.506687 -0.19033879 -1.0388769
1.5062733 -0.19028658 -1.0216808
1.504608 -0.19007611 -1.0061936
1.5038866 -0.18998504 -0.98910618
1.5019327 -0.18973815 -0.97375417
1.5082237 -0.19053286 -0.96382511
1.4976226 -0.18919367 -0.94325644
1.496263 -0.18902194 -0.92648143
1.5107341 -0.19085002 -0.92176932
1.5081663 -0.19052565 -0.90666091
1.5064394 -0.1903075 -0.88995707
1.5035939 -0.18994796 -0.87500012
1.4919949 -0.1884827 -0.85517579
1.4802036 -0.18699314 -0.83554244
1.478683 -0.18680109 -0.81768101
1.4848272 -0.1875772 -0.80628967
1.4733589 -0.18612851 -0.7854743
1.4784276 -0.18676879 -0.77573776
1.4922631 -0.18851663 -0.77052736
1.4883749 -0.18802543 -0.7561655
1.5467881 -0.15848085 -1.5279824
1.5599939 -0.15983388 -1.5143554
1.5554181 -0.15936503 -1.4902607
1.5594269 -0.1597757 -1.4714481
1.5705711 -0.16091761 -1.4594218
1.5521735 -0.15903255 -1.4204106
1.5570306 -0.15953025 -1.4000735
1.5676322 -0.16061643 -1.3880676
1.5630885 -0.16015092 -1.3629035
1.5568141 -0.15950808 -1.3395847
1.5503035 -0.15884106 -1.3164074
1.5511998 -0.15893285 -1.2997767
1.5456592 -0.15836518 -1.2751306
1.5539283 -0.15921234 -1.2649341
1.5465871 -0.15846018 -1.2421989
1.5325102 -0.15701793 -1.2117579
1.5429713 -0.15808974 -1.1982683
1.5270042 -0.15645377 -1.169906
1.5199407 -0.15573005 -1.1461362
1.521823 -0.15592293 -1.1268287
1.5222739 -0.15596919 -1.109259
1.5225662 -0.15599905 -1.0917217
1.5308052 -0.1568433 -1.0800165
1.5132648 -0.15504611 -1.0528487
1.5200872 -0.15574509 -1.04287
1.5114549 -0.15486068 -1.0200108
1.4931773 -0.15298796 -0.9934867
1.5090088 -0.15461004 -0.98746532
1.5080959 -0.15451652 -0.97044909
1.5059688 -0.15429854 -0.95517009
1.5131721 -0.15503657 -0.94359612
1.5023081 -0.15392345 -0.92318898
1.5082867 -0.15453607 -0.9132852
1.5142007 -0.15514201 -0.90334231
1.5124327 -0.15496081 -0.88664234
1.5009212 -0.15378141 -0.86671054
1.4987899 -0.15356308 -0.85026306
1.4878109 -0.15243806 -0.82902455
1.4862087 -0.15227403 -0.81116998
1.4835415 -0.15200068 -0.79504734
1.4798775 -0.15162529 -0.7806232
1.4849281 -0.15214278 -0.77087009
1.4987841 -0.15356244 -0.76561415
1.553861 -0.12229147 -1.5383955
1.5457169 -0.12165055 -1.5038484
1.5498978 -0.12197956 -1.4850718
1.5539087 -0.12229517 -1.4662917
1.5650126 -0.12316903 -1.4543607
1.5613209 -0.12287852 -1.428838
1.5514225 -0.12209961 -1.3950913
1.5545113 -0.12234262 -1.3765633
1.5574328 -0.12257258 -1.3580424
1.5208615 -0.11969427 -1.308722
1.529368 -0.12036375 -1.2987093
1.5531107 -0.12223241 -1.3014632
1.5398632 -0.12118981 -1.2704859
1.5248979 -0.12001203 -1.241444
1.5174023 -0.11942206 -1.2189045
1.5423051 -0.12138204 -1.2196152
1.5279062 -0.12024884 -1.1893876
1.511887 -0.11898796 -1.1610941
1.528653 -0.12030755 -1.1554849
1.5201579 -0.11963891 -1.1334928
1.5275213 -0.12021839 -1.1234884
1.5267409 -0.12015706 -1.1075758
1.5281898 -0.12027108 -1.08838
1.5130638 -0.1190806 -1.0578078
1.5281492 -0.12026792 -1.0535157
1.5184852 -0.11950736 -1.0322406
1.5262896 -0.12012154 -1.0205933
1.5184243 -0.11950248 -0.99624622
1.5165135 -0.1193521 -0.98083717
1.523944 -0.11993694 -0.96917969
1.521781 -0.11976671 -0.9538548
1.5204949 -0.11966544 -0.93695015
1.5180473 -0.1194728 -0.92176932
1.5250276 -0.12002224 -0.91010183
1.5232971 -0.11988605 -0.89336073
1.5031765 -0.11830247 -0.86836898
1.5097505 -0.1188199 -0.85681713
1.4987935 -0.11795754 -0.83552629
1.4963665 -0.11776657 -0.81921822
1.5025518 -0.11825336 -0.80774629
1.5095218 -0.1188019 -0.79456288
1.5146737 -0.11920739 -0.7846356
1.4939318 -0.11757495 -0.75943661
1.5094132 -0.11879332 -0.75077301
1.5613159 -0.08592435 -1.5333003
1.5530466 -0.085469276 -1.49878
1.5644411 -0.086096317 -1.486846
1.5611287 -0.085914046 -1.4611967
1.5517386 -0.085397273 -1.4272051
1.5610322 -0.085908741 -1.4170032
1.5643532 -0.086091548 -1.3983517
1.5584726 -0.085767902 -1.3748479
1.5674239 -0.086260535 -1.3646029
1.5535729 -0.085498251 -1.3347663
1.5422395 -0.084874548 -1.3018039
1.5583907 -0.085763372 -1.2980613
1.5218791 -0.083753988 -1.2481062
1.5172697 -0.08350043 -1.2060349
1.5421673 -0.084870562 -1.2066966
1.5262953 -0.083997115 -1.1782473
1.5101186 -0.083106741 -1.1500587
1.5255892 -0.083958194 -1.1461362
1.5182077 -0.083551936 -1.1225705
1.5174397 -0.083509676 -1.106708
1.5258428 -0.083972089 -1.0950582
1.5178171 -0.083530419 -1.0718459
1.5095459 -0.083075337 -1.0487942
1.5174892 -0.083512358 -1.0372329
1.5181731 -0.083550036 -1.0183661
1.5175637 -0.083516479 -1.001212
1.5083843 -0.083011389 -0.97871625
1.5158108 -0.083420038 -0.96713942
1.5051866 -0.082835317 -0.94654745
1.512351 -0.083229661 -0.93502247
1.5098987 -0.083094656 -0.91989207
1.5158777 -0.083423734 -0.90997523
1.5131943 -0.083276041 -0.89493454
1.5113449 -0.083174296 -0.87830442
1.4997146 -0.082534201 -0.85845464
1.5062084 -0.08289171 -0.84697407
1.5135311 -0.083294578 -0.8337779
1.5110657 -0.083158858 -0.81741351
1.5084257 -0.083013661 -0.80116224
1.5047774 -0.082812853 -0.78663033
1.5098858 -0.083094075 -0.77674991
1.5060182 -0.082881108 -0.76232541
1.5490991 -0.048682299 -1.533076
1.5536081 -0.048823979 -1.5142055
1.5362561 -0.048278719 -1.4746139
1.5636047 -0.049138159 -1.4748646
1.545529 -0.048570067 -1.4356465
1.5548874 -0.048864216 -1.4254955
1.5567662 -0.048923228 -1.4085758
1.5525306 -0.048790131 -1.3833539
1.5540394 -0.048837576 -1.3665564
1.5478448 -0.048642851 -1.3432461
1.5490056 -0.048679389 -1.326579
1.5438111 -0.048516192 -1.3018039
1.5599786 -0.049024262 -1.2980613
1.5529841 -0.048804384 -1.2751306
1.5224544 -0.047844931 -1.2334681
1.531813 -0.04813908 -1.2218148
1.5397707 -0.048389241 -1.1955185
1.5316862 -0.04813515 -1.1732521
1.5246409 -0.047913719 -1.1494669
1.5401496 -0.048401106 -1.1454244
1.539549 -0.048382271 -1.1294016
1.5250062 -0.047925226 -1.0983895
1.525179 -0.04793071 -1.0809401
1.5251936 -0.047931127 -1.0635257
1.5321182 -0.048148688 -1.0535157
1.5307032 -0.048104163 -1.0378506
1.5125278 -0.047532972 -1.011138
1.504572 -0.047283053 -0.98692793
1.5109961 -0.047484934 -0.9770546
1.5194608 -0.047751009 -0.96382511
1.5182819 -0.047713876 -0.94691241
1.507411 -0.047372226 -0.92648143
1.5068729 -0.047355298 -0.9081254
1.5137675 -0.04757202 -0.8965739
1.5205584 -0.047785465 -0.88499659
1.5099206 -0.047451146 -0.86341685
1.5077434 -0.04738266 -0.84697407
1.4888005 -0.046787329 -0.81931937
1.486223 -0.046706449 -0.80315632
1.4923024 -0.046897423 -0.79179192
1.4894428 -0.046807539 -0.77573776
1.5042138 -0.047271799 -0.76889932
1.5002813 -0.047148179 -0.7545417
1.5636302 -0.012280846 -1.5333003
1.5769507 -0.012385513 -1.5195963
1.5901511 -0.012489226 -1.5057768
1.5650485 -0.012292056 -1.4594766
1.5777247 -0.012391597 -1.4457631
1.5649031 -0.012290927 -1.4152832
1.5532491 -0.012199435 -1.3833539
1.5562602 -0.01222298 -1.364846
1.5439197 -0.012126065 -1.3333285
1.5554959 -0.012217022 -1.3198042
1.5334316 -0.012043635 -1.2839167
1.5432013 -0.012120467 -1.2721566
1.5514942 -0.012185555 -1.2620288
1.5363249 -0.012066467 -1.2330693
1.5378385 -0.012078329 -1.215116
1.5246836 -0.011975036 -1.1832567
1.5336841 -0.012045788 -1.1715664
1.5265895 -0.011990059 -1.1478155
1.5353191 -0.012058546 -1.1361116
1.5358559 -0.012062779 -1.1184816
1.5281044 -0.012001864 -1.0950582
1.5282394 -0.012002937 -1.0776085
1.528216 -0.012002761 -1.0601941
1.5268687 -0.011992152 -1.0445229
1.5359253 -0.012063261 -1.0311584
1.5270559 -0.011993644 -1.0083929
1.5336229 -0.012045203 -0.99837649
1.5232922 -0.011964082 -0.97751606
1.5222631 -0.011956036 -0.96050626
1.5125494 -0.011879684 -0.93832463
1.519678 -0.011935653 -0.92673427
1.5191245 -0.011931423 -0.90830535
1.5260077 -0.011985544 -0.89669222
1.5154977 -0.011902934 -0.87500012
1.5124993 -0.011879272 -0.86011904
1.5093715 -0.011854835 -0.84531486
1.4982512 -0.011767455 -0.82413888
1.5045074 -0.011816571 -0.81266111
1.5018274 -0.011795591 -0.79647708
1.5078719 -0.011842977 -0.78497279
1.4951773 -0.01174326 -0.76596802
1.5009756 -0.011788739 -0.7545417
1.5646601 0.024579737 -1.5177729
1.5689589 0.024647269 -1.4988863
1.5746874 0.024737211 -1.4782921
1.5565715 0.024452657 -1.4390577
1.5659555 0.024600057 -1.428838
1.561931 0.024536876 -1.4034848
1.571082 0.024680581 -1.3932308
1.557592 0.024468685 -1.3631611
1.5513443 0.024370454 -1.3398644
1.5691575 0.024650477 -1.3344425
1.5548781 0.024426004 -1.3048589
1.5570757 0.024460634 -1.2865912
1.5591074 0.024492521 -1.268339
1.5466803 0.024297314 -1.2359568
1.548202 0.024321273 -1.2179403
1.5337484 0.024094177 -1.1877016
1.5335423 0.02409084 -1.1715664
1.5252055 0.023959886 -1.1494669
1.5407196 0.024203669 -1.1454244
1.5332702 0.024086544 -1.1218297
1.5175847 0.023840196 -1.0751597
1.5245881 0.023950284 -1.065203
1.5232923 0.0239299 -1.0495274
1.5229927 0.023925129 -1.0322406
1.5214015 0.023900095 -1.0166936
1.5196725 0.023872973 -1.001212
1.5178063 0.023843708 -0.98579675
1.5179172 0.023845494 -0.96713942
1.5337222 0.024093628 -0.96084118
1.5239937 0.0239408 -0.9386
1.5311073 0.024052558 -0.92694777
1.5199656 0.023877617 -0.90666091
1.5268514 0.02398574 -0.89501369
1.5066984 0.023669118 -0.87000012
1.5123594 0.023758108 -0.86011904
1.500508 0.023571901 -0.84042865
1.4981127 0.023534229 -0.82413888
1.5122662 0.023756614 -0.81907701
1.509654 0.023715546 -0.80279648
1.5157324 0.023811031 -0.79125756
1.5306351 0.024045158 -0.78420538
1.5097704 0.02371745 -0.75903302
1.5696075 0.061670162 -1.5403016
1.5757836 0.061912809 -1.5195963
1.5817186 0.062145982 -1.498901
1.5931216 0.062594086 -1.4867566
1.5749675 0.061880738 -1.4474971
1.5769964 0.061960489 -1.4304345
1.580422 0.062095013 -1.4116693
1.5746239 0.061867263 -1.3880676
1.5761267 0.061926272 -1.3711635
1.5804248 0.062095128 -1.350852
1.575379 0.061896883 -1.325877
1.5686375 0.061632 -1.3027577
1.555329 0.061109144 -1.2717378
1.5351878 0.06031777 -1.2330693
1.5445405 0.060685232 -1.2213155
1.5367334 0.060378507 -1.1988765
1.5299913 0.06011362 -1.1749097
1.5401781 0.060513806 -1.1615031
1.5397218 0.060495865 -1.1454244
1.5335088 0.060251784 -1.1201429
1.5420009 0.060585506 -1.1084052
1.5341023 0.060275145 -1.0850331
1.5352951 0.060321935 -1.065894
1.5257386 0.059946541 -1.0445229
1.5253645 0.059931818 -1.0272638
1.5237237 0.059867326 -1.0117221
1.5470325 0.060783152 -1.0126679
1.536826 0.060382187 -0.99167514
1.5274779 0.060014784 -0.96917969
1.5168357 0.059596717 -0.94855559
1.5315151 0.060173452 -0.9438436
1.5291125 0.060079034 -0.92860425
1.528564 0.060057458 -0.91010183
1.5268295 0.059989329 -0.89336073
1.5153213 0.059537165 -0.87335962
1.5210004 0.059760325 -0.8634156
1.5266144 0.059980921 -0.85343456
1.5155679 0.05954688 -0.8321107
1.5121856 0.059413962 -0.81741351
1.5263216 0.059969414 -0.81218594
1.5236088 0.059862781 -0.79588479
1.5304908 0.060133148 -0.78254843
1.5251437 0.059923097 -0.74856275
1.5771924 0.099228598 -1.5161523
1.5830752 0.099598736 -1.4954441
1.5871243 0.099853486 -1.4764707
1.5778042 0.099267155 -1.4423176
1.566465 0.098553687 -1.4101681
1.5681754 0.098661333 -1.3932308
1.5651997 0.098474108 -1.3663281
1.5680033 0.098650418 -1.3477885
1.5463046 0.097285293 -1.3116318
1.5701576 0.098786019 -1.3142855
1.5647005 0.098442696 -1.2895432
1.5575918 0.097995423 -1.2666509
1.5424615 0.097043529 -1.237657
1.5440215 0.097141758 -1.2196152
1.5532602 0.097722843 -1.2077801
1.5240316 0.09588404 -1.1638443
1.5146472 0.095293574 -0.78794843
1.5383995 0.096787922 -0.78540361
1.5264797 0.096038029 -0.76468056
1.5233085 0.095838532 -0.74856269
1.5754328 0.1364474 -1.5438567
1.5672277 0.13573667 -1.5092292
1.5802892 0.13686803 -1.4954441
1.5770303 0.13658574 -1.4696666
1.5807991 0.1369122 -1.4508029
1.5859412 0.1373575 -1.4302179
1.5669409 0.13571182 -1.3915023
1.5774688 0.13662365 -1.3794659
1.5728055 0.13621983 -1.3542994
1.5739986 0.13632312 -1.3374767
1.5673944 0.13575108 -1.3142855
1.5542525 0.13461299 -1.2831907
1.5625862 0.13533475 -1.2729527
1.5475236 0.13403018 -1.2439077
1.5556015 0.13472976 -1.2337147
1.5492238 0.1341774 -1.2094636
1.5649809 0.13554217 -1.2053478
1.5094117 0.13072924 -0.7928974
1.5162475 0.1313213 -0.77964598
1.531029 0.13260148 -0.77250689
1.5385175 0.13325004 -0.75736934
1.5784615 0.17426386 -1.5369422
1.5900935 0.17554805 -1.5247575
1.5887493 0.17539969 -1.4970672
1.5781338 0.17422768 -1.4644926
1.5965728 0.17626336 -1.4590361
1.570546 0.17339 -1.4134074
1.5812398 0.17457059 -1.4012873
1.569291 0.17325142 -1.3694558
1.5645345 0.1727263 -1.3443576
1.5594662 0.17216678 -1.3194406
1.5631887 0.17257775 -1.2993298
1.5639039 0.17265667 -1.28269
1.5658528 0.17287184 -1.2643656
1.5740443 0.17377616 -1.2540277
1.5443097 0.1704935 -1.2111727
1.5455818 0.17063387 -1.1931726
1.532058 0.16914077 -1.1615031
1.5278449 0.16867571 -0.79381257
1.5160998 0.16737907 -0.77299792
1.5316517 0.16909598 -0.76410025
1.5365899 0.16964112 -0.75399846
1.5822157 0.21251824 -1.528244
1.6025919 0.21525511 -1.5211064
1.606773 0.21581665 -1.5019333
1.5977149 0.21460006 -1.4675332
1.6029598 0.21530452 -1.4467425
1.5989996 0.21477261 -1.4211168
1.5737593 0.21138236 -1.3742632
1.5841018 0.21277156 -1.3621123
1.5715986 0.21109214 -1.3305705
1.5677515 0.21057548 -1.3039604
1.5531104 0.20860894 -1.2746491
1.5627004 0.209897 -1.26266
1.5397513 0.20681448 -1.2275151
1.5711306 0.21102931 -1.235765
1.5476879 0.20788057 -1.2009779
1.5501072 0.20820554 -1.181278
1.5418414 0.20709528 -1.1590672
1.5518073 0.20843382 -1.1454473
1.5523969 0.20851304 -1.127602
1.5447005 0.20747931 -1.1040618
1.5541906 0.20875402 -1.0904188
1.5460464 0.20766008 -1.0671072
1.5458452 0.20763302 -1.0495956
1.5361034 0.20632458 -1.0283077
1.5427407 0.20721608 -1.0181417
1.5326527 0.20586109 -0.99709404
1.5401623 0.20686978 -0.98524338
1.5381154 0.20659477 -0.96975231
1.5359337 0.20630181 -0.95433068
1.5336183 0.20599073 -0.93897969
1.5416811 0.20707369 -0.92544055
1.5315197 0.20570886 -0.90345514
1.529726 0.20546794 -0.88663489
1.5277524 0.20520282 -0.86992222
1.5333625 0.2059564 -0.85981476
1.5311323 0.20565681 -0.84317189
1.536569 0.20638709 -0.83304268
1.5244178 0.20475499 -0.81352687
1.5384533 0.20664017 -0.80806011
1.5277221 0.20519875 -0.78540361
1.5336145 0.20599024 -0.77362418
1.5394311 0.20677154 -0.76177263
1.6015075 0.25365403 -1.5454556
1.6147672 0.25575414 -1.5312469
1.5988339 0.25323054 -1.4898337
1.6026922 0.25384167 -1.4707284
1.6005559 0.25350329 -1.4432106
1.5891284 0.25169334 -1.4110001
1.5922362 0.25218549 -1.3921518
1.5815805 0.25049791 -1.358622
1.5827562 0.25068405 -1.3416929
1.585219 0.25107411 -1.3230429
1.5874707 0.25143078 -1.3044614
1.5895571 0.25176123 -1.2858944
1.5759083 0.24959941 -1.255035
1.5775287 0.24985607 -1.2366791
1.5632325 0.24759175 -1.2062762
1.5631024 0.24757119 -1.189882
1.5628276 0.24752767 -1.1735415
1.5384945 0.2436737 -1.1395428
1.5402356 0.24394949 -1.1200726
1.5635623 0.24764408 -1.1214031
1.5731683 0.24916549 -1.1075459
1.5570289 0.24660921 -1.0783993
1.5651072 0.24788868 -1.0663445
1.5577544 0.24672413 -1.0414549
1.5478983 0.24516314 -1.0201989
1.5389189 0.24374092 -0.99740595
1.5286273 0.24211085 -0.97651464
1.534907 0.24310547 -0.9663642
1.5337152 0.2429167 -0.94926769
1.5408378 0.24404478 -0.93736935
1.5393496 0.24380916 -0.92035878
1.5301273 0.24234843 -0.89670402
1.5273106 0.24190229 -0.88159263
1.5253048 0.24158454 -0.86485964
1.5308629 0.24246496 -0.85473365
1.5372572 0.24347769 -0.84288734
1.5357378 0.24323706 -0.82458794
1.5331578 0.24282835 -0.80806011
1.5392005 0.24378543 -0.79619747
1.5354898 0.24319772 -0.78148955
1.5405087 0.24399273 -0.77129781
1.5365797 0.24337034 -0.75669914
1.6138085 0.29473379 -1.5398875
1.6197354 0.29581633 -1.518733
1.5947005 0.29124406 -1.4724834
1.5763741 0.2878972 -1.4334085
1.5871073 0.28985736 -1.4211168
1.5977236 0.29179624 -1.4087703
1.5783497 0.28825793 -1.3703355
1.5871388 0.28986314 -1.3598051
1.5760206 0.28783253 -1.3265412
1.5630537 0.28546444 -1.2953274
1.5866905 0.28978124 -1.297436
1.5886887 0.2901462 -1.27886
1.5685464 0.28646758 -1.2401606
1.5699947 0.28673205 -1.2218843
1.5948503 0.29127154 -1.2216846
1.5578305 0.28451049 -1.171801
1.5653418 0.28588223 -1.1614114
1.5672561 0.28623188 -1.1416564
1.559697 0.28485131 -1.1179467
1.5518929 0.28342605 -1.0943938
1.5507866 0.28322399 -1.0783993
1.5576966 0.284486 -1.0680586
1.5492704 0.28294712 -1.0448934
1.5581813 0.28457457 -1.0311102
1.5493196 0.28295612 -1.0081887
1.5485135 0.28280878 -0.99082029
1.5465001 0.28244114 -0.97522497
1.5443529 0.282049 -0.95969921
1.5515249 0.28335881 -0.9476701
1.5406628 0.28137505 -0.92713886
1.539071 0.28108436 -0.91013849
1.528789 0.27920651 -0.88822758
1.5259024 0.27867931 -0.87313199
1.5228875 0.27812874 -0.85811311
1.5301962 0.27946353 -0.84457105
1.5364883 0.28061259 -0.83268261
1.5252736 0.27856445 -0.81144476
1.5400677 0.28126633 -0.80416453
1.5372857 0.28075832 -0.78767234
1.5351661 0.28037113 -0.76958239
1.5400882 0.28127009 -0.75935215
1.6025485 0.33187196 -1.5294769
1.6083449 0.33307233 -1.5083731
1.5905381 0.32938471 -1.4689432
1.5868374 0.32861844 -1.4432106
1.5739876 0.32595733 -1.4127685
1.5860001 0.32844499 -1.3986877
1.581504 0.32751384 -1.3733097
1.5766984 0.32651863 -1.3481126
1.579188 0.32703421 -1.3294036
1.5724812 0.3256453 -1.3061998
1.583583 0.32794443 -1.2921367
1.5918304 0.32965234 -1.2815245
1.59228 0.32974544 -1.2647183
1.5925828 0.32980815 -1.247961
1.5797249 0.32714543 -1.2156664
1.5808932 0.32738733 -1.1973698
1.5739911 0.32595795 -1.1732024
1.5600775 0.32307655 -1.1416564
1.5605558 0.32317567 -1.1237094
1.5528305 0.32157582 -1.1000938
1.5517656 0.32135534 -1.0840454
1.5516925 0.32134014 -1.0663445
1.5584935 0.32274854 -1.0559504
1.5499507 0.32097948 -1.0328236
1.5483013 0.32063788 -1.0170321
1.5465161 0.32026815 -1.0013072
1.5445961 0.31987059 -0.98564988
1.5519124 0.32138574 -0.97359061
1.5423901 0.31941366 -0.95110875
1.5494486 0.32087547 -0.93906766
1.5469804 0.3203643 -0.92364407
1.5358956 0.31806874 -0.90330333
1.5426126 0.3194598 -0.89128673
1.5397377 0.31886435 -0.87608993
1.5281494 0.31646454 -0.85616004
1.5422194 0.31937838 -0.85068029
1.5321178 0.31728643 -0.82755321
1.5373888 0.31837797 -0.81729513
1.5434481 0.31963283 -0.80529684
1.5485761 0.3206948 -0.79496348
1.5536377 0.32174301 -0.78459609
1.5410213 0.31913018 -0.76544708
1.5378678 0.31847715 -0.74908936
1.5936245 0.36938247 -1.5155255
1.6048642 0.37198761 -1.5029758
1.5885652 0.36820975 -1.4618421
1.5920774 0.36902383 -1.4427443
1.5895636 0.36844119 -1.4153228
1.5926495 0.36915645 -1.3963134
1.5880663 0.36809406 -1.370931
1.5907259 0.36871049 -1.3520516
1.5931748 0.36927822 -1.3332394
1.5878621 0.36804679 -1.3081802
1.5669609 0.36320218 -1.2709122
1.5840694 0.36716774 -1.2647183
1.5611845 0.36186329 -1.2296982
1.5780495 0.36577234 -1.2234665
1.5780045 0.36576191 -1.2068636
1.562116 0.36207914 -1.1784703
1.5459341 0.35832834 -1.1503427
1.5623865 0.36214179 -1.1439849
1.5537115 0.36013108 -1.1219563
1.5688359 0.36363673 -1.1171938
1.5598446 0.3615526 -1.0953375
1.5436912 0.35780853 -1.0663445
1.5585746 0.36125827 -1.061479
1.5571564 0.36092961 -1.0455111
1.539227 0.35677379 -1.0187701
1.5385414 0.35661483 -1.0013072
1.5459365 0.35832894 -0.98923242
1.5449518 0.35810065 -0.97184741
1.5354384 0.35589558 -0.94940376
1.5414587 0.35729104 -0.93906766
1.5399917 0.35695094 -0.92190641
1.5373895 0.35634786 -0.90655923
1.5261793 0.35374939 -0.88636249
1.5317979 0.35505176 -0.87608993
1.5477383 0.35874653 -0.86712563
1.5369633 0.35624903 -0.84553552
1.5259726 0.35370153 -0.82413775
1.5398452 0.35691702 -0.81846607
1.5371971 0.35630322 -0.80185622
1.5439551 0.35786963 -0.78805566
1.5401956 0.35699826 -0.77327216
1.5450929 0.35813338 -0.76290786
1.5411177 0.35721195 -0.74823529
1.6138984 0.41437873 -1.526834
1.6123463 0.41398028 -1.4988527
1.6031911 0.41162965 -1.4643904
1.6066595 0.41252008 -1.4451548
1.6114551 0.41375145 -1.4241216
1.612882 0.4141179 -1.3757609
1.6004795 0.41093341 -1.3440607
1.5952413 0.40958855 -1.3189172
1.608282 0.41293678 -1.2856565
1.5792154 0.40547374 -1.2426463
1.5948007 0.4094753 -1.2379581
1.5727763 0.40382046 -1.2015421
1.5725361 0.40375876 -1.1849933
1.5812443 0.40599465 -1.1725761
1.5807401 0.40586519 -1.1560857
1.588035 0.40773821 -1.1453795
1.5793093 0.40549779 -1.123278
1.5795621 0.40556276 -1.1051706
1.5543205 0.39908171 -1.0722507
1.5449075 0.39666492 -1.0507225
1.5596584 0.40045232 -1.0457071
1.5591749 0.40032816 -1.028013
1.5410669 0.39567882 -1.0014743
1.5473826 0.39730042 -0.99103945
1.537104 0.39466131 -0.97013068
1.5608469 0.40075749 -0.96827161
1.550282 0.39804482 -0.94751555
1.5395216 0.39528197 -0.9269442
1.5369661 0.3946259 -0.91154033
1.5352201 0.39417756 -0.89449632
1.5408576 0.39562511 -0.8841033
1.5388569 0.39511138 -0.86712563
1.5452179 0.39674455 -0.85498285
1.5429313 0.3961575 -0.83810622
1.5396101 0.3953048 -0.82306421
1.5456457 0.39685446 -0.81091672
1.5507532 0.39816576 -0.80045509
1.5471029 0.3972286 -0.78554595
1.544955 0.39667714 -0.76724261
1.5418304 0.3958748 -0.75076103
1.5997798 0.45118472 -1.5164554
1.6052889 0.45273837 -1.4952174
1.6105639 0.45422617 -1.4739956
1.6083274 0.45359537 -1.4462483
1.5984164 0.45080021 -1.412177
1.6072778 0.45329931 -1.4012771
1.5967063 0.45031777 -1.3675683
1.5842797 0.4468132 -1.3359702
1.5865434 0.44745168 -1.3171054
1.5810362 0.44589844 -1.2921296
1.5981067 0.45071277 -1.2856565
1.5845337 0.44688484 -1.2547697
1.6000966 0.45127401 -1.2499771
1.6002058 0.45130482 -1.2331122
1.5768677 0.44472271 -1.1985865
1.5778292 0.44499385 -1.1801845
1.5852296 0.44708103 -1.1694295
1.585878 0.44726402 -1.1511064
1.5705054 0.44292849 -1.1214845
1.5707189 0.44298869 -1.1034052
1.5547487 0.43848455 -1.0742847
1.5717727 0.44328594 -1.0656116
1.5795493 0.44547909 -1.053125
1.561747 0.4404583 -1.0263249
1.560011 0.43996871 -1.0103925
1.5509866 0.43742359 -0.98752236
1.550972 0.43741947 -0.96827161
1.5497472 0.43707407 -0.95086789
1.556698 0.43903428 -0.93853098
1.5468197 0.4362483 -0.91626203
1.5525584 0.43786687 -0.90572363
1.5498075 0.43709099 -0.89030778
1.5478544 0.43654025 -0.8732006
1.570298 0.4428699 -0.87208402
1.5672401 0.44200748 -0.85673076
1.5640566 0.44110954 -0.84145665
1.5701879 0.44283885 -0.82903779
1.5676284 0.44211704 -0.81208009
1.5476063 0.43647021 -0.78645295
1.5533475 0.43808931 -0.77413785
1.5407808 0.43454516 -0.75502676
1.5542355 0.43833977 -0.74873924
1.6050608 0.4937813 -1.5421932
1.6091931 0.49505255 -1.5226033
1.6146868 0.49674264 -1.5012106
1.5983475 0.49171606 -1.4601029
1.6104649 0.49544385 -1.4454542
1.5990505 0.49193236 -1.413202
1.6034216 0.49327698 -1.3921627
1.5987433 0.49183777 -1.3666437
1.6012121 0.49259725 -1.3475784
1.6035184 0.49330679 -1.3285245
1.5980803 0.4916338 -1.303394
1.5910467 0.48947003 -1.2802303
1.5851127 0.48764446 -1.2553965
1.5852737 0.487694 -1.2385321
1.5929877 0.49006709 -1.2276502
1.5786747 0.48566389 -1.1972954
1.5963883 0.49111336 -1.1886345
1.5893675 0.48895335 -1.1643603
1.573022 0.48392487 -1.1364058
1.5824406 0.48682231 -1.1220006
1.5735313 0.48408157 -1.1000292
1.5655298 0.48162001 -1.0764565
1.556187 0.47874576 -1.0548387
1.5546969 0.47828734 -1.0387776
1.5611619 0.48027623 -1.0281093
1.5696776 0.48289603 -1.0138165
1.5678202 0.4823246 -0.99784899
1.5668617 0.48202974 -0.98014867
1.5647243 0.48137218 -0.96432292
1.5468922 0.47588623 -0.93678021
1.5380194 0.47315669 -0.91275358
1.5362942 0.47262585 -0.8955586
1.5511626 0.47719997 -0.88807362
1.540767 0.47400188 -0.86617506
1.5461524 0.47565866 -0.85560584
1.5345157 0.47207874 -0.83576506
1.5490751 0.47655779 -0.82804537
1.5371424 0.47288674 -0.80843747
1.5507345 0.47706831 -0.80232704
1.5557203 0.47860205 -0.79169101
1.5528325 0.47771376 -0.77492005
1.5489932 0.47653264 -0.76002425
