# .PCD v0.7 - Point Cloud Data file format
VERSION 0.7
FIELDS x y z
SIZE 4 4 4
TYPE F F F
COUNT 1 1 1
WIDTH 130
HEIGHT 1
VIEWPOINT 0 0 0 1 0 0 0
POINTS 130
DATA ascii
1.5126363 -0.49148527 -1.6614373
1.4975137 -0.48657164 -1.5507419
1.531109 -0.45789865 -1.6121209
1.5325623 -0.45833328 -1.5823032
1.5332841 -0.41945893 -1.6898208
1.5425199 -0.42198572 -1.6669314
1.5160638 -0.4147481 -1.6099796
1.519287 -0.41562983 -1.5785811
1.5256443 -0.41736904 -1.5577588
1.5333537 -0.38088694 -1.6576644
1.5422953 -0.38310805 -1.6349169
1.5304817 -0.38017359 -1.5908153
1.531752 -0.38048908 -1.5612059
1.5507864 -0.34664166 -1.7040542
1.5468475 -0.34576127 -1.666647
1.5559603 -0.34779826 -1.6438138
1.5373057 -0.34362844 -1.5925484
1.5317107 -0.34237787 -1.5558727
1.5375072 -0.30582914 -1.6555784
1.5533882 -0.30898806 -1.6400949
1.5415636 -0.30663607 -1.5959812
1.536019 -0.30553314 -1.5592932
1.551957 -0.27085978 -1.6894271
1.5392971 -0.2686502 -1.6465999
1.5482825 -0.27021846 -1.6240083
1.5431677 -0.26932576 -1.5871348
1.5497719 -0.2704784 -1.5663487
1.5389767 -0.23137464 -1.6799155
1.5552257 -0.23381765 -1.6645424
1.562677 -0.23493792 -1.6435463
1.5508498 -0.23315974 -1.5994065
1.5383463 -0.23128 -1.5556351
1.5666465 -0.19791342 -1.6859862
1.5555669 -0.19651373 -1.6414913
1.5628042 -0.197428 -1.6205755
1.5575731 -0.19676711 -1.5837135
1.5517496 -0.19603148 -1.547141
1.5645137 -0.16029693 -1.6645424
1.5686623 -0.16072197 -1.6329014
1.5496185 -0.1587707 -1.5817314
1.5579554 -0.1596249 -1.5592932
1.5650247 -0.12316997 -1.6945873
1.5747026 -0.12393172 -1.6718112
1.5684582 -0.12344022 -1.6363378
1.5634445 -0.12304565 -1.5994065
1.5649379 -0.12316319 -1.5697771
1.5662261 -0.086194471 -1.6821136
1.5739502 -0.086619571 -1.6611074
1.5554236 -0.085600041 -1.6096365
1.564127 -0.086079024 -1.5871348
1.5725125 -0.086540543 -1.5646454
1.5635532 -0.049136534 -1.699702
1.5664607 -0.049227908 -1.6696939
1.5758716 -0.04952373 -1.6469899
1.5640137 -0.049150962 -1.6028241
1.5568014 -0.048924409 -1.5678253
1.5852858 -0.012451007 -1.707517
1.5863906 -0.012459592 -1.67908
1.5819678 -0.012424964 -1.6418353
1.5699883 -0.012330791 -1.5976812
1.5802356 -0.012411319 -1.5734043
1.5688753 0.024645908 -1.6679696
1.5782362 0.024793012 -1.6452829
1.5803393 0.024826031 -1.6153982
1.5678564 0.024629988 -1.5715023
1.5743849 0.024732566 -1.5507419
1.5920788 0.062553093 -1.6863487
1.5756587 0.061907928 -1.6329014
1.5915869 0.062533714 -1.6173559
1.571985 0.061763503 -1.5663487
1.575982 0.09915249 -1.6859862
1.5786237 0.099318728 -1.6559538
1.5738944 0.099021174 -1.6188425
1.5668547 0.098578312 -1.5837135
1.5751873 0.099102534 -1.5612059
1.5870523 0.099848963 -1.5490949
1.5781631 0.13668381 -1.6950276
1.5859739 0.13736038 -1.6738933
1.5745387 0.13636993 -1.6294574
1.5833799 0.13713567 -1.6067675
1.5707313 0.13604018 -1.5629128
1.599166 0.17654972 -1.6991463
1.5793595 0.174363 -1.6490364
1.5953889 0.17613266 -1.6333437
1.5743537 0.17381035 -1.5839193
1.5863155 0.17513101 -1.5717927
1.5813583 0.21240304 -1.6704162
1.5923997 0.21388607 -1.645757
1.5943645 0.21415012 -1.6157171
1.5800625 0.21222906 -1.5735188
1.5864972 0.21309325 -1.5525843
1.5950114 0.25262514 -1.679589
1.583546 0.25080916 -1.6351075
1.6045552 0.25413677 -1.6281329
1.604453 0.25412044 -1.5998604
1.5897921 0.25179848 -1.5578057
1.5954349 0.29137823 -1.6867975
1.6047467 0.29307893 -1.6636684
1.5859705 0.28964981 -1.6122036
1.6050296 0.29313061 -1.6068773
1.5904874 0.29047468 -1.5647602
1.6093289 0.29391578 -1.5592543
1.5953194 0.33037487 -1.6797049
1.6113758 0.33370003 -1.6636443
1.5994881 0.33123818 -1.619234
1.5958329 0.3304812 -1.5945216
1.5935928 0.3300173 -1.5681679
1.5998222 0.33130732 -1.5470309
1.6028003 0.37150922 -1.6779488
1.5894803 0.36842188 -1.6352118
1.5877446 0.36801955 -1.6086419
1.5856799 0.36754099 -1.582224
1.6044534 0.37189242 -1.5766499
1.6036047 0.37169567 -1.5485137
1.6089667 0.41311258 -1.6904037
1.6043798 0.41193488 -1.6528386
1.6182891 0.41550615 -1.6383208
1.5972018 0.41009185 -1.5889844
1.6105716 0.4135246 -1.5745337
1.6080154 0.41286835 -1.5481364
1.5948056 0.44978184 -1.7084179
1.6108569 0.45430881 -1.6920826
1.6062757 0.45301679 -1.6544347
1.6063217 0.45302966 -1.6258519
1.6112648 0.45442382 -1.6061522
1.6106874 0.45426092 -1.5777621
1.6081421 0.45354316 -1.5513148
1.6223084 0.49908736 -1.6825953
1.6191359 0.49811146 -1.6574632
1.6130857 0.49625012 -1.577273
