# .PCD v0.7 - Point Cloud Data file format
VERSION 0.7
FIELDS x y z
SIZE 4 4 4
TYPE F F F
COUNT 1 1 1
WIDTH 743
HEIGHT 1
VIEWPOINT 0 0 0 1 0 0 0
POINTS 743
DATA ascii
0.24081926 -0.24081926 -1.8488948
0.29210252 -0.29210252 -1.8443027
0.34205833 -0.34205833 -1.8373873
0.40189672 -0.40189672 -1.8234742
0.46254987 -0.46254987 -1.8157629
0.53296077 -0.53296077 -1.8309304
0.59361494 -0.59361494 -1.826292
0.66805679 -0.66805679 -1.8642694
0.7402156 -0.7402156 -1.8550099
0.81168813 -0.81168813 -1.8415278
0.89596945 -0.89596945 -1.8350415
0.2827521 -0.26973206 -1.8287143
0.33306387 -0.31772712 -1.8124619
0.38696218 -0.36914355 -1.8127584
0.44454536 -0.42407516 -1.8296009
0.49732721 -0.47442657 -1.8141624
0.55269772 -0.52724737 -1.8050306
0.62157291 -0.59295112 -1.8061163
0.69832492 -0.66616881 -1.8199345
0.77854747 -0.7426973 -1.826654
0.85945618 -0.81988037 -1.8160483
0.95123762 -0.9074356 -1.8136448
1.0478675 -0.99961591 -1.8124959
1.1250496 -1.0732439 -1.7886618
0.25667852 -0.23355946 -1.8171588
0.31279576 -0.28462225 -1.8318157
0.36088893 -0.32838365 -1.8052211
0.42470637 -0.38645306 -1.8006605
0.49260491 -0.44823599 -1.8114427
0.55621618 -0.50611776 -1.8099914
0.62661344 -0.5701744 -1.8117
0.71334445 -0.64909351 -1.8428829
0.77513301 -0.70531678 -1.8198069
0.8583914 -0.78107607 -1.8217256
0.9547106 -0.86871982 -1.8306977
1.0489471 -0.95446843 -1.8234034
1.1509709 -1.047303 -1.8139797
0.28609818 -0.24826334 -1.8312327
0.34766111 -0.30168495 -1.8124619
0.40704164 -0.35321274 -1.7906585
0.48207682 -0.41832495 -1.8214022
0.55668819 -0.48306939 -1.8592317
0.60682082 -0.52657223 -1.8206016
0.67543113 -0.58610928 -1.83354
0.73699725 -0.63953364 -1.8255771
0.80813777 -0.70126617 -1.8301747
0.87655509 -0.76063573 -1.8217256
0.96606225 -0.83830613 -1.8267092
1.0497906 -0.91096193 -1.8073428
1.1472232 -0.99550962 -1.8062224
0.27345869 -0.22622468 -1.8258265
0.32543528 -0.26922345 -1.8114111
0.38252974 -0.31645608 -1.813264
0.44254267 -0.36610311 -1.8215994
0.50597948 -0.41858262 -1.8042098
0.58075154 -0.48043942 -1.8309304
0.65604061 -0.54272395 -1.8207585
0.73598355 -0.60885853 -1.8251629
0.82369542 -0.68142009 -1.8423064
0.91129214 -0.7538864 -1.8431771
0.98569292 -0.81543607 -1.8143522
1.0880138 -0.90008324 -1.8155098
0.30057648 -0.23695537 -1.8201939
0.35955343 -0.28344902 -1.8027695
0.41998428 -0.3310889 -1.8127584
0.47748163 -0.37641612 -1.8106413
0.55191076 -0.43509135 -1.818953
0.61221039 -0.48262775 -1.7982961
0.686059 -0.54084527 -1.8213208
0.7511338 -0.59214616 -1.8131908
0.8230117 -0.64881009 -1.8198069
0.90719342 -0.7151736 -1.8132917
0.99997509 -0.78831673 -1.8185177
1.0915375 -0.86049879 -1.8073428
1.1776813 -0.92840904 -1.783262
0.2646755 -0.19872396 -1.8303157
0.32510242 -0.24409376 -1.815028
0.38277024 -0.28739202 -1.8180463
0.45927432 -0.34483287 -1.842568
0.52039874 -0.39072642 -1.8063549
0.59360617 -0.44569212 -1.8031889
0.67275864 -0.50512141 -1.8144554
0.76273918 -0.57268071 -1.8371624
0.84205991 -0.63223642 -1.8284726
0.92330253 -0.69323516 -1.8255239
1.0180582 -0.76437962 -1.8308963
1.1164932 -0.83828676 -1.8277631
1.2253282 -0.92000246 -1.8341936
0.28875336 -0.20634617 -1.8258265
0.34363705 -0.24556662 -1.8114111
0.40392482 -0.2886489 -1.813264
0.46484774 -0.33218509 -1.8120623
0.53173399 -0.37998268 -1.8266011
0.61013615 -0.43600968 -1.8216832
0.68447238 -0.48913115 -1.8144554
0.77227086 -0.55187291 -1.8282872
0.85993612 -0.61451936 -1.8492635
0.93937868 -0.67128986 -1.8255239
1.0357842 -0.74018234 -1.8308963
1.1407806 -0.81521386 -1.8231966
1.2515272 -0.89435446 -1.8291829
0.32816249 -0.22301894 -1.8274221
0.40009487 -0.27190417 -1.8373873
0.46762478 -0.31779742 -1.8139272
0.54663658 -0.37149382 -1.8345791
0.6184153 -0.42027456 -1.8333936
0.69433272 -0.47186801 -1.826292
0.78011906 -0.53016829 -1.8313755
0.85767722 -0.5828768 -1.837592
0.94503105 -0.64224243 -1.8330414
1.0399891 -0.70677584 -1.8295603
1.1448238 -0.7780214 -1.8368618
1.2517581 -0.85069394 -1.8238205
1.4634025 -0.99452728 -1.8083882
0.28306684 -0.18277389 -1.8292258
0.34836787 -0.22493823 -1.8234425
0.40709475 -0.26285771 -1.8164744
0.46753243 -0.30188182 -1.8062061
0.53621 -0.34622636 -1.8214022
0.59871948 -0.38658822 -1.8150991
0.67314267 -0.43464267 -1.7996846
0.75220537 -0.48569283 -1.8107152
0.85193098 -0.55008483 -1.8389183
0.93600148 -0.60436851 -1.8270851
1.0365081 -0.66926479 -1.8335309
1.1176791 -0.72167623 -1.8021034
1.2368013 -0.79859245 -1.8059548
1.3464992 -0.86942345 -1.7997619
1.4839481 -0.95817316 -1.8252128
0.28420517 -0.17416111 -1.8095566
0.35675216 -0.21861798 -1.8123283
0.42837325 -0.26250741 -1.8116252
0.49963579 -0.30617717 -1.7968638
0.56996685 -0.34927607 -1.7998732
0.63792968 -0.39092374 -1.8007567
0.7086677 -0.43427211 -1.80812
0.78242719 -0.47947192 -1.8107497
0.86976707 -0.53299391 -1.8355987
0.95952266 -0.58799618 -1.8319598
1.0571121 -0.64779913 -1.8294727
1.1444937 -0.70134658 -1.8057539
1.2711364 -0.77895337 -1.8165747
1.37795 -0.84440875 -1.8146976
1.5171585 -0.92971587 -1.82657
0.28979596 -0.16832685 -1.8193911
0.35342911 -0.2052879 -1.8247862
0.41169482 -0.23913133 -1.808376
0.47862571 -0.27800792 -1.8175888
0.55708909 -0.32358307 -1.819298
0.63489747 -0.36877775 -1.8172805
0.69794524 -0.40539885 -1.7970599
0.78574836 -0.45639893 -1.837607
0.88107347 -0.5117681 -1.8476751
0.97310936 -0.56522691 -1.8319598
1.0821126 -0.62854099 -1.8336762
1.1708944 -0.6801095 -1.7969301
1.3087142 -0.76016164 -1.8238205
1.4308739 -0.83111763 -1.8337783
0.32495573 -0.17864588 -1.82266
0.39396426 -0.21658364 -1.8460454
0.45783553 -0.25169715 -1.837154
0.51622105 -0.28379485 -1.806371
0.59093189 -0.32486755 -1.7976819
0.6831131 -0.37554455 -1.8309623
0.75134802 -0.413057 -1.817955
0.8422516 -0.46303171 -1.8220357
0.94205493 -0.51789898 -1.8388076
1.0404503 -0.57199234 -1.8283019
1.141606 -0.62760317 -1.8222102
1.2532122 -0.68895912 -1.8140823
1.3855304 -0.7617017 -1.8188502
1.5088129 -0.82947683 -1.8263491
0.33614922 -0.17461546 -1.8312327
0.4000746 -0.20782204 -1.8251438
0.47709617 -0.24783155 -1.8223498
0.55531979 -0.2884655 -1.8045795
0.64099568 -0.3329705 -1.822047
0.73081082 -0.37962574 -1.8335484
0.82637155 -0.42926562 -1.8375095
0.93693215 -0.48669726 -1.8614199
1.0186623 -0.52915263 -1.8415278
1.1058003 -0.57441717 -1.8130777
1.2390161 -0.64361727 -1.8528345
1.4453468 -0.75079751 -1.8168311
0.33120984 -0.16225795 -1.8332682
0.39202738 -0.19205219 -1.8183317
0.4720813 -0.23127018 -1.8258294
0.54886967 -0.26888841 -1.820121
0.62464941 -0.30601251 -1.800297
0.69650459 -0.34121403 -1.7891212
0.79127532 -0.38764173 -1.8065761
0.87737423 -0.42982119 -1.8135788
0.96170294 -0.47113335 -1.8180376
1.0711308 -0.52474153 -1.8366886
1.1699028 -0.57312942 -1.8222102
1.2955325 -0.63467479 -1.8423853
1.4149996 -0.69320118 -1.8367493
0.33135837 -0.15275824 -1.8136611
0.39432326 -0.18178543 -1.8086081
0.46408102 -0.21394423 -1.8196034
0.53519356 -0.24672757 -1.8273185
0.59635812 -0.27492481 -1.8042098
0.67757201 -0.31236488 -1.8124361
0.75479877 -0.34796694 -1.80812
0.85657889 -0.39488822 -1.8313755
0.96436012 -0.44457603 -1.8579456
1.0582355 -0.48785326 -1.8424269
1.166503 -0.53776515 -1.8473169
1.2622576 -0.5819087 -1.8073428
1.3906521 -0.64109933 -1.808861
0.33486536 -0.14490911 -1.8136611
0.41155255 -0.17809463 -1.8154356
0.49081147 -0.21239303 -1.8127584
0.56935483 -0.24638177 -1.8275752
0.64042461 -0.27713642 -1.7887011
0.73735738 -0.31908298 -1.8206016
0.82621455 -0.35753489 -1.8306115
0.92625445 -0.40082604 -1.8301616
1.0129722 -0.4383522 -1.8100096
1.1378417 -0.49238798 -1.8294727
1.2372986 -0.53542686 -1.8013633
1.3718446 -0.5936501 -1.8133179
1.4825119 -0.64154011 -1.801939
0.3326689 -0.1347447 -1.8148485
0.39908034 -0.1616441 -1.8197544
0.48171055 -0.19511278 -1.8275354
0.5580591 -0.22603713 -1.8126161
0.62719989 -0.25404206 -1.7861083
0.70968252 -0.28745097 -1.825958
0.77194834 -0.31267118 -1.7963109
0.86443865 -0.35013363 -1.8255553
0.94199401 -0.3815468 -1.8147918
1.0486082 -0.42473 -1.8282574
1.1601999 -0.46992925 -1.821319
1.2716748 -0.51508123 -1.8084344
1.414247 -0.57282889 -1.8265191
0.32638744 -0.12333147 -1.8269813
0.39139804 -0.14789692 -1.8123283
0.45887297 -0.17339356 -1.8148746
0.53445989 -0.2019555 -1.8330212
0.60577971 -0.22890504 -1.8287245
0.6756891 -0.25532156 -1.8220469
0.77212852 -0.29176301 -1.8217278
0.8514818 -0.32174805 -1.8256662
0.9406023 -0.3554239 -1.8093759
1.0576028 -0.39963472 -1.8404806
1.1545254 -0.43625876 -1.8211945
1.266802 -0.47868451 -1.8218051
1.3889991 -0.52485895 -1.8214567
0.34798542 -0.12220371 -1.8332682
0.41408592 -0.14541656 -1.8280555
0.48215535 -0.16932085 -1.8196034
0.56541765 -0.19856048 -1.8240824
0.65184176 -0.22891045 -1.8235136
0.72070044 -0.25309187 -1.8050306
0.81456411 -0.28605449 -1.8151469
0.91943449 -0.32288235 -1.8376037
1.0047787 -0.35285312 -1.8215418
1.1164782 -0.39207914 -1.8308879
1.2180777 -0.42775834 -1.8182986
1.3436998 -0.47187373 -1.8187649
0.36767313 -0.11946416 -1.8091558
0.44011855 -0.14300309 -1.8221542
0.51131231 -0.16613536 -1.8223498
0.58430821 -0.18985318 -1.8296009
0.65705395 -0.21348967 -1.8235136
0.73016965 -0.23724644 -1.81424
0.79364657 -0.2578713 -1.7845244
0.89961624 -0.29230297 -1.8074429
1.0119268 -0.3287949 -1.833657
1.1094136 -0.36047029 -1.8179281
1.2278174 -0.39894193 -1.8182986
1.3427173 -0.43627524 -1.8030181
0.32108399 -0.096024394 -1.8193911
0.39729127 -0.11881522 -1.8234425
0.46179599 -0.13810623 -1.8068124
0.53319079 -0.1594578 -1.8062061
0.60517621 -0.180986 -1.8025275
0.68280119 -0.20420079 -1.815099
0.75637466 -0.22620393 -1.8048904
0.85828328 -0.25668105 -1.8216379
0.95198965 -0.28470519 -1.8159182
1.0666615 -0.31899938 -1.839286
1.1710087 -0.35020578 -1.8292333
1.2746414 -0.38119859 -1.8021034
1.4225999 -0.42544752 -1.8214567
0.34048539 -0.093146183 -1.8160102
0.40739214 -0.1114498 -1.8114111
0.47377083 -0.12960897 -1.7939739
0.55109107 -0.15076135 -1.8120623
0.63363618 -0.17334314 -1.8360167
0.69886655 -0.19118816 -1.8103956
0.77679515 -0.21250701 -1.8088201
0.86834902 -0.2375533 -1.8306115
0.96306312 -0.26346412 -1.8246907
1.0688862 -0.29241416 -1.8307312
1.1842934 -0.32398587 -1.837548
1.3004552 -0.35576424 -1.8262388
1.4261338 -0.39014596 -1.8137057
0.31368738 -0.07792028 -1.8215456
0.39454806 -0.098006167 -1.815028
0.47354025 -0.11762794 -1.8052211
0.5602268 -0.13916096 -1.8101878
0.62827253 -0.15606362 -1.7969468
0.72410172 -0.17986768 -1.812436
0.80257827 -0.1993614 -1.799034
0.89497465 -0.22231275 -1.8196696
0.97585809 -0.24240434 -1.8093759
1.0820044 -0.2687712 -1.8149183
1.192355 -0.29618242 -1.8129164
1.3027049 -0.32359353 -1.8057539
1.4287975 -0.35491502 -1.8059548
0.34263307 -0.076587476 -1.8061941
0.42602932 -0.095228739 -1.8183317
0.4987148 -0.11147589 -1.8196034
0.58179075 -0.13004555 -1.8145819
0.67768669 -0.15148082 -1.832865
0.74545264 -0.16662835 -1.8050305
0.83415651 -0.18645598 -1.7970858
0.94186771 -0.21053228 -1.8199345
1.0550213 -0.23582509 -1.8352703
1.1480881 -0.25662801 -1.8115286
1.2657973 -0.28293914 -1.8016944
1.3956653 -0.31196803 -1.8140823
0.36173245 -0.071952976 -1.8332682
0.43044427 -0.085620619 -1.8280555
0.50915837 -0.10127781 -1.8484859
0.57800353 -0.11497197 -1.8273185
0.64406061 -0.12811153 -1.8042098
0.72593415 -0.14439717 -1.8148743
0.81517494 -0.1621483 -1.80812
0.92509639 -0.18401301 -1.8313755
1.01132 -0.20116395 -1.8179288
1.1265486 -0.22408435 -1.8292825
1.2371725 -0.2460888 -1.8268126
1.3515944 -0.26884878 -1.816401
0.38312754 -0.066866376 -1.8495518
0.46418926 -0.081013896 -1.8303182
0.54813564 -0.095664896 -1.827155
0.62478876 -0.10904301 -1.7910188
0.72169447 -0.12595575 -1.7963552
0.80092609 -0.1397839 -1.7944018
0.89229369 -0.1557301 -1.8167169
1.0048972 -0.17538255 -1.8355987
1.0975727 -0.19155702 -1.8270851
1.2154287 -0.2121262 -1.8335309
1.3223062 -0.23077931 -1.8057539
0.36276996 -0.054539941 -1.8234646
0.44345057 -0.066669725 -1.8154356
0.5344488 -0.08035069 -1.831941
0.61296022 -0.092154361 -1.8066231
0.71793592 -0.10793675 -1.8313431
0.79817039 -0.11999948 -1.7970598
0.90157366 -0.13554546 -1.813751
1.0147009 -0.15255335 -1.8322418
1.1246812 -0.16908816 -1.8245552
1.2266439 -0.18441756 -1.8048365
1.3509376 -0.20310426 -1.8129027
0.33428991 -0.042230539 -1.8292258
0.40116417 -0.050678723 -1.8052697
0.47487721 -0.059990861 -1.8180463
0.54625309 -0.069007687 -1.8080225
0.62923181 -0.079490341 -1.7910188
0.73057318 -0.092292763 -1.8056147
0.81481075 -0.10293443 -1.812619
0.88978553 -0.11240593 -1.7988182
0.98581523 -0.1245373 -1.8159182
1.0891491 -0.13759142 -1.8136215
1.2129943 -0.15323675 -1.8169378
1.319872 -0.16673858 -1.7897028
0.36493644 -0.037390567 -1.8234646
0.43426925 -0.044494279 -1.8183317
0.51105028 -0.052361138 -1.8292309
0.59925306 -0.061398186 -1.8335828
0.68726945 -0.07041619 -1.8235136
0.76768315 -0.078655221 -1.8125606
0.85718125 -0.087825008 -1.8269994
0.9350816 -0.095806517 -1.8105369
1.0355788 -0.10610325 -1.8353252
1.1538879 -0.11822499 -1.8339754
1.2607654 -0.12917548 -1.822686
0.38748595 -0.030495711 -1.818935
0.45888755 -0.036115147 -1.8124619
0.53596824 -0.042181544 -1.8223498
0.60296369 -0.047454156 -1.8011615
0.69702804 -0.054857172 -1.8096249
0.77716804 -0.061164327 -1.798296
0.88277984 -0.069476195 -1.8155639
0.98467368 -0.077495404 -1.8191515
1.0853306 -0.085417248 -1.8074461
1.2014737 -0.094557889 -1.8165681
1.3145555 -0.10345764 -1.7983716
0.35213065 -0.019378817 -1.8466262
0.43452159 -0.023913061 -1.8392169
0.51620853 -0.028408565 -1.8179169
0.59524715 -0.032758303 -1.8145819
0.67789203 -0.037306555 -1.8279963
0.75471324 -0.041534312 -1.8192258
0.8215487 -0.045212455 -1.7899479
0.92980671 -0.051170297 -1.8375095
1.0305196 -0.056712784 -1.8288831
1.1362643 -0.062532313 -1.8123447
1.2597506 -0.069328196 -1.8144757
0.38849235 -0.012208751 -1.818935
0.47595716 -0.014957448 -1.8496867
0.54133284 -0.017011978 -1.8211725
0.61685908 -0.019385494 -1.8181058
0.69647139 -0.021887369 -1.8212491
0.76740587 -0.024116553 -1.8033597
0.87317681 -0.027440585 -1.8213207
0.97530961 -0.030650174 -1.8255771
1.0865043 -0.034144647 -1.8317322
1.2041603 -0.037842162 -1.8288428
1.3317229 -0.041850992 -1.8254761
0.34293652 -0.0026933465 -1.8281103
0.42007798 -0.0032992591 -1.8016725
0.49972022 -0.0039247801 -1.801989
0.57723415 -0.0045335665 -1.8101878
0.65073496 -0.0051108673 -1.8063549
0.74608403 -0.0058597396 -1.812436
0.84717119 -0.0066536437 -1.8116999
0.95234823 -0.0074797622 -1.8491557
1.0271326 -0.0080671376 -1.8201741
1.1253201 -0.0088383015 -1.8319598
1.2285525 -0.0096491054 -1.8129164
1.3482181 -0.010588951 -1.8137795
0.3687737 0.0057932823 -1.8332682
0.44115716 0.0069303606 -1.8377792
0.51636577 0.0081118587 -1.8388585
0.59607434 0.0093640015 -1.8145819
0.68723971 0.010796122 -1.8141623
0.76965535 0.012090824 -1.7916429
0.89079714 0.013993884 -1.8573865
0.98981094 0.015549327 -1.8520348
1.0767009 0.016914241 -1.8145328
1.1821805 0.01857131 -1.8076793
1.3085576 0.020556562 -1.8179258
1.4420586 0.022653811 -1.817238
0.33487689 0.01315748 -1.8193911
0.41277689 0.01621818 -1.8443027
0.48082656 0.018891821 -1.8277168
0.55599213 0.021845127 -1.827155
0.64375043 0.025293164 -1.819298
0.73366272 0.028825812 -1.8172804
0.82065368 0.032243662 -1.812619
0.9350127 0.036736872 -1.8464293
1.0460159 0.041098174 -1.8550099
1.1575872 0.045481857 -1.8585004
1.25476 0.049299709 -1.8185837
1.3590533 0.053397469 -1.8049164
0.32854584 0.020670466 -1.8204753
0.41385922 0.026037926 -1.8234425
0.4928458 0.031007372 -1.803619
0.58203769 0.036618851 -1.808284
0.6695078 0.042121999 -1.788319
0.75436378 0.047460638 -1.8192258
0.81699991 0.051401399 -1.7808619
0.91132998 0.057336144 -1.8018296
1.0083781 0.063441895 -1.8181168
1.1179103 0.070333116 -1.823439
1.2485617 0.078553014 -1.8460289
1.3575071 0.08540725 -1.8298306
0.37738389 0.032685108 -1.8312327
0.45153993 0.039107718 -1.8348521
0.5264827 0.04559847 -1.8354391
0.59703398 0.05170884 -1.8240824
0.69182038 0.059918247 -1.832865
0.76687944 0.066419087 -1.7916429
0.88327563 0.076500051 -1.84837
0.97215176 0.084197603 -1.825577
1.0829865 0.093796931 -1.8317322
1.1942767 0.10343569 -1.832786
1.3155893 0.11394256 -1.8217415
1.4188353 0.12288462 -1.8187649
0.34680468 0.038287722 -1.8269813
0.42568511 0.046996184 -1.8100231
0.51114863 0.056431465 -1.8082982
0.59219599 0.065379165 -1.7936358
0.68195164 0.075288288 -1.7932299
0.77687263 0.085767649 -1.8192066
0.84531033 0.093323253 -1.7880551
0.9592824 0.10590588 -1.8199344
1.074528 0.11862909 -1.8352702
1.1855563 0.13088673 -1.8366886
1.2833183 0.14167975 -1.8059405
1.4032905 0.15492485 -1.8030181
0.33215249 0.044613786 -1.8193911
0.39858752 0.053537123 -1.7955115
0.47186804 0.063379936 -1.808376
0.54858154 0.07368385 -1.8175888
0.62527972 0.083985738 -1.7815924
0.72608304 0.097525261 -1.7963552
0.8057965 0.1082321 -1.7944018
0.89771974 0.12057897 -1.8167168
0.99656498 0.13385558 -1.8093758
1.1108598 0.14920729 -1.8112502
1.2350031 0.16588181 -1.8130777
1.3717989 0.18425578 -1.8243678
0.31751531 0.050289609 -1.8116995
0.40369192 0.06393864 -1.8247862
0.47527319 0.075275995 -1.8277168
0.56137025 0.088912435 -1.8234742
0.64609075 0.10233086 -1.8157629
0.73104346 0.11578604 -1.8148743
0.79894662 0.12654085 -1.7852931
0.89462972 0.14169559 -1.8167168
0.98615819 0.15619224 -1.8246906
1.0901616 0.17266473 -1.8100095
1.2075826 0.19126248 -1.8169378
1.325775 0.20998228 -1.8181937
0.33373928 0.060951747 -1.8084532
0.41772312 0.076289929 -1.8211499
0.50050485 0.091408558 -1.789061
0.59540272 0.10873999 -1.8221062
0.69489741 0.12691095 -1.8282809
0.76110864 0.13900323 -1.8008307
0.85350955 0.15587866 -1.8241774
0.9586246 0.1750761 -1.8376036
1.0643326 0.1943818 -1.8231324
1.1914361 0.21759501 -1.8126038
1.3087983 0.23902917 -1.8145005
0.38645062 0.080030225 -1.8176498
0.46372026 0.096031971 -1.7987055
0.54784465 0.11345332 -1.8157628
0.61853576 0.12809274 -1.8025275
0.72040761 0.14918938 -1.8382479
0.78805757 0.16319902 -1.7761844
0.89858609 0.18608838 -1.8107495
1.0106353 0.20929262 -1.8288829
1.1136905 0.23063439 -1.824555
1.2312961 0.2549893 -1.8295603
1.3436289 0.27825224 -1.8208891
0.35545117 0.082389303 -1.8136611
0.42526829 0.098572023 -1.8183317
0.50045788 0.11600005 -1.8292309
0.56812668 0.13168482 -1.808284
0.63971877 0.148279 -1.8042098
0.72104031 0.16712832 -1.8148743
0.79605532 0.18451588 -1.8035104
0.88238817 0.20452672 -1.8167168
0.97849149 0.22680229 -1.8214047
1.0809937 0.25056103 -1.8063974
1.2026179 0.278752 -1.8088968
1.324975 0.30711281 -1.8049164
0.34560275 0.088735841 -1.8356428
0.41129187 0.10560193 -1.8211499
0.48342153 0.12412169 -1.822909
0.57081252 0.14655989 -1.8273185
0.65758836 0.16884016 -1.8279963
0.75504601 0.193863 -1.8309622
0.82633448 0.21216679 -1.8089103
0.93094206 0.23902547 -1.8220356
1.0150747 0.26062706 -1.8198068
1.1189015 0.28728524 -1.8132915
1.2277796 0.31524035 -1.810326
1.3403605 0.34414619 -1.7994158
0.34357876 0.096899383 -1.8050386
0.42586237 0.12010575 -1.8168973
0.50902015 0.14355867 -1.8144943
0.59970033 0.16913316 -1.8160819
0.68944198 0.19444293 -1.8244072
0.78077996 0.22020288 -1.8061819
0.89044374 0.25113124 -1.8405551
0.96776247 0.27293739 -1.8093758
1.0730282 0.30262539 -1.8149182
1.1770639 0.33196652 -1.804638
1.3033813 0.36759168 -1.821805
0.31634346 0.097320095 -1.8303157
0.38856646 0.11953881 -1.815028
0.45262486 0.13924573 -1.7987055
0.52068573 0.16018397 -1.78889
0.59497851 0.18303943 -1.7951314
0.67418993 0.20740804 -1.7964826
0.74691415 0.22978093 -1.7865665
0.8406654 0.25862259 -1.8184597
0.9134903 0.28102648 -1.802265
1.0138623 0.31190491 -1.800805
1.1248274 0.34604225 -1.7993103
1.2397004 0.38138178 -1.7893548
1.3901376 0.42766231 -1.8203082
0.34424922 0.11485037 -1.8038574
0.41189 0.13741705 -1.8086081
0.48219061 0.1608711 -1.8099759
0.55612433 0.18553726 -1.8178012
0.64402157 0.21486199 -1.8279963
0.71336484 0.23799665 -1.8099912
0.78842443 0.26303846 -1.8081199
0.87048513 0.29041594 -1.8107495
0.97903025 0.32662937 -1.8288829
1.0788627 0.35993597 -1.824555
1.2019639 0.40100563 -1.8350414
0.34887061 0.12560129 -1.8430718
0.41073462 0.14787373 -1.8183317
0.48589858 0.17493442 -1.8388585
0.56384069 0.2029953 -1.8240824
0.62895334 0.22643727 -1.7998732
0.70199776 0.2527349 -1.812436
0.78758633 0.28354871 -1.805383
0.88007081 0.31684518 -1.8016616
0.98604262 0.35499731 -1.8198068
1.1026248 0.39696956 -1.8263444
1.2092335 0.43535101 -1.8101447
1.3515537 0.48658943 -1.8345118
0.32328504 0.12506972 -1.8477674
0.38467622 0.14882016 -1.8136915
0.457497 0.17699242 -1.8148746
0.5439043 0.21042088 -1.808284
0.62993813 0.24370486 -1.818622
0.71239501 0.27560496 -1.8050305
0.7956692 0.30782139 -1.8089103
0.90074623 0.34847263 -1.8308804
0.99319959 0.38424012 -1.8215417
1.1137365 0.43087238 -1.847685
1.2149928 0.47004545 -1.8222101
1.3395473 0.51823193 -1.8219353
0.36264911 0.15021433 -1.8078775
0.43388543 0.17972137 -1.7997344
0.51144093 0.21184593 -1.7966495
0.59135216 0.24494624 -1.7889394
0.67141712 0.27811024 -1.7987367
0.7532711 0.3120153 -1.815304
0.82722592 0.34264839 -1.8107151
0.91253293 0.37798369 -1.8191514
0.99014962 0.41013357 -1.805933
1.0973841 0.45455149 -1.8160481
1.203701 0.49858943 -1.8098099
1.3267095 0.54954123 -1.809405
0.3318212 0.14669678 -1.8344685
0.40036252 0.17699857 -1.7974652
0.48371443 0.21384808 -1.8144943
0.55858243 0.24694689 -1.7991673
0.64155245 0.28362754 -1.7980171
0.7274434 0.32159954 -1.802304
0.81530863 0.36044437 -1.8126643
0.89791024 0.39696217 -1.8223826
0.99501348 0.43989101 -1.8195724
1.096846 0.48491073 -1.8204918
1.2078203 0.53397197 -1.8093213
1.3413945 0.59302455 -1.8233438
0.34631845 0.16296527 -1.8201939
0.42184803 0.1985068 -1.8109498
0.50082886 0.23567234 -1.8175888
0.56325233 0.2650466 -1.7951314
0.64357013 0.30284131 -1.7941585
0.72290814 0.34017491 -1.7788155
0.81957555 0.38566315 -1.8167168
0.90342522 0.42511985 -1.8246906
1.0026953 0.47183278 -1.830731
1.0908481 0.51331431 -1.8042891
1.1877731 0.55892372 -1.790307
1.3383931 0.62980014 -1.8389279
0.32816094 0.16397291 -1.8234646
0.40114442 0.20044068 -1.8154356
0.48448539 0.24208379 -1.8211725
0.56271309 0.28117198 -1.8140277
0.63955331 0.31956685 -1.8034546
0.71313429 0.35633314 -1.790549
0.79347664 0.396478 -1.8036907
0.89315873 0.44628626 -1.8246906
0.97849429 0.48892605 -1.8160121
1.0830407 0.54116499 -1.8249009
1.181326 0.59027535 -1.8093213
1.3063635 0.652753 -1.8155516
1.3826119 0.69085222 -1.7701998
0.31702507 0.16785632 -1.8454591
0.38786456 0.2053639 -1.8280555
0.45931512 0.24319501 -1.8275354
0.53768599 0.28469023 -1.8315964
0.61266327 0.32438868 -1.8119094
0.67854178 0.35926953 -1.8033597
0.77970874 0.41283473 -1.8393536
0.8540386 0.45219031 -1.8079386
0.9561789 0.50627089 -1.8231324
1.0497369 0.55580723 -1.8160481
1.1566516 0.61241573 -1.8055481
1.2853785 0.68057311 -1.8203082
1.3625356 0.72142565 -1.7735676
0.31146497 0.17442892 -1.8050386
0.3870725 0.21677117 -1.7960192
0.46166968 0.2585476 -1.7935758
0.54127735 0.30313006 -1.8275752
0.60173291 0.33698678 -1.8025696
0.6664713 0.37324208 -1.7941589
0.75844604 0.42475039 -1.8123043
0.85548675 0.47909582 -1.8343962
0.94472277 0.52907038 -1.8109896
1.0563461 0.59158242 -1.8249009
1.1659684 0.65297389 -1.8225648
1.2683736 0.71032345 -1.7952071
1.3752232 0.77016211 -1.7698902
0.33275807 0.19679278 -1.8091558
0.39408642 0.23306225 -1.8027695
0.4627569 0.27367386 -1.8223498
0.52060097 0.30788273 -1.8011615
0.59160906 0.34987682 -1.8141623
0.65412211 0.3868469 -1.7958212
0.73940891 0.43728536 -1.8061162
0.82667875 0.48889661 -1.8110996
0.91740501 0.54255199 -1.8094212
1.0129665 0.59906685 -1.7993103
1.1213292 0.6631524 -1.8222101
1.2099032 0.71553493 -1.7951446
1.3394367 0.79214084 -1.8139796
0.3280293 0.20457783 -1.8091558
0.39057478 0.24358472 -1.8124619
0.45618075 0.28450036 -1.8223498
0.53375512 0.33288011 -1.8140277
0.60664105 0.37833589 -1.8034546
0.69181991 0.43145823 -1.815304
0.76856476 0.4793207 -1.8167168
0.84719563 0.52835941 -1.8246906
0.93589318 0.58367622 -1.8221762
1.0370953 0.64679152 -1.8292332
1.1389321 0.71030277 -1.8306292
1.2495242 0.77927428 -1.8185215
1.3443638 0.83842164 -1.8027021
0.27514395 0.18073601 -1.8204753
0.33480823 0.2199281 -1.8163521
0.39041337 0.25645384 -1.7900584
0.45284784 0.29746562 -1.8002342
0.51536185 0.33852965 -1.7971643
0.58137029 0.3818891 -1.800297
0.6449942 0.42368215 -1.8125606
0.72293854 0.47488204 -1.8032879
0.81557333 0.53573179 -1.825577
0.90002555 0.59120649 -1.8145326
0.98855126 0.64935696 -1.7954391
1.0988307 0.72179711 -1.801244
1.2153468 0.79833382 -1.8077595
1.3236362 0.86946666 -1.7900041
0.31486189 0.21761465 -1.8201939
0.37177366 0.25694877 -1.804262
0.44788706 0.30955398 -1.8307576
0.52017707 0.35951668 -1.8234757
0.58026785 0.401048 -1.7964826
0.64286071 0.44430858 -1.7865665
0.72355139 0.50007737 -1.8184597
0.79393923 0.54872537 -1.8199344
0.89424372 0.6180501 -1.831732
0.98163533 0.67845011 -1.824417
1.071799 0.74076605 -1.8098099
1.1764638 0.81310439 -1.8140821
1.2903855 0.89184046 -1.8164597
