# .PCD v0.7 - Point Cloud Data file format
VERSION 0.7
FIELDS x y z
SIZE 4 4 4
TYPE F F F
COUNT 1 1 1
WIDTH 1453
HEIGHT 1
VIEWPOINT 0 0 0 1 0 0 0
POINTS 1453
DATA ascii
1.1256061 -0.45591742 0.19506423
1.1241945 -0.45534566 0.20432107
1.1318417 -0.45844305 0.21532364
1.1211715 -0.45412117 0.22281964
1.1284267 -0.45705986 0.23526451
1.1173964 -0.45259216 0.24389701
1.1247058 -0.45555276 0.25516364
1.1225991 -0.45469946 0.26574326
1.120688 -0.4539254 0.2749733
1.1277287 -0.45677716 0.28650039
1.1256706 -0.4559435 0.29577205
1.1325303 -0.45872203 0.30748802
1.1306407 -0.45795664 0.31547871
1.1283778 -0.4570401 0.32477349
1.1260438 -0.45609471 0.33407053
1.1232988 -0.45498288 0.34465975
1.1293609 -0.45743826 0.35804194
1.126797 -0.4563998 0.36732492
1.1149344 -0.45159498 0.37494421
1.1298999 -0.45765662 0.39022622
1.1183031 -0.45295939 0.39639151
1.1150544 -0.45164356 0.40690544
1.1204743 -0.45383891 0.42067495
1.1261911 -0.45615447 0.43326265
1.1139412 -0.45119271 0.44040877
1.1103368 -0.44973272 0.45087996
1.1171386 -0.4524878 0.5381968
1.1301608 -0.45776233 0.5556888
1.1172231 -0.45252198 0.56208217
1.1126342 -0.4506633 0.57257962
1.1162913 -0.45214456 0.58741724
1.1197923 -0.45356265 0.60236692
1.1155014 -0.45182464 0.6115641
1.1193664 -0.45339009 0.62534469
1.1149132 -0.45158637 0.63453764
1.1103847 -0.44975218 0.64371461
1.1261228 -0.45612672 0.6752004
1.1213059 -0.45417565 0.68446863
1.1164347 -0.45220262 0.69367582
1.1194835 -0.45343751 0.70792019
1.1383276 -0.46107018 0.73247844
1.1331043 -0.45895457 0.74184567
1.127061 -0.4565067 0.75248581
1.1366092 -0.46037421 0.77374095
1.1303077 -0.45782185 0.78441286
1.1316713 -0.45837411 0.80050802
1.1336915 -0.4591924 0.81534368
1.1347208 -0.4596093 0.83160555
1.1203301 -0.45378041 0.83656657
1.1286709 -0.45715883 0.85860777
1.1292114 -0.45737779 0.87503529
1.1229787 -0.45485327 0.88432318
1.1191685 -0.42289859 0.092835359
1.1183681 -0.4225961 0.10327228
1.1267949 -0.42578033 0.11464886
1.1258161 -0.42541042 0.1251561
1.1247514 -0.42500815 0.13565381
1.1237485 -0.42462918 0.14484133
1.1319609 -0.42773241 0.15527217
1.1400864 -0.43080279 0.16586654
1.1296108 -0.42684436 0.17373322
1.1375841 -0.42985716 0.184459
1.1269972 -0.42585677 0.19215377
1.1257966 -0.42540306 0.20003481
1.1335492 -0.42833257 0.21094398
1.1320112 -0.42775139 0.22018009
1.1304036 -0.42714393 0.22942448
1.1376625 -0.42988688 0.24191189
1.1359035 -0.42922217 0.25118065
1.1338098 -0.428431 0.26176766
1.1227765 -0.4242619 0.26883984
1.1205391 -0.4234165 0.2793037
1.1182165 -0.42253885 0.28974631
1.1248802 -0.42505684 0.30260724
1.1223671 -0.42410722 0.31308946
1.1197686 -0.42312533 0.32354784
1.1170849 -0.42211121 0.33398157
1.1233023 -0.42446059 0.34716722
1.1114621 -0.41998661 0.35477194
1.1174635 -0.42225432 0.36807159
1.1326418 -0.42798969 0.38320673
1.1120751 -0.4202182 0.38627115
1.1181612 -0.42251787 0.39848968
1.1241305 -0.42477354 0.41085073
1.1123383 -0.42031768 0.41669708
1.1181302 -0.42250624 0.42915413
1.1150358 -0.42133698 0.43825817
1.1077111 -0.41856915 0.45899445
1.1087108 -0.41894692 0.4833672
1.1047227 -0.41743991 0.49369171
1.1146905 -0.42120644 0.51966345
1.1109418 -0.41978994 0.52875751
1.107137 -0.41835219 0.53780007
1.1117455 -0.42009366 0.55103827
1.116238 -0.42179123 0.56436217
1.1200097 -0.4232164 0.579108
1.1152396 -0.42141393 0.58953428
1.1103847 -0.41957942 0.59991562
1.1258848 -0.42543644 0.63323563
1.1289128 -0.42658067 0.64844781
1.1235764 -0.42456415 0.6589545
1.1181545 -0.42251542 0.669411
1.1288905 -0.42657217 0.68974084
1.1555398 -0.43664208 0.7203967
1.117458 -0.42225224 0.71069729
1.1443651 -0.43241951 0.74050093
1.1462367 -0.43312684 0.75640106
1.1321015 -0.42778558 0.76173836
1.1415863 -0.43136954 0.78307146
1.1359532 -0.429241 0.79237765
1.1458566 -0.43298316 0.81267321
1.139179 -0.43045998 0.82333171
1.1401181 -0.4308148 0.83960044
1.1417437 -0.43142903 0.85462874
1.135613 -0.4291124 0.86391294
1.1445616 -0.43249384 0.88488835
1.1306772 -0.42724738 0.88827282
1.1283261 -0.39623991 0.099369749
1.1180693 -0.392638 0.10888683
1.1265178 -0.39560491 0.12022559
1.1351326 -0.39863014 0.12910439
1.1340263 -0.3982417 0.13959831
1.1328337 -0.39782292 0.15008159
1.1315548 -0.39737374 0.16055346
1.1301899 -0.39689443 0.17101309
1.1287388 -0.39638481 0.18145968
1.1272018 -0.39584506 0.19189247
1.1348813 -0.39854187 0.20398264
1.1331584 -0.39793691 0.21447137
1.1408575 -0.40064061 0.22545817
1.1299361 -0.39680526 0.23278688
1.1282282 -0.39620551 0.24191411
1.1261933 -0.395491 0.25233987
1.1332865 -0.39798191 0.26490009
1.1313428 -0.39729935 0.27407438
1.1382222 -0.39971527 0.28684098
1.1358172 -0.39887062 0.29735744
1.1333256 -0.39799568 0.30785128
1.1398666 -0.40029263 0.32088879
1.1371812 -0.3993496 0.3314192
1.1344092 -0.39837617 0.34192434
1.1409709 -0.40068057 0.35389325
1.1383851 -0.39977241 0.3631272
1.1357388 -0.39884311 0.37231895
1.1330202 -0.39788842 0.38150999
1.1302419 -0.39691272 0.39065781
1.1363387 -0.39905384 0.40297681
1.1329775 -0.39787343 0.41347146
1.1290965 -0.39651051 0.42522982
1.1344149 -0.39837822 0.439087
1.1307565 -0.39709345 0.44956246
1.1103318 -0.38992083 0.45024982
1.124624 -0.39493987 0.46652216
1.1212342 -0.39374948 0.47559965
1.1177711 -0.39253333 0.48467013
1.1224391 -0.39417261 0.49885705
1.118289 -0.39271516 0.50921947
1.1145921 -0.39141688 0.5182445
1.1274962 -0.3959485 0.53672791
1.1230341 -0.39438155 0.54713571
1.1281781 -0.39618802 0.55915022
1.1241122 -0.39476016 0.56827456
1.1193905 -0.39310196 0.57864982
1.1314712 -0.39734441 0.59790492
1.1271355 -0.3958219 0.60703397
1.1220946 -0.39405161 0.61743569
1.1253037 -0.39517859 0.63247544
1.1200534 -0.39333481 0.64285928
1.1229749 -0.39436072 0.65803266
1.1264179 -0.39556989 0.67201716
1.1461086 -0.40248477 0.69601786
1.1499417 -0.40383074 0.70898151
1.1529136 -0.4048745 0.72337192
1.1395923 -0.4001964 0.72751099
1.1423564 -0.40116706 0.74194783
1.1449909 -0.40209228 0.75645053
1.1562433 -0.40604383 0.77506745
1.1506193 -0.40406877 0.78441286
1.1528372 -0.40484768 0.79916495
1.1548958 -0.40557057 0.81401962
1.141188 -0.40075675 0.81773084
1.1430324 -0.40140447 0.83261704
1.1361334 -0.39898172 0.84315723
1.1445105 -0.40192354 0.86524731
1.1373429 -0.39940643 0.87579989
1.1184938 -0.36342067 0.096420512
1.1271226 -0.36622432 0.10758378
1.1261868 -0.36592034 0.11792174
1.1347529 -0.36870357 0.12803742
1.1432394 -0.371461 0.13827665
1.1422006 -0.37112343 0.14746182
1.1505283 -0.37382925 0.15791179
1.1399257 -0.37038431 0.16578485
1.1481007 -0.37304053 0.17636731
1.1469784 -0.37267584 0.18426448
1.1456051 -0.37222967 0.19347836
1.1441684 -0.37176284 0.20265993
1.1426616 -0.37127328 0.21185069
1.1502111 -0.37372625 0.2241496
1.1392139 -0.37015307 0.23146993
1.1372495 -0.36951479 0.24191411
1.1445034 -0.37187168 0.25440824
1.1516356 -0.37418914 0.26705372
1.1493754 -0.37345475 0.27761054
1.1377774 -0.36968637 0.28582245
1.1445925 -0.37190068 0.29865992
1.1512804 -0.37407371 0.31164405
1.139461 -0.37023336 0.31961834
1.136765 -0.36935741 0.33006144
1.1434799 -0.37153918 0.34192434
1.1500942 -0.37368828 0.35389325
1.1383805 -0.36988232 0.36024526
1.1444302 -0.3718479 0.3736423
1.1416867 -0.37095651 0.38280919
1.1294305 -0.36697423 0.39014912
1.126561 -0.3660419 0.39921594
1.1416106 -0.37093183 0.41477063
1.1206317 -0.36411533 0.41725847
1.126513 -0.36602634 0.42964315
1.1318161 -0.36774942 0.44345501
1.1280928 -0.36653957 0.45382324
1.1247603 -0.36545682 0.46287745
1.1125402 -0.36148623 0.46816841
1.1174109 -0.36306885 0.48215532
1.1133667 -0.36175478 0.49238989
1.1179719 -0.36325118 0.50654435
1.1311274 -0.36752561 0.52485788
1.1191604 -0.36363727 0.52853364
1.1239307 -0.36518729 0.54168063
1.1199689 -0.36390004 0.55067825
1.1245166 -0.3653776 0.56396943
1.1289456 -0.36681673 0.57734489
1.1253277 -0.36564115 0.58510166
1.1295336 -0.36700776 0.59863079
1.1329775 -0.36812672 0.6135509
1.1194254 -0.3637234 0.61926717
1.1309988 -0.36748382 0.6389814
1.1263309 -0.36596715 0.6480329
1.1298946 -0.36712506 0.66193444
1.1250603 -0.3655543 0.6709764
1.1283855 -0.3666347 0.68499988
1.1323025 -0.36790738 0.69780707
1.1509565 -0.37396851 0.72356504
1.1286677 -0.36672646 0.7236855
1.1226186 -0.36476097 0.73401421
1.1478243 -0.37295073 0.76701176
1.1502018 -0.37372321 0.78164345
1.151613 -0.37418181 0.7976687
1.1378913 -0.36972335 0.80131614
1.147755 -0.37292823 0.82169509
1.1495816 -0.37352175 0.83656657
1.1512445 -0.37406212 0.85153592
1.1381767 -0.36981606 0.85363322
1.1319516 -0.36779347 0.86273605
1.1333036 -0.36823273 0.87773997
1.1259756 -0.36585167 0.88810533
1.1170954 -0.33408237 0.09688551
1.1162429 -0.33382741 0.1070568
1.1153052 -0.33354697 0.11721994
1.1333303 -0.33893764 0.12955149
1.1417184 -0.34144622 0.14104478
1.1408094 -0.34117433 0.14884125
1.1301913 -0.3379989 0.15660268
1.1288389 -0.33759439 0.16689098
1.1368747 -0.33999759 0.17865536
1.1353376 -0.33953789 0.18900369
1.1341281 -0.33917624 0.19675554
1.1420927 -0.34155816 0.207514
1.1405432 -0.34109467 0.21659993
1.1389235 -0.34061038 0.225694
1.1369932 -0.34003305 0.2360592
1.1349763 -0.33942991 0.24640644
1.1425076 -0.34168223 0.25754559
1.1309639 -0.33823001 0.265746
1.1380272 -0.34034231 0.27831846
1.135657 -0.33963349 0.28867352
1.1332002 -0.33889872 0.29900655
1.1402475 -0.3410064 0.31056455
1.1286933 -0.33755085 0.31703416
1.1355706 -0.33960763 0.32870311
1.1423483 -0.3416346 0.3404794
1.1486473 -0.34351844 0.35370103
1.1364812 -0.33987993 0.36123672
1.1334178 -0.33896384 0.37157452
1.130268 -0.33802187 0.38188404
1.1456226 -0.34261388 0.39719599
1.124127 -0.33618528 0.40114558
1.1297685 -0.33787242 0.41468683
1.1357191 -0.33965206 0.42705798
1.1321054 -0.33857131 0.43738633
1.1284055 -0.33746484 0.44768137
1.1161643 -0.33380395 0.45304745
1.1212327 -0.3353197 0.46690229
1.1261538 -0.33679143 0.48088366
1.113255 -0.33293384 0.48725572
1.1174212 -0.33417988 0.50258696
1.130707 -0.33815312 0.5208205
1.1355948 -0.33961484 0.53393441
1.1223868 -0.33566487 0.54007095
1.1270776 -0.33706769 0.55324608
1.1224092 -0.33567157 0.56349087
1.13485 -0.3393921 0.58251888
1.1299366 -0.33792272 0.5928334
1.1255617 -0.33661434 0.60183185
1.1289756 -0.33763537 0.61669785
1.132226 -0.3386074 0.63167149
1.1269017 -0.33701506 0.64196026
1.1214917 -0.33539718 0.6522001
1.1250268 -0.33645442 0.66604275
1.1450074 -0.34242982 0.68999988
1.1234113 -0.33597124 0.68896317
1.125826 -0.33669341 0.70431036
1.1464 -0.34284633 0.74587077
1.1247207 -0.33636287 0.74428695
1.1265016 -0.33689547 0.75993115
1.128106 -0.33737525 0.77566403
1.1374868 -0.3401807 0.79705745
1.1474564 -0.34316233 0.8173635
1.1493087 -0.34371626 0.83219516
1.1431941 -0.34188756 0.84132034
1.1456878 -0.34263337 0.85492772
1.1548949 -0.34538692 0.87579989
1.1398271 -0.34088069 0.8803376
1.1342685 -0.31030077 0.097713597
1.1239107 -0.30746719 0.10577565
1.1328192 -0.30990428 0.11436883
1.141405 -0.31225303 0.12566936
1.1307213 -0.30933028 0.1348483
1.1391156 -0.31162679 0.14630245
1.1282791 -0.30866221 0.15528668
1.1366528 -0.31095305 0.1656159
1.1355829 -0.31066036 0.17332503
1.1247431 -0.30769491 0.18076742
1.1328975 -0.30992571 0.19128357
1.1312442 -0.30947345 0.20152582
1.1392223 -0.31165597 0.21223362
1.1373925 -0.31115538 0.2225323
1.135476 -0.31063107 0.23281404
1.1334732 -0.31008318 0.24307804
1.1408122 -0.31209093 0.25543457
1.1292086 -0.30891657 0.26354975
1.136626 -0.31094572 0.27476218
1.1248957 -0.30773664 0.28267935
1.123087 -0.30724192 0.29030618
1.1302598 -0.30920413 0.30167145
1.11868 -0.30603626 0.30805323
1.1349876 -0.31049746 0.32217148
1.1232954 -0.3072989 0.32844284
1.1301098 -0.30916306 0.34010324
1.1279385 -0.30856913 0.34776422
1.1253412 -0.3078585 0.35669339
1.1314951 -0.30954209 0.36986804
1.1283388 -0.3086786 0.3800908
1.1250966 -0.30779165 0.39028463
1.1308886 -0.30937612 0.40370443
1.1274475 -0.30843478 0.4139204
1.1239204 -0.30746987 0.4241049
1.1302611 -0.30920446 0.43520373
1.1089942 -0.30338654 0.4370223
1.1237189 -0.30741468 0.45304745
1.1113905 -0.30404204 0.45822448
1.1074911 -0.30297536 0.46826199
1.1218126 -0.30689326 0.48471954
1.1093394 -0.30348092 0.48965862
1.1228583 -0.30717927 0.50767124
1.1273497 -0.30840796 0.5218879
1.122914 -0.30719453 0.53206736
1.1276999 -0.30850381 0.54517752
1.1317739 -0.30961832 0.55966437
1.1183506 -0.30594614 0.56549871
1.1258492 -0.30799752 0.59472752
1.1128807 -0.30444974 0.59900486
1.1169578 -0.30556512 0.61248279
1.1209111 -0.30664659 0.6260398
1.115599 -0.30519336 0.63615704
1.1102018 -0.3037169 0.64622587
1.1214583 -0.30679628 0.6661886
1.1248455 -0.30772296 0.68009484
1.1107888 -0.30387744 0.68513268
1.1297178 -0.30905584 0.71071929
1.1318946 -0.30965137 0.72617513
1.1338968 -0.31019914 0.74172413
1.1284071 -0.30869731 0.75066859
1.132466 -0.30980769 0.78079438
1.1506611 -0.3147853 0.80652905
1.1446805 -0.31314918 0.81562483
1.1465542 -0.31366181 0.83037919
1.1316624 -0.30958784 0.83492267
1.1402107 -0.31192645 0.85686707
1.1407148 -0.31206432 0.87308955
1.141032 -0.3121511 0.88938594
1.1222208 -0.27876109 0.092263781
1.1215035 -0.2785829 0.10110057
1.1206045 -0.27835959 0.11118098
1.1292722 -0.28051269 0.12229821
1.1378361 -0.28263998 0.1335797
1.1366615 -0.28234819 0.14380574
1.1450224 -0.28442505 0.15532608
1.124442 -0.27931282 0.16283244
1.1329852 -0.28143498 0.17186852
1.1410754 -0.28344461 0.18359227
1.1203262 -0.27829042 0.19058761
1.1282306 -0.28025395 0.20236902
1.1360202 -0.28218886 0.21430697
1.1341619 -0.28172731 0.22451361
1.1417317 -0.28360763 0.23667543
1.1301864 -0.28073978 0.24487479
1.1280695 -0.28021398 0.2550278
1.1353278 -0.28201693 0.26738966
1.1333156 -0.28151709 0.27630419
1.1312325 -0.28099966 0.28522298
1.1384974 -0.28280422 0.2965557
1.1362641 -0.28224951 0.30551472
1.1155504 -0.2771042 0.30799457
1.131948 -0.28117737 0.32207608
1.1388605 -0.28289446 0.33371818
1.1270427 -0.27995887 0.33984986
1.1337816 -0.28163278 0.35159937
1.1311461 -0.2809782 0.36049929
1.128832 -0.28040338 0.36811984
1.135298 -0.28200954 0.3800908
1.1324515 -0.28130242 0.38900185
1.1291138 -0.28047335 0.39916971
1.1344012 -0.28178674 0.4139204
1.1308525 -0.28090522 0.4241049
1.1181271 -0.27774423 0.43075499
1.1234968 -0.2790781 0.44437617
1.1201749 -0.2782529 0.45319259
1.116294 -0.27728891 0.46324763
1.1212986 -0.27853203 0.4770841
1.1172154 -0.2775178 0.48714834
1.1402943 -0.28325063 0.50783664
1.136502 -0.28230861 0.51678318
1.1326348 -0.28134799 0.52572006
1.1369529 -0.28242064 0.54007101
1.1411134 -0.28345409 0.55453932
1.1276321 -0.28010526 0.56043434
1.1402513 -0.2832399 0.5793981
1.1446005 -0.28432027 0.59283346
1.1401689 -0.28321943 0.60183191
1.1442845 -0.2842418 0.6154018
1.131777 -0.2811349 0.61842048
1.1271558 -0.27998695 0.62731719
1.1224796 -0.2788254 0.63615704
1.1261947 -0.27974829 0.64986616
1.1206481 -0.27837044 0.6599679
1.1233996 -0.27905393 0.67505705
1.1259804 -0.279695 0.69024563
1.1283886 -0.2802932 0.7055316
1.1306231 -0.28084823 0.72091299
1.1252539 -0.27951461 0.7297774
1.1525019 -0.28628305 0.760185
1.1224406 -0.27881572 0.75285375
1.1500297 -0.28566888 0.78244799
1.144191 -0.28421858 0.79148364
1.1543316 -0.2867375 0.81172657
1.1482757 -0.28523323 0.8207953
1.1421667 -0.2837157 0.82979548
1.1526613 -0.28632265 0.84911197
1.1463281 -0.28474945 0.8581664
1.1399425 -0.28316325 0.86715019
1.1490029 -0.28541389 0.88810539
1.1282778 -0.25219995 0.094786271
1.1179271 -0.2498863 0.10146865
1.1268516 -0.25188118 0.11118099
1.1162845 -0.24951911 0.11895002
1.1444609 -0.25581735 0.13102157
1.1434524 -0.25559187 0.13996199
1.1422169 -0.25531569 0.15018128
1.1408944 -0.25502005 0.16038914
1.1396644 -0.25474519 0.16932121
1.1480182 -0.25661245 0.17973338
1.1368098 -0.25410709 0.18839541
1.1449929 -0.25593629 0.19896667
1.1432549 -0.25554776 0.20919748
1.1510216 -0.25728384 0.22125617
1.1397634 -0.2547673 0.22832653
1.1475899 -0.2565167 0.23924144
1.1457758 -0.25611126 0.24820316
1.1534231 -0.25782064 0.259314
1.1511707 -0.25731716 0.26961789
1.1396334 -0.25473827 0.27630419
1.1372368 -0.25420257 0.28648412
1.1347538 -0.25364757 0.29664227
1.1419451 -0.25525498 0.30806828
1.1490372 -0.25684026 0.31960356
1.1368759 -0.25412187 0.32716215
1.1437771 -0.25566447 0.33883521
1.1505761 -0.2571843 0.35061476
1.1479268 -0.25659207 0.35961711
1.1452167 -0.2559863 0.36857796
1.142838 -0.25545463 0.37625042
1.1492658 -0.25689137 0.38832304
1.1551561 -0.25820801 0.40179923
1.1424768 -0.25537392 0.40881631
1.1389517 -0.25458589 0.41901663
1.1536517 -0.25787175 0.4361074
1.1321123 -0.25305706 0.43804553
1.1197078 -0.25028443 0.44329664
1.1259326 -0.25167578 0.45446143
1.1406221 -0.25495932 0.47071937
1.1370771 -0.25416684 0.47964025
1.1334739 -0.25336146 0.48851281
1.1297963 -0.25253943 0.49737716
1.1349983 -0.25370219 0.51020974
1.1395123 -0.25471124 0.52443653
1.1350026 -0.25370321 0.53460592
1.1392379 -0.25464988 0.54899037
1.1345191 -0.25359508 0.55915642
1.1390766 -0.25461379 0.57243019
1.1341581 -0.25351441 0.58259392
1.1378392 -0.25433725 0.59727257
1.1413559 -0.25512329 0.61206108
1.1274931 -0.25202462 0.61752969
1.1314353 -0.25290576 0.63110441
1.1345479 -0.25360152 0.6460551
1.1290026 -0.25236198 0.65617549
1.1233715 -0.25110334 0.66624594
1.127506 -0.25202748 0.6788314
1.130785 -0.25276041 0.69277513
1.1339333 -0.25346416 0.70678931
1.1278708 -0.25210902 0.7169019
1.1464664 -0.25626567 0.74299574
1.1482972 -0.25667486 0.75863791
1.158927 -0.25905097 0.77857631
1.1279087 -0.25211754 0.77224255
1.1616232 -0.25965357 0.81043905
1.155557 -0.25829765 0.81949383
1.1485339 -0.25672787 0.82979548
1.1414233 -0.25513837 0.84003395
1.1430058 -0.25549215 0.85484576
1.1435144 -0.25560585 0.87099963
1.1438344 -0.25567731 0.88722718
1.1335952 -0.22548613 0.098579243
1.1328248 -0.22533286 0.10739171
1.122228 -0.22322503 0.11521619
1.1312163 -0.22501294 0.12376951
1.1302576 -0.22482224 0.13256273
1.1290798 -0.22458799 0.14261416
1.1278163 -0.22433667 0.15265471
1.1361777 -0.22599982 0.16408609
1.1347301 -0.22571187 0.17418897
1.1235106 -0.22348015 0.18270357
1.1315756 -0.22508441 0.19435419
1.1204265 -0.22286667 0.2014318
1.1283034 -0.22443353 0.21321547
1.1360632 -0.22597705 0.22515452
1.1247329 -0.22372331 0.23199959
1.1229606 -0.22337078 0.24075925
1.1405602 -0.22687154 0.25249135
1.1386381 -0.22648917 0.26135349
1.1270938 -0.2241929 0.26794991
1.1250565 -0.22378768 0.27670687
1.1419821 -0.22715436 0.29030618
1.1299585 -0.22476272 0.29795212
1.1276968 -0.22431286 0.30673051
1.1250286 -0.22378208 0.31675249
1.1411364 -0.22698615 0.33224198
1.1292021 -0.22461225 0.33830732
1.1266385 -0.22410236 0.34707865
1.1240034 -0.22357817 0.3558498
1.1399972 -0.22675955 0.37065652
1.1562426 -0.22999099 0.3844569
1.1347244 -0.22571072 0.3871116
1.1410725 -0.22697347 0.39916971
1.1283637 -0.22444552 0.40597951
1.1340661 -0.22557977 0.41941354
1.1304333 -0.22485718 0.42948791
1.1450348 -0.22776163 0.44667643
1.1142528 -0.22163865 0.44465393
1.1291054 -0.22459307 0.46073714
1.1341927 -0.22560498 0.47456232
1.1300877 -0.22478846 0.48463574
1.1258967 -0.2239548 0.49467224
1.1305931 -0.22488898 0.50870848
1.1446307 -0.22768125 0.52572006
1.1406648 -0.22689238 0.53460592
1.1366233 -0.22608843 0.54348093
1.1413726 -0.22703317 0.55661887
1.1283507 -0.22444293 0.56111503
1.1159377 -0.22197384 0.56419021
1.1291916 -0.22461024 0.58187312
1.1422348 -0.22720465 0.59981477
1.1377146 -0.22630553 0.60867983
1.1331178 -0.22539122 0.61752969
1.1284654 -0.2244658 0.62632334
1.1230618 -0.22339095 0.63634002
1.1261039 -0.22399603 0.65124184
1.1204871 -0.22287877 0.66123658
1.1232302 -0.22342445 0.6762656
1.1181271 -0.22240932 0.6850006
1.1289469 -0.22456153 0.70537299
1.1228666 -0.22335212 0.71539092
1.1167009 -0.22212563 0.72535443
1.1186757 -0.22251843 0.74070901
1.1458406 -0.22792195 0.77142757
1.1473317 -0.22821854 0.78717613
1.1405506 -0.22686963 0.79735452
1.1425855 -0.2272744 0.81193882
1.1524854 -0.22924362 0.83236104
1.1612246 -0.23098195 0.85428613
1.1538686 -0.2295188 0.86458558
1.1394939 -0.22665954 0.86757064
1.1407846 -0.22691625 0.88245076
1.1293834 -0.19710898 0.09022788
1.1483017 -0.20041069 0.10069049
1.1378192 -0.19858122 0.10739171
1.1369772 -0.19843435 0.11621807
1.1458646 -0.19998537 0.12609524
1.1448816 -0.19981386 0.13498349
1.1534526 -0.20130973 0.14636056
1.1521505 -0.20108248 0.15657279
1.1312562 -0.19743587 0.16394642
1.1395434 -0.19888221 0.17546101
1.135287 -0.19813927 0.20190121
1.1434234 -0.19955938 0.21250607
1.1514697 -0.20096369 0.22322848
1.1403419 -0.19902156 0.22893381
1.1479774 -0.20035417 0.24105239
1.1461284 -0.20003147 0.24995367
1.153549 -0.2013265 0.26228276
1.1320628 -0.19757663 0.26794991
1.148864 -0.20050888 0.28267935
1.1559434 -0.20174445 0.29528609
1.1342971 -0.19796659 0.3004649
1.131671 -0.1975082 0.31050155
1.1387951 -0.19875158 0.32193708
1.1454507 -0.19991316 0.33477953
1.1330867 -0.19775529 0.34206319
1.1395205 -0.19887818 0.3550216
1.1462088 -0.20004547 0.36686099
1.143419 -0.19955859 0.37572461
1.1401457 -0.19898731 0.38583922
1.1558495 -0.20172805 0.40114558
1.1342082 -0.19795105 0.40346861
1.1395123 -0.19887674 0.41816208
1.1363374 -0.19832268 0.42697236
1.1427761 -0.19944638 0.43804553
1.1302549 -0.19726104 0.44329664
1.1268913 -0.19667402 0.45203453
1.1229625 -0.19598836 0.46199983
1.1371424 -0.19846314 0.47960359
1.1382896 -0.19866338 0.50242376
1.1429265 -0.19947264 0.51655549
1.1384424 -0.19869 0.52666038
1.1344522 -0.19799364 0.53545922
1.1392875 -0.19883749 0.54853237
1.1351329 -0.1981124 0.55733711
1.1391289 -0.19880986 0.57180399
1.1341701 -0.19794437 0.58187312
1.1385127 -0.19870234 0.595236
1.1333524 -0.19780172 0.60529882
1.1367835 -0.19840051 0.6200487
1.1400466 -0.19897006 0.6349051
1.1345452 -0.19800992 0.64497995
1.1382242 -0.19865195 0.65869784
1.1410335 -0.19914229 0.6737839
1.1208482 -0.19561933 0.68871772
1.1400328 -0.19896762 0.71437883
1.1338482 -0.19788824 0.72445053
1.1366563 -0.19837831 0.73861945
1.1558416 -0.20172663 0.76376468
1.1508925 -0.20086296 0.77142757
1.1368706 -0.19841574 0.77476215
1.14729 -0.20023419 0.7948156
1.1404135 -0.19903411 0.80494857
1.160176 -0.20248318 0.84586751
1.1617293 -0.20275432 0.86074126
1.163141 -0.20300066 0.87566763
1.1495962 -0.20063671 0.87736726
1.1231482 -0.16885775 0.098108679
1.1223737 -0.16874138 0.10678818
1.1312463 -0.1700753 0.1177122
1.1400151 -0.17139362 0.12880088
1.1290424 -0.16974397 0.13765913
1.1278116 -0.1695589 0.14761725
1.1266654 -0.16938652 0.15631145
1.1254507 -0.16920398 0.16501644
1.1241734 -0.16901194 0.17369194
1.1323938 -0.17024775 0.18520229
1.1405003 -0.17146657 0.19687082
1.1389787 -0.17123781 0.20568158
1.1468798 -0.17242567 0.21756859
1.1449585 -0.17213686 0.22768107
1.1429502 -0.17183493 0.2377762
1.1408548 -0.17151983 0.24785323
1.1389523 -0.17123382 0.25664511
1.1369789 -0.17093711 0.26544216
1.1445619 -0.17207719 0.2765274
1.1328378 -0.1703146 0.28296918
1.1405667 -0.17147653 0.29292232
1.1383241 -0.17113937 0.3017107
1.1360102 -0.17079155 0.31050155
1.1336353 -0.17043443 0.31925425
1.130837 -0.17001374 0.32924598
1.1279527 -0.16958012 0.33921266
1.1344361 -0.17055486 0.35208753
1.1317413 -0.17014976 0.36084688
1.1383951 -0.17115009 0.3726449
1.1261601 -0.16931063 0.37828189
1.1513561 -0.17309868 0.39663059
1.1483241 -0.17264286 0.4055194
1.144781 -0.17211014 0.41563746
1.1416128 -0.17163381 0.42445478
1.1471578 -0.17246747 0.43804553
1.1341136 -0.17050633 0.44453794
1.1302342 -0.16992316 0.45452911
1.1354254 -0.17070359 0.46826199
1.1318524 -0.1701664 0.47702557
1.1282218 -0.1696206 0.48574138
1.1335855 -0.17042693 0.49843624
1.1473088 -0.17249018 0.51655549
1.1523824 -0.17325297 0.52952623
1.1388021 -0.17121121 0.53545922
1.1341379 -0.17051002 0.5454883
1.147173 -0.17246979 0.56422353
1.1340147 -0.17049152 0.56863266
1.1385187 -0.17116868 0.58187312
1.1428782 -0.17182413 0.595236
1.1383555 -0.17114414 0.60403341
1.1330996 -0.17035393 0.61405599
1.1197443 -0.16834606 0.61800659
1.1402841 -0.17143406 0.64246583
1.1346965 -0.17059399 0.65250391
1.1290226 -0.16974102 0.66249233
1.131772 -0.17015435 0.67752445
1.1343474 -0.17054151 0.69265521
1.1375164 -0.17101796 0.70661819
1.1313753 -0.17009471 0.71662939
1.1418169 -0.17166449 0.73735029
1.1354103 -0.17070137 0.74739832
1.1536382 -0.17344178 0.77397454
1.1477537 -0.17255707 0.78286999
1.1581273 -0.17411672 0.80300957
1.1439103 -0.17197923 0.80622095
1.1628947 -0.17483343 0.83108902
1.1646245 -0.17509353 0.84586751
1.1572807 -0.17398944 0.85611266
1.1507751 -0.17301136 0.86503386
1.1599996 -0.17439821 0.88593787
1.1267068 -0.14233619 0.099357463
1.1258037 -0.14222211 0.10926408
1.124815 -0.14209718 0.11916237
1.1434553 -0.14445205 0.13131565
1.1325798 -0.1430781 0.13889451
1.1511714 -0.14542677 0.1501845
1.1401725 -0.14403729 0.15767069
1.1389433 -0.14388205 0.16645136
1.147647 -0.14498152 0.17546102
1.1364887 -0.1435719 0.18270358
1.1350698 -0.14339264 0.19145516
1.1335881 -0.14320548 0.20017558
1.1415688 -0.14421366 0.21195042
1.1299493 -0.14274581 0.22008617
1.1182768 -0.14127125 0.22803381
1.1359322 -0.14350162 0.24075927
1.1340775 -0.14326735 0.2494849
1.1321522 -0.1430241 0.2582159
1.1398249 -0.14399336 0.26919326
1.128108 -0.14251323 0.27561235
1.1359208 -0.14350016 0.28546774
1.1238008 -0.14196907 0.29294452
1.1403879 -0.14406453 0.30799457
1.1376779 -0.14372213 0.31801358
1.1253445 -0.14216407 0.325252
1.1319983 -0.14300461 0.33797818
1.1480044 -0.1450267 0.35376966
1.1448979 -0.14463422 0.36385393
1.1322685 -0.14303881 0.37082031
1.1388416 -0.14386922 0.3826766
1.1448693 -0.14463064 0.39592445
1.1511924 -0.14542946 0.40805185
1.1480712 -0.14503518 0.41688994
1.1546514 -0.14586636 0.42790562
1.142087 -0.14427918 0.43326747
1.1382924 -0.14379981 0.44329664
1.1251884 -0.14214438 0.44960678
1.1309481 -0.14287207 0.46199983
1.136067 -0.14351863 0.47576675
1.1410329 -0.14414597 0.48965862
1.1367502 -0.14360496 0.49967641
1.1233218 -0.14190853 0.50557888
1.1380796 -0.14377293 0.52125239
1.134093 -0.14326933 0.53000635
1.1204972 -0.14155176 0.53567612
1.1425965 -0.14434353 0.55860376
1.1288283 -0.14260423 0.56419021
1.1327503 -0.14309964 0.57861823
1.1283391 -0.14254242 0.5873096
1.141412 -0.14419393 0.60529882
1.1280539 -0.14250635 0.60933244
1.131439 -0.14293401 0.62403172
1.1273627 -0.14241906 0.63148242
1.1225405 -0.1418099 0.64015055
1.1348587 -0.14336605 0.65874261
1.1212702 -0.14164938 0.66241109
1.1332668 -0.14316492 0.68125618
1.128819 -0.14260302 0.68871772
1.1151148 -0.14087181 0.69215184
1.1518844 -0.14551692 0.72724611
1.1463352 -0.14481585 0.73610038
1.1165339 -0.14105107 0.72736269
1.1350492 -0.14339013 0.75365943
1.136718 -0.14360093 0.76918834
1.1300154 -0.14275415 0.77915752
1.1249318 -0.14211194 0.78659546
1.1594887 -0.14647757 0.82403302
1.1468687 -0.14488326 0.84178424
1.1634436 -0.14697713 0.86971068
1.1568135 -0.14613956 0.87864989
1.1300658 -0.11578429 0.095630586
1.1293055 -0.11570645 0.10431178
1.1284813 -0.11562193 0.11296706
1.1473715 -0.11755747 0.12376951
1.1562817 -0.11847038 0.13370553
1.1354837 -0.11633939 0.14014967
1.1440866 -0.11722089 0.15141031
1.1328775 -0.11607242 0.16004899
1.1412836 -0.11693371 0.17145884
1.1301224 -0.11579014 0.17865053
1.1383417 -0.1166323 0.19019704
1.146446 -0.11746265 0.20190123
1.1350918 -0.11629929 0.20890428
1.133235 -0.11610909 0.21885361
1.1312921 -0.11591001 0.22878626
1.1389978 -0.11669953 0.24075927
1.1465812 -0.11747654 0.25288472
1.1249466 -0.11525984 0.25847664
1.142314 -0.11703928 0.2716991
1.1495721 -0.11778297 0.28409675
1.1374229 -0.11653806 0.29169822
1.1444647 -0.11725964 0.30422133
1.1417801 -0.11698457 0.31424925
1.1585059 -0.11869826 0.32844284
1.1464267 -0.11746063 0.33452776
1.1438491 -0.11719658 0.3433277
1.131701 -0.11595186 0.34915346
1.1385002 -0.11664852 0.36084688
1.1447852 -0.11729249 0.37391049
1.1419151 -0.1169984 0.3826766
1.1483845 -0.11766126 0.39467549
1.1449146 -0.11730572 0.40473434
1.1511695 -0.11794653 0.41688994
1.1479657 -0.11761829 0.42572388
1.1260891 -0.11537692 0.42744765
1.1316109 -0.11594269 0.44092381
1.1277401 -0.11554608 0.45083374
1.1242788 -0.11519137 0.45948669
1.1299465 -0.1157721 0.47192994
1.1263245 -0.11540106 0.48059919
1.1231713 -0.11507794 0.48799923
1.1376382 -0.11656025 0.5046711
1.1422796 -0.11703572 0.51874852
1.1371536 -0.1165106 0.53000635
1.142676 -0.11707643 0.54174227
1.1474972 -0.11757032 0.55482185
1.1253812 -0.11530439 0.55481696
1.1389349 -0.11669306 0.57237238
1.1440525 -0.1172174 0.58438349
1.130741 -0.11585359 0.58855975
1.143176 -0.11712757 0.60780734
1.1291032 -0.11568568 0.61306
1.1324494 -0.11602858 0.62777036
1.1363276 -0.11642591 0.64133018
1.1314173 -0.11592285 0.65004355
1.1350513 -0.1162952 0.6637274
1.1214103 -0.11489753 0.66733611
1.1340953 -0.11619727 0.6850006
1.1373527 -0.116531 0.69889128
1.1320047 -0.11598305 0.70761085
1.1342204 -0.11621003 0.72286868
1.1287029 -0.11564468 0.73154366
1.1231067 -0.1150714 0.74019581
1.1422904 -0.11703686 0.76542473
1.1282011 -0.11559336 0.7685703
1.1559663 -0.11843812 0.79863274
1.1580284 -0.11864942 0.81319898
1.1518104 -0.1180123 0.82207406
1.1607516 -0.11892843 0.84386706
1.1543152 -0.11826896 0.85274196
1.1477966 -0.11760103 0.86158735
1.1412261 -0.11692785 0.8703624
1.1422014 -0.089893289 0.098969288
1.1314886 -0.089050062 0.10678819
1.1404333 -0.089754052 0.11771221
1.1471784 -0.090284951 0.14639074
1.1461986 -0.090207823 0.15391903
1.154685 -0.090875693 0.16535977
1.1433461 -0.089983292 0.17396136
1.1319462 -0.089086071 0.18237714
1.1580424 -0.091139928 0.20743954
1.1463954 -0.090223268 0.21572478
1.1542568 -0.090842083 0.22768107
1.1424675 -0.089914158 0.23576115
1.1406417 -0.089770451 0.24449486
1.1487572 -0.090409175 0.25413176
1.1467869 -0.090254083 0.26293314
1.1541547 -0.090833917 0.27527478
1.1420376 -0.089880303 0.28296918
1.1395323 -0.08968313 0.29295525
1.1562105 -0.090995811 0.30805323
1.1438742 -0.090024851 0.31551108
1.1414421 -0.089833461 0.3242532
1.1485084 -0.090389632 0.33579472
1.1459218 -0.090186022 0.34457174
1.1531794 -0.090757154 0.3550216
1.1409323 -0.089793347 0.36084688
1.14764 -0.090321265 0.3726449
1.1538119 -0.090806924 0.38583922
1.1414046 -0.089830481 0.39144045
1.1473604 -0.090299271 0.40473434
1.1442497 -0.090054415 0.41350058
1.1415272 -0.089840136 0.42100391
1.1382854 -0.089585036 0.42974496
1.1345034 -0.08928737 0.43969262
1.1399026 -0.089712292 0.45329207
1.1456621 -0.090165585 0.46575591
1.1420791 -0.089883655 0.47452736
1.1379074 -0.089555293 0.48450652
1.1336491 -0.089220136 0.49444875
1.14808 -0.090355903 0.51122212
1.1441505 -0.090046614 0.52001077
1.1492121 -0.090445012 0.53294551
1.1361004 -0.089413077 0.53747654
1.1493397 -0.090455033 0.55608988
1.1444582 -0.090070881 0.56612945
1.1394894 -0.089679815 0.57612592
1.1445787 -0.090080358 0.5881539
1.1400733 -0.08972571 0.59689349
1.12604 -0.088621296 0.60214615
1.1382706 -0.089583851 0.62154222
1.1415341 -0.089840747 0.63634002
1.1359546 -0.08940158 0.64630818
1.1396296 -0.089690842 0.65999997
1.1424341 -0.089911565 0.67502594
1.1365182 -0.089445934 0.6850006
1.1390157 -0.08964251 0.70014805
1.1328814 -0.089159712 0.71009177
1.1274493 -0.088732228 0.71873832
1.1478714 -0.090339467 0.74238133
1.1505172 -0.090547726 0.75664461
1.1356018 -0.089373812 0.76113117
1.1545212 -0.090862863 0.78665394
1.1587307 -0.091194145 0.81573671
1.1605964 -0.091340952 0.83040518
1.1623204 -0.091476671 0.84512925
1.1648144 -0.091672949 0.8586638
1.1662244 -0.091783933 0.87355387
1.1595483 -0.091258518 0.88245076
1.1320419 -0.062300034 0.11916237
1.1411622 -0.062801965 0.12769052
1.1400061 -0.062738366 0.13765913
1.1486654 -0.063214846 0.14890087
1.1473243 -0.063141115 0.15893424
1.1458957 -0.063062496 0.1689555
1.1345146 -0.062436175 0.17742111
1.142777 -0.062890843 0.18895867
1.1314659 -0.062268388 0.19597818
1.1399884 -0.062737361 0.20515919
1.1285756 -0.062109306 0.21203718
1.1465266 -0.063097194 0.22448912
1.1447797 -0.063000992 0.23326041
1.1427035 -0.062886849 0.2432566
1.1405405 -0.062767759 0.2532343
1.1285615 -0.062108472 0.26094317
1.1359539 -0.062515333 0.27313101
1.1532227 -0.063465729 0.28661719
1.1413291 -0.062811151 0.29295528
1.1487179 -0.063217781 0.30422133
1.1463623 -0.063088141 0.31300706
1.1439452 -0.062955104 0.32175452
1.141818 -0.06283804 0.32924601
1.1389058 -0.062677823 0.33921269
1.145452 -0.063038073 0.35208753
1.1423407 -0.06286677 0.3620851
1.139142 -0.062690817 0.37205508
1.1552067 -0.063574873 0.3871116
1.1526523 -0.063434325 0.39467549
1.1496131 -0.063267075 0.40346861
1.1371024 -0.062578522 0.40887916
1.1339555 -0.062405434 0.4175531
1.1307352 -0.06222811 0.4262225
1.1186038 -0.061560538 0.43004149
1.1245904 -0.061889973 0.44222826
1.1211821 -0.061702397 0.45082524
1.1177163 -0.061511725 0.45937636
1.1325934 -0.062330395 0.47565442
1.1192317 -0.061595052 0.48158744
1.1429627 -0.062901109 0.50217497
1.1385435 -0.062657863 0.51214504
1.1340376 -0.062409911 0.52207613
1.1300195 -0.062188778 0.53074306
1.1349524 -0.062460218 0.54367423
1.1391416 -0.062690832 0.55796617
1.1259136 -0.061962817 0.56220919
1.1215993 -0.061725412 0.57079321
1.1343066 -0.062424697 0.58978939
1.1203032 -0.061654069 0.5949955
1.1238562 -0.061849512 0.60952592
1.1359789 -0.062516786 0.62900186
1.1224434 -0.061771851 0.63277537
1.1262555 -0.0619816 0.64630234
1.1299148 -0.062183004 0.65994388
1.1334428 -0.062377136 0.67365903
1.1282676 -0.062092345 0.68231702
1.1237845 -0.061845642 0.68969804
1.1346674 -0.062444553 0.71009177
1.128437 -0.062101707 0.71998143
1.1556168 -0.063597485 0.75160182
1.1498593 -0.063280627 0.76040721
1.1266218 -0.062001754 0.75926208
1.1281983 -0.062088538 0.77473456
1.1541464 -0.06351655 0.80747223
1.1470668 -0.063126914 0.81752843
1.1470684 -0.063127093 0.83465499
1.1548789 -0.063556902 0.85779685
1.1492484 -0.063247077 0.86534852
1.1505444 -0.063318364 0.88019222
1.1146398 -0.035029002 0.10368855
1.1237596 -0.03531564 0.11321244
1.1328008 -0.035599776 0.12286205
1.1407126 -0.035848387 0.14138474
1.1495085 -0.036124777 0.15141031
1.1484934 -0.036092889 0.15893424
1.1470635 -0.036047887 0.1689555
1.1356707 -0.035689842 0.17742111
1.1439415 -0.035949837 0.18895867
1.1422498 -0.03589667 0.19893906
1.1503028 -0.036149751 0.21070519
1.12879 -0.035473719 0.21696694
1.1562508 -0.036336675 0.23273085
1.1346145 -0.035656705 0.23870149
1.1327618 -0.035598531 0.24735254
1.1210902 -0.035231724 0.253802
1.1483173 -0.036087349 0.26919329
1.1362144 -0.035707016 0.27684265
1.1531368 -0.036238808 0.29165396
1.1505492 -0.036157448 0.30171072
1.1385612 -0.035780746 0.30789232
1.1262069 -0.035392482 0.31512779
1.1426189 -0.0359083 0.33050323
1.1396928 -0.035816334 0.34046665
1.1366796 -0.035721622 0.35040417
1.1335802 -0.035624228 0.360315
1.159308 -0.036432765 0.37825599
1.156384 -0.036340855 0.38711163
1.1533992 -0.036247041 0.39592448
1.1503404 -0.036150958 0.40473437
1.1373668 -0.035743203 0.41136271
1.143105 -0.035923567 0.42475885
1.1206788 -0.035218742 0.42759636
1.1453211 -0.035993244 0.44703895
1.1228194 -0.035286095 0.4495903
1.1373487 -0.03574267 0.46696934
1.1240191 -0.035323709 0.47300449
1.1382089 -0.035769671 0.49071488
1.1344261 -0.03565082 0.49940583
1.1397038 -0.03581664 0.51214504
1.1448433 -0.035978232 0.52501357
1.1413844 -0.035869453 0.53249896
1.1372918 -0.035740886 0.54119313
1.1325281 -0.035591219 0.55110204
1.1282842 -0.035457823 0.55974776
1.123359 -0.035302971 0.56957734
1.1189842 -0.035165466 0.57813287
1.1410707 -0.035859622 0.60064268
1.1364586 -0.035714664 0.60933244
1.1500056 -0.03614042 0.62632334
1.1270256 -0.03541819 0.62662488
1.147599 -0.036064725 0.65124184
1.1418749 -0.035884898 0.66123658
1.1461425 -0.036019009 0.67376548
1.1487951 -0.036102396 0.6888876
1.1342149 -0.035644218 0.6936757
1.1381464 -0.035767719 0.70635921
1.1403894 -0.035838231 0.7216146
1.1424522 -0.035903022 0.7369625
1.1610392 -0.036487151 0.76338494
1.1560204 -0.036329437 0.7709713
1.1657878 -0.036636401 0.79227287
1.1506144 -0.036159564 0.7967301
1.1590588 -0.036424927 0.8195461
1.1608956 -0.036482625 0.83420038
1.1596596 -0.036443885 0.88626248
1.1362529 -0.008924311 0.091922507
1.1445503 -0.0089895194 0.11146116
1.1436648 -0.008982487 0.12020765
1.1525078 -0.0090519274 0.13131565
1.1413928 -0.0089646662 0.14014967
1.1402907 -0.0089560244 0.14885129
1.149025 -0.0090246303 0.15893424
1.1279901 -0.0088594062 0.16480225
1.1367723 -0.0089284293 0.17369194
1.1549562 -0.0090712421 0.18679886
1.143425 -0.0089805843 0.19518816
1.1416783 -0.0089668762 0.20515919
1.1400766 -0.0089543592 0.21388099
1.1381669 -0.0089393398 0.22382206
1.1361704 -0.0089236647 0.2337461
1.1438639 -0.0089840442 0.24575278
1.1416759 -0.0089669386 0.25572571
1.1296625 -0.0088725844 0.26340839
1.1467574 -0.009006815 0.27796805
1.1442881 -0.0089873848 0.287965
1.1417317 -0.0089673586 0.29794002
1.1494162 -0.0090276785 0.3079946
1.1370488 -0.0089305835 0.31534123
1.1346107 -0.0089114513 0.32400462
1.1416949 -0.0089670625 0.33548814
1.1391031 -0.0089466786 0.34418637
1.1459886 -0.0090008005 0.35584983
1.1523634 -0.0090508685 0.36888576
1.1396037 -0.0089506144 0.3757965
1.1362811 -0.0089245085 0.38572729
1.1517531 -0.0090461029 0.40222251
1.1387877 -0.0089442385 0.40887916
1.1445582 -0.008989539 0.42226276
1.1319494 -0.0088904761 0.42744768
1.1193211 -0.0087913545 0.43248457
1.1257706 -0.0088419588 0.44346642
1.1218579 -0.008811323 0.45327392
1.1455753 -0.0089975288 0.47452739
1.1321859 -0.0088923872 0.48059922
1.1371194 -0.0089310715 0.49444878
1.1424549 -0.0089730937 0.50716484
1.147653 -0.0090138046 0.52001077
1.1339996 -0.0089066355 0.52579993
1.1384031 -0.0089412071 0.53996152
1.1342518 -0.0089086033 0.54862869
1.1389933 -0.0089457976 0.5617066
1.1346762 -0.0089119431 0.57037765
1.1302829 -0.0088774916 0.57903522
1.1346986 -0.0089121228 0.59226644
1.1396325 -0.0089508668 0.60436547
1.1349792 -0.0089142704 0.61306
1.1302705 -0.0088773752 0.62169892
1.1254852 -0.008839706 0.63032132
1.1300282 -0.0088754101 0.64261752
1.1337488 -0.0089046769 0.65622717
1.1279793 -0.0088593774 0.66609621
1.1221237 -0.0088133635 0.67591453
1.1339765 -0.0089064669 0.69492304
1.1286434 -0.0088645658 0.70355195
1.1401231 -0.0089547485 0.72286868
1.1261724 -0.0088451356 0.72612482
1.1289514 -0.0088669518 0.74019581
1.1490624 -0.0090249656 0.76418173
1.151485 -0.00904404 0.77852458
1.1446475 -0.008990217 0.78854376
1.1549687 -0.0090714004 0.8087427
1.148767 -0.0090225842 0.81752843
1.1667922 -0.0091642067 0.84386706
1.1603224 -0.0091134245 0.85274196
1.15377 -0.009061926 0.86158735
1.1560793 -0.0090801064 0.87515604
1.149371 -0.0090274168 0.88394833
1.1356304 0.017839903 0.098108694
1.1347311 0.017825775 0.10801629
1.1338723 0.017812304 0.11668863
1.1528257 0.018110029 0.12753321
1.1319584 0.017782204 0.13399255
1.1408238 0.017921498 0.14387427
1.1395249 0.017901113 0.15382546
1.147854 0.018031944 0.16645136
1.1366671 0.017856229 0.17369194
1.1451786 0.017989922 0.18396305
1.1437423 0.017967332 0.19269305
1.1424568 0.017947124 0.20017558
1.1505001 0.018073486 0.21195042
1.1289725 0.017735289 0.21818888
1.1466262 0.018012688 0.23199961
1.1448195 0.017984197 0.24075927
1.1432194 0.017959103 0.2482478
1.1315382 0.01777558 0.25476477
1.1587706 0.018203421 0.2702207
1.1469562 0.018017752 0.2767069
1.1351058 0.017831607 0.28304857
1.1232314 0.017645162 0.2892057
1.1496478 0.01806007 0.30673054
1.1372895 0.017865937 0.31409076
1.1441202 0.017973224 0.3267504
1.1511824 0.018084208 0.33830735
1.1386185 0.017886857 0.34543872
1.1451036 0.017988659 0.3583492
1.1419332 0.01793889 0.36832958
1.1386759 0.017887747 0.37828192
1.1546873 0.018139219 0.39340597
1.1516464 0.018091476 0.40222251
1.1575036 0.018183503 0.41563749
1.1449158 0.017985735 0.42100394
1.1505527 0.018074308 0.43451291
1.1285443 0.017728601 0.43608859
1.134485 0.01782194 0.44835949
1.1217539 0.017621906 0.45327392
1.1367483 0.017857462 0.46945077
1.1244353 0.017664045 0.47300449
1.1391605 0.017895311 0.48948231
1.1348462 0.017827598 0.49940583
1.1486783 0.018044857 0.51750571
1.1356136 0.017839639 0.52207613
1.1400632 0.017909493 0.53622317
1.1443515 0.017976906 0.55048734
1.1401105 0.017910266 0.55922025
1.1441261 0.017973388 0.57363093
1.1390773 0.017893994 0.58359456
1.1516597 0.018091701 0.60278744
1.137538 0.017869852 0.60810173
1.1416495 0.017934402 0.62154222
1.1449226 0.017985782 0.63634002
1.1313229 0.017772218 0.64015055
1.1271093 0.017705938 0.64754224
1.1386688 0.017887611 0.66746765
1.1328015 0.017795462 0.67738014
1.1439214 0.017970102 0.69765371
1.1292996 0.017740386 0.70233017
1.1323612 0.017788544 0.71626931
1.1268532 0.017701939 0.72490573
1.1380279 0.017877473 0.74442768
1.1323047 0.017787648 0.75310665
1.1265285 0.01769687 0.76172191
1.1618745 0.018252144 0.79863274
1.1639471 0.018284688 0.81319898
1.1576974 0.018186519 0.82207406
1.1513946 0.018087514 0.83088106
1.1611369 0.018240578 0.85148585
1.1555398 0.0181526 0.8590681
1.1649127 0.018299824 0.87991112
1.1581531 0.018193608 0.88879162
1.1249397 0.044198982 0.097248092
1.1332655 0.044526152 0.11544165
1.1522163 0.045270674 0.12628549
1.1414402 0.044847302 0.13267609
1.1503124 0.04519587 0.14261417
1.1392825 0.044762544 0.15010504
1.1480019 0.045105148 0.16017756
1.146745 0.045055736 0.1689555
1.1256752 0.044227887 0.17463975
1.1442373 0.04495715 0.18520229
1.1524286 0.045279015 0.19687082
1.1408334 0.044823457 0.20515919
1.1390009 0.04475145 0.21511458
1.1468842 0.045061216 0.22699369
1.154904 0.045376286 0.2377762
1.1530583 0.045303747 0.24658455
1.1416632 0.044856057 0.25197816
1.1397052 0.044779107 0.26070493
1.1471096 0.045070034 0.27296159
1.1446857 0.044974845 0.28296921
1.1421747 0.04487614 0.29295528
1.1395768 0.044774037 0.30291906
1.1368921 0.044668596 0.31285974
1.1344745 0.044573586 0.32152843
1.1508079 0.045215346 0.3370412
1.1481998 0.045112886 0.34583545
1.1359845 0.044632889 0.35163459
1.1336606 0.044541635 0.35906774
1.1498911 0.045179345 0.37391052
1.1470081 0.045066096 0.38267663
1.1535065 0.045321379 0.39467552
1.1590055 0.045537446 0.40930724
1.1370509 0.044674788 0.41136271
1.1432538 0.044918571 0.42350107
1.1311116 0.044441495 0.42744768
1.1273413 0.044293318 0.43730971
1.1425458 0.044890732 0.4532921
1.1297973 0.044389814 0.45824376
1.1262641 0.044250995 0.46687374
1.1415995 0.044853538 0.48201519
1.1378927 0.044707924 0.49071488
1.1427122 0.044897288 0.5046711
1.1473742 0.045080449 0.51874852
1.1433783 0.044923451 0.52751124
1.1387348 0.044740941 0.53747654
1.1430049 0.044908728 0.55174541
1.147112 0.045070138 0.56612945
1.1421318 0.044874392 0.57612592
1.1294463 0.044376038 0.57903522
1.1338588 0.044549428 0.59226644
1.1374688 0.044691227 0.60685045
1.1321338 0.044481598 0.61676115
1.1354468 0.044611834 0.63148242
1.1298972 0.044393737 0.64137453
1.1329098 0.044512052 0.65622717
1.1357486 0.044623632 0.6711809
1.1298528 0.044392008 0.68107414
1.1238708 0.044156928 0.69091552
1.1262717 0.044251278 0.70601267
1.1292732 0.044369176 0.71998143
1.1237533 0.044152334 0.72858012
1.1515329 0.045243751 0.75916058
1.1282771 0.044330131 0.75804067
1.1628603 0.045688819 0.79609573
1.1558743 0.04541434 0.80622095
1.1578501 0.045492001 0.82080048
1.1506488 0.045209117 0.83088106
1.1594635 0.04555542 0.85274196
1.1599835 0.045575805 0.86882728
1.1542766 0.045351628 0.87640661
1.1336346 0.071322255 0.096879616
1.1327477 0.071266465 0.1067882
1.1319019 0.071213238 0.11544165
1.15083 0.072404079 0.12628551
1.1399229 0.071717851 0.13391215
1.1288112 0.071018808 0.1426232
1.1473074 0.072182469 0.15516309
1.13621 0.07148426 0.16253312
1.1546777 0.072646134 0.174189
1.1533151 0.072560415 0.18302827
1.1418338 0.071838066 0.19145517
1.1204655 0.070493743 0.19795886
1.138325 0.07161735 0.21139315
1.1366827 0.071513996 0.22008619
1.1447546 0.072021827 0.23075856
1.1429648 0.071909294 0.23950018
1.1508572 0.0724058 0.25036961
1.1391814 0.071671173 0.25696102
1.1469072 0.072157249 0.26794994
1.1451323 0.072045609 0.27546546
1.1430023 0.071911559 0.28420866
1.1504683 0.072381303 0.29543796
1.148186 0.072237708 0.30422136
1.1458313 0.07208959 0.31300709
1.153024 0.072542109 0.32445836
1.1405697 0.071758546 0.33174005
1.1475685 0.072198845 0.34332773
1.1445346 0.072007991 0.35334876
1.1414136 0.071811654 0.36334285
1.1382058 0.071609773 0.37330931
1.1538262 0.072592594 0.38963479
1.1413938 0.071810342 0.39517519
1.1562643 0.072745956 0.41311091
1.1624608 0.073135823 0.42536557
1.1498334 0.072341353 0.43075502
1.1460381 0.072102576 0.44079253
1.1421554 0.071858317 0.45079646
1.1381857 0.071608514 0.46076605
1.1249089 0.070773274 0.46687374
1.1483605 0.072248727 0.48841384
1.1349106 0.07140252 0.49444878
1.1311138 0.071163625 0.50310749
1.1454237 0.072063953 0.52001077
1.1323731 0.071242779 0.5245527
1.1458056 0.072087906 0.5429849
1.1326404 0.07125964 0.54740095
1.1380011 0.071596943 0.55922025
1.1426381 0.071888648 0.57237238
1.1376096 0.071572267 0.58234155
1.1324944 0.071250461 0.59226644
1.1449071 0.072031461 0.61155468
1.1402078 0.071735762 0.62030631
1.1347619 0.071393095 0.63025242
1.1292298 0.071045063 0.64015055
1.1408978 0.071779214 0.65999997
1.1358407 0.071461037 0.66869962
1.1299735 0.071091846 0.67860568
1.1240203 0.07071735 0.68846011
1.126451 0.070870236 0.70355195
1.1539733 0.07260181 0.73482949
1.1399513 0.071719602 0.7382189
1.1426393 0.07188876 0.75240099
1.1534622 0.072569624 0.77224255
1.1475503 0.072197691 0.78103495
1.1579833 0.072854109 0.80116594
1.1591244 0.072925873 0.81701422
1.1528716 0.072532482 0.82584864
1.1546113 0.072641976 0.84053284
1.1571319 0.072800525 0.85401732
1.1505976 0.072389372 0.86283541
1.143981 0.071973093 0.87162328
1.1316397 0.098010592 0.096879616
1.1407905 0.098803155 0.10646594
1.1597714 0.10044711 0.11721996
1.1490765 0.099520795 0.12376952
1.1380606 0.098566703 0.13267611
1.1566352 0.10017549 0.14512025
1.1456227 0.099221639 0.15265474
1.1541162 0.09995728 0.16408612
1.1526457 0.099829905 0.174189
1.1412491 0.098842844 0.1827036
1.1396172 0.098701522 0.19269307
1.1477079 0.099402234 0.20441502
1.1556811 0.10009281 0.21629323
1.1439791 0.099079296 0.22448914
1.1517442 0.099751815 0.23650521
1.1596544 0.10043697 0.24741486
1.1382828 0.098585948 0.25197816
1.1460427 0.09925805 0.26293316
1.1437132 0.099056289 0.27296159
1.1509686 0.099684641 0.28536725
1.1580944 0.10030185 0.29792061
1.1458313 0.099239744 0.30548617
1.1434768 0.099035837 0.31424928
1.1410501 0.098825611 0.32301408
1.1573278 0.10023544 0.33859304
1.1451781 0.099183179 0.34457177
1.1421388 0.098919965 0.35458949
1.1579961 0.10029338 0.37065655
1.1551393 0.1000459 0.37953115
1.133333 0.098157205 0.38199672
1.1488016 0.099496998 0.39844111
1.1452937 0.099193193 0.40848851
1.1510569 0.099692315 0.4219352
1.1389453 0.098643333 0.42599618
1.1356678 0.098359495 0.43472296
1.1230501 0.097266644 0.43977004
1.1381749 0.098576635 0.4557856
1.1341689 0.098229676 0.46573773
1.1392642 0.09867093 0.47952154
1.1355875 0.098352522 0.4882293
1.1500914 0.09960869 0.50494349
1.146221 0.099273533 0.51373339
1.1428467 0.098981231 0.52125239
1.1382713 0.09858492 0.53124297
1.1336094 0.098181218 0.54119313
1.1557388 0.1000978 0.56422353
1.1507895 0.099669121 0.57432538
1.1368706 0.098463617 0.57985342
1.1412683 0.098844431 0.59315789
1.1455398 0.099214457 0.60654342
1.1408869 0.09881147 0.6153155
1.1361783 0.098403715 0.62403172
1.1307096 0.097930036 0.63396001
1.1345088 0.098259114 0.64756072
1.1288357 0.097767673 0.65747344
1.1323857 0.098075166 0.6711809
1.127985 0.097693995 0.67860568
1.1312897 0.097980335 0.69244736
1.1344613 0.098254994 0.70635921
1.1366971 0.098448589 0.7216146
1.1479261 0.099421099 0.74113494
1.1505988 0.099652603 0.75537515
1.1614037 0.10058846 0.77525681
1.1554791 0.10007531 0.78412551
1.1503415 0.099630363 0.79169953
1.1606251 0.10052104 0.81193882
1.1625515 0.10068781 0.82658076
1.1472418 0.099361844 0.83088106
1.1560304 0.100123 0.85274196
1.1574849 0.100249 0.86757064
1.1587958 0.10036255 0.88245076
1.1293263 0.12467878 0.093152046
1.1383742 0.1256777 0.10396755
1.1276592 0.12449478 0.11173948
1.1464128 0.12656514 0.12376953
1.1442478 0.12632613 0.14261419
1.1529852 0.12729071 0.15271558
1.151967 0.1271783 0.16030438
1.1507182 0.12704043 0.16913918
1.1493995 0.12689488 0.1779843
1.1480167 0.12674217 0.18679887
1.1465638 0.12658183 0.19562271
1.1448233 0.12638967 0.20568159
1.1429958 0.12618791 0.2157248
