# .PCD v0.7 - Point Cloud Data file format
VERSION 0.7
FIELDS x y z
SIZE 4 4 4
TYPE F F F
COUNT 1 1 1
WIDTH 1426
HEIGHT 1
VIEWPOINT 0 0 0 1 0 0 0
POINTS 1426
DATA ascii
1.1174091 -0.087941967 -0.6181125
1.1214182 -0.088257454 -0.61076325
1.1260295 -0.088620447 -0.602166
1.1312253 -0.089029334 -0.59228635
1.1363349 -0.089431487 -0.58236158
1.132441 -0.08912506 -0.56792068
1.1373386 -0.089510463 -0.5579862
1.140955 -0.089795135 -0.55050743
1.1361004 -0.089413017 -0.53747666
1.140733 -0.089777619 -0.52751136
1.1361892 -0.08942005 -0.51339865
1.1400597 -0.08972463 -0.50469118
1.1347218 -0.089304477 -0.49196687
1.1379074 -0.089555234 -0.4845067
1.1415582 -0.089842588 -0.47578692
1.1364148 -0.089437693 -0.46201989
1.121848 -0.088291377 -0.4447042
1.125674 -0.08859244 -0.43486714
1.1200802 -0.088152207 -0.42148459
1.1326201 -0.089139141 -0.41632408
1.136199 -0.089420713 -0.40639383
1.1302722 -0.088954367 -0.39315629
1.1336495 -0.089220144 -0.38324746
1.1365305 -0.08944688 -0.37456322
1.1393518 -0.089668907 -0.36583725
1.1234496 -0.088417388 -0.34991914
1.126451 -0.088653602 -0.34007168
1.1389375 -0.089636303 -0.33299661
1.1321962 -0.089105763 -0.32029983
1.1253214 -0.088564672 -0.30774662
1.1375966 -0.089530751 -0.30043039
1.1401668 -0.089733049 -0.29046097
1.1132996 -0.087618575 -0.27456692
1.1153595 -0.08778064 -0.266022
1.1173497 -0.08793734 -0.25748113
1.1092753 -0.087301835 -0.24796487
1.1208794 -0.088215098 -0.24155204
1.112921 -0.087588772 -0.23094378
1.1146483 -0.08772473 -0.22240303
1.1163071 -0.087855205 -0.21386884
1.1279333 -0.088770255 -0.20587935
1.1395047 -0.089680955 -0.19770244
1.1411812 -0.089812919 -0.18772024
1.1228789 -0.088372461 -0.17587847
1.1241837 -0.08847516 -0.16728266
1.1254256 -0.088572852 -0.15865742
1.1265992 -0.08866524 -0.15004261
1.1277096 -0.08875268 -0.14139935
1.1286082 -0.088823371 -0.1339927
1.1297308 -0.088911764 -0.12410831
1.1506056 -0.090554588 -0.11621822
1.1317182 -0.089068107 -0.10431193
1.1325824 -0.089136176 -0.094401434
1.1332674 -0.089190058 -0.085733749
1.1338875 -0.089238934 -0.077041231
1.144948 -0.090109348 -0.058943674
1.1353488 -0.089353859 -0.050978448
1.1357043 -0.089381874 -0.042270985
1.1359925 -0.089404583 -0.033580936
1.1362152 -0.089422047 -0.024869045
1.1463394 -0.090218842 -0.016317485
1.1564069 -0.091011226 -0.006336987
1.1364796 -0.089442909 0.0037206106
1.136404 -0.089436889 0.013668667
1.156176 -0.090993047 0.024029993
1.1459938 -0.090191722 0.032611389
1.1556753 -0.090953588 0.041737791
1.1549051 -0.09089303 0.059435856
1.1543441 -0.090848871 0.069543079
1.1139125 -0.087666877 0.076898627
1.1529584 -0.090739794 0.089740865
1.1146741 -0.061344162 -0.70437121
1.1284906 -0.062104538 -0.70110774
1.1174955 -0.061499495 -0.68082404
1.1233854 -0.061823625 -0.67103148
1.1119499 -0.06119426 -0.65109336
1.1082292 -0.060989518 -0.63758016
1.1130524 -0.061254941 -0.62909633
1.1090888 -0.061036788 -0.61570829
1.122515 -0.061775707 -0.61199975
1.1183476 -0.061546348 -0.59867394
1.1235216 -0.061831079 -0.58887702
1.1279736 -0.062076114 -0.58027786
1.1240656 -0.061861064 -0.56590623
1.1289537 -0.06213006 -0.55606061
1.1337559 -0.062394287 -0.54617268
1.1288607 -0.062124934 -0.53321099
1.1334639 -0.062378254 -0.52332473
1.1277646 -0.062064618 -0.51175678
1.1321807 -0.062307626 -0.50188094
1.1268089 -0.062011987 -0.48924053
1.1305103 -0.062215716 -0.48059934
1.1249168 -0.061907917 -0.46811292
1.1371973 -0.062583715 -0.4645057
1.1412015 -0.062804133 -0.45454919
1.1358087 -0.062507361 -0.44094381
1.1293325 -0.06215087 -0.42993611
1.1419415 -0.062844783 -0.42475897
1.1263702 -0.061987851 -0.40920377
1.148285 -0.063193895 -0.40724444
1.1414881 -0.062819876 -0.39643258
1.1350154 -0.062463619 -0.38449758
1.1383224 -0.062645711 -0.37456319
1.1316385 -0.062277831 -0.36278859
1.1343684 -0.062428035 -0.35413393
1.1278529 -0.062069513 -0.34131387
1.130784 -0.062230747 -0.33144373
1.1236768 -0.061839622 -0.32004133
1.1453307 -0.063031353 -0.3167727
1.1380703 -0.062631823 -0.30540654
1.140363 -0.062758014 -0.29670444
1.1422776 -0.062863335 -0.28922319
1.1250544 -0.061915498 -0.27571571
1.1176949 -0.061510429 -0.2635805
1.119949 -0.061634526 -0.25380212
1.1316044 -0.062275872 -0.24737246
1.1141698 -0.061316416 -0.23337875
1.1159188 -0.061412677 -0.22484182
1.1178354 -0.061518177 -0.21508041
1.1294885 -0.062159527 -0.20710354
1.1308178 -0.062232602 -0.19969548
1.151998 -0.063398287 -0.1943745
1.1337309 -0.062392939 -0.18237729
1.1350868 -0.062467564 -0.17371193
1.1263177 -0.061985064 -0.16482209
1.127543 -0.062052418 -0.15619415
1.1386005 -0.062660925 -0.14887133
1.1397035 -0.062721662 -0.14014982
1.1407377 -0.062778585 -0.13144006
1.1415722 -0.06282454 -0.12395988
1.1424849 -0.062874727 -0.11521634
1.1335025 -0.062380366 -0.10431193
1.1342638 -0.062422328 -0.095650561
1.1350541 -0.062465843 -0.085733749
1.1356753 -0.062499996 -0.077041231
1.136229 -0.062530451 -0.068364069
1.1367815 -0.062560856 -0.058431122
1.1371942 -0.062583566 -0.049726177
1.1275613 -0.062053498 -0.040678225
1.1378541 -0.062619984 -0.031094844
1.1380816 -0.062632382 -0.02114911
1.1382226 -0.06264019 -0.011201766
1.1382768 -0.06264323 -0.0012535695
1.1382444 -0.062641442 0.0086947223
1.1381253 -0.062634826 0.018642353
1.1379498 -0.06262517 0.027355336
1.1476883 -0.063161135 0.036363035
1.1473773 -0.063144028 0.045148715
1.1569738 -0.063672125 0.054380503
1.1464865 -0.063094981 0.063934132
1.1359216 -0.062513597 0.073308639
1.1353289 -0.06248093 0.082003146
1.1211469 -0.035233393 -0.69583625
1.126431 -0.035399456 -0.68724108
1.1238036 -0.035316903 -0.67224854
1.1202781 -0.035206158 -0.65858746
1.1166215 -0.03509124 -0.64500004
1.121506 -0.035244722 -0.6364606
1.1270146 -0.035417818 -0.62664467
1.141216 -0.035864078 -0.6215623
1.1201341 -0.035201572 -0.59746158
1.1335222 -0.035622321 -0.59351391
1.12976 -0.035504125 -0.57903534
1.1437026 -0.035942279 -0.57363105
1.1390731 -0.035796788 -0.5604738
1.1439184 -0.035949077 -0.55050743
1.1486765 -0.036098566 -0.54049909
1.1442657 -0.035959926 -0.52627283
1.1488123 -0.036102798 -0.51626235
1.1349657 -0.035667747 -0.4981775
1.1516504 -0.03619203 -0.48465598
1.1408753 -0.035853416 -0.45827702
1.1355217 -0.035685215 -0.44465408
1.1295432 -0.035497282 -0.43240264
1.1332717 -0.035614524 -0.4225243
1.14631 -0.036024187 -0.41602385
1.1310441 -0.035544489 -0.39934403
1.1344843 -0.035652615 -0.38945383
1.1374269 -0.035745062 -0.38076565
1.1407046 -0.035848059 -0.37082046
1.1248307 -0.035349168 -0.35483292
1.1275029 -0.035433151 -0.34623924
1.1201696 -0.035202779 -0.33597714
1.122704 -0.035282355 -0.3274
1.1155505 -0.035057586 -0.31609839
1.1275704 -0.0354353 -0.3102085
1.13923 -0.03580169 -0.30540654
1.1318512 -0.035569828 -0.29418999
1.153765 -0.0362585 -0.28915656
1.1170856 -0.03510581 -0.27090117
1.119406 -0.035178706 -0.26113775
1.1313944 -0.035555467 -0.25354016
1.1235244 -0.035308167 -0.24278817
1.1253467 -0.035365388 -0.23418809
1.1366534 -0.035720751 -0.22878641
1.1187375 -0.035157725 -0.21631126
1.1400129 -0.035826311 -0.21139328
1.1317499 -0.035566676 -0.20094064
1.1428926 -0.035916854 -0.19520828
1.1445518 -0.035968948 -0.18522242
1.126363 -0.035397399 -0.1722014
1.1278222 -0.035443235 -0.16236074
1.1488373 -0.036103655 -0.15642716
1.1400826 -0.035828583 -0.14638318
1.1313915 -0.035555415 -0.13523744
1.1323917 -0.035586886 -0.12658033
1.1334527 -0.035620145 -0.11668877
1.1344273 -0.035650782 -0.10678834
1.1353155 -0.035678737 -0.096879758
1.1459861 -0.036014076 -0.088987395
1.1473639 -0.03605729 -0.068963759
1.1379397 -0.035761174 -0.058431119
1.1386988 -0.035785016 -0.041038204
1.1389792 -0.035793837 -0.032327961
1.1392179 -0.035801411 -0.022382483
1.1393697 -0.035806119 -0.012435297
1.1394266 -0.035807967 -0.0049742451
1.1394266 -0.035807967 0.0049740998
1.1393398 -0.035805225 0.014922067
1.1391662 -0.035799742 0.024868896
1.1488965 -0.036105517 0.035119217
1.138559 -0.035780672 0.044756118
1.1481688 -0.036082629 0.053911705
1.1477915 -0.036070827 0.061428953
1.1572649 -0.036368553 0.070816234
1.1467199 -0.036037151 0.078958414
1.1260574 -0.035387818 0.087419979
1.1316901 -0.0088884402 -0.69864035
1.1377437 -0.0089359451 -0.68873769
1.1171939 -0.0087745376 -0.66468108
1.1222308 -0.0088141151 -0.65614063
1.1185428 -0.0087850885 -0.64256126
1.1234109 -0.0088234153 -0.63401115
1.1100552 -0.008718512 -0.61692923
1.1147386 -0.008755289 -0.6084252
1.1288244 -0.0088659152 -0.60338789
1.1340468 -0.0089069242 -0.59351391
1.1296455 -0.0088723535 -0.58027786
1.1257317 -0.008841658 -0.56590623
1.1216538 -0.0088095916 -0.55164748
1.1354364 -0.008917775 -0.54617268
1.1311103 -0.0088839205 -0.53198725
1.135144 -0.0089155706 -0.52332473
1.1299894 -0.0088750999 -0.51053429
1.124715 -0.008833616 -0.49783349
1.1376538 -0.008935242 -0.49321809
1.1408575 -0.0089603961 -0.48576143
1.1445373 -0.0089893043 -0.47702572
1.1481421 -0.0090176174 -0.46828216
1.1521848 -0.0090493876 -0.45824474
1.1463343 -0.0090033729 -0.44579884
1.1403539 -0.0089564649 -0.43348932
1.1436342 -0.0089822747 -0.42475897
1.1463896 -0.0090038516 -0.41726464
1.1401162 -0.0089546191 -0.40516028
1.1526277 -0.0090529071 -0.39970887
1.1366978 -0.0089277979 -0.38449758
1.1495099 -0.0090284711 -0.37768456
1.1428397 -0.0089759603 -0.36583722
1.1486692 -0.0090217972 -0.34709886
1.1509163 -0.0090394402 -0.33957323
1.1438661 -0.008984128 -0.3280085
1.1367013 -0.008927743 -0.31659144
1.1487416 -0.0090223355 -0.31050169
1.1410789 -0.0089621954 -0.30043036
1.1433371 -0.0089798989 -0.29171833
1.1358259 -0.0089209499 -0.28057128
1.1184807 -0.0087846946 -0.26725203
1.1202059 -0.0087982258 -0.25992569
1.1126711 -0.0087390989 -0.24796487
1.1343503 -0.0089093894 -0.2424251
1.1266258 -0.0088487128 -0.23051217
1.1185433 -0.0087852338 -0.21996321
1.1300145 -0.0088752378 -0.21328001
1.1316118 -0.0088878144 -0.20463516
1.1432097 -0.0089788912 -0.19644549
1.1350107 -0.0089145191 -0.18485403
1.126506 -0.0088477023 -0.17465954
1.1279871 -0.0088593261 -0.16482209
1.1293826 -0.0088703539 -0.15497209
1.1406102 -0.0089585092 -0.14638318
1.1319151 -0.0088902628 -0.13523744
1.1329157 -0.0088980719 -0.12658033
1.1439245 -0.0089846179 -0.11771236
1.1349523 -0.0089140469 -0.10678833
1.1358409 -0.0089210812 -0.09687975
1.1464195 -0.0090041701 -0.090228036
1.1271253 -0.0088525964 -0.080064304
1.1476637 -0.0090138866 -0.072709955
1.1382006 -0.0089396201 -0.063398197
1.1385912 -0.0089426003 -0.055947155
1.1390361 -0.0089461775 -0.046008762
1.1393545 -0.0089485627 -0.037299827
1.1396058 -0.0089505892 -0.028608598
1.1397913 -0.0089520803 -0.019895814
1.1399097 -0.0089530339 -0.011201763
1.1399622 -0.0089533925 -0.0024871633
1.139954 -0.0089533329 0.0049741012
1.1498818 -0.0090313563 0.013788572
1.1497178 -0.0090300459 0.023822842
1.149466 -0.009028079 0.033855297
1.1391344 -0.008946958 0.043503564
1.1387115 -0.0089436211 0.05344291
1.148186 -0.0090180673 0.063934132
1.1276264 -0.0088565396 0.072665587
1.1208086 0.017607076 -0.69704962
1.1260917 0.017690105 -0.68847984
1.1320561 0.017783804 -0.67862558
1.1293137 0.017740708 -0.66365349
1.1249788 0.01767258 -0.65123761
1.121232 0.017613748 -0.63767439
1.1347914 0.017826775 -0.63397992
1.1396042 0.017902413 -0.62528545
1.1355369 0.017838456 -0.61183155
1.1401803 0.017911412 -0.60313201
1.1403477 0.017914033 -0.58110791
1.1364264 0.017852461 -0.56667131
1.1407149 0.017919814 -0.5579862
1.13652 0.01785389 -0.5436942
1.1412208 0.01792774 -0.53375441
1.1367407 0.017857345 -0.51961702
1.1401167 0.017910453 -0.51216507
1.1478041 0.01803115 -0.49469241
1.1428602 0.017953545 -0.48077872
1.1372557 0.017865449 -0.46822038
1.150068 0.018066732 -0.46326786
1.1540664 0.018129496 -0.45321286
1.1299614 0.017750885 -0.43240264
1.1519647 0.018096533 -0.43075514
1.1458242 0.018000092 -0.41852495
1.1485385 0.01804271 -0.41101572
1.1422067 0.017943228 -0.39892575
1.1456441 0.017997289 -0.38894182
1.1390846 0.017894233 -0.37704951
1.1514492 0.018088423 -0.37139913
1.1451036 0.017988704 -0.35834932
1.1478031 0.018031202 -0.3496041
1.1504416 0.018072566 -0.34081846
1.1241822 0.017660102 -0.32373223
1.1362531 0.017849764 -0.31782132
1.1479553 0.018033523 -0.31300721
1.1406424 0.017918665 -0.30168489
1.142915 0.017954368 -0.2929554
1.1357206 0.017841356 -0.28057128
1.1281023 0.01772167 -0.26957595
1.1398723 0.017906563 -0.2631928
1.1320869 0.017784253 -0.2523151
1.1434872 0.017963305 -0.24701057
1.1257634 0.017684892 -0.23418809
1.137321 0.017866448 -0.22755569
1.129208 0.017739071 -0.21696709
1.1507287 0.018077089 -0.21070534
1.152302 0.018101824 -0.20192149
1.1538117 0.018125486 -0.19310577
1.1552508 0.018148135 -0.18429893
1.1564322 0.018166672 -0.176733
1.147854 0.018031966 -0.16645151
1.1490899 0.018051395 -0.1576909
1.1513638 0.018087098 -0.14012255
1.1426069 0.017949469 -0.12894727
1.1535031 0.018120654 -0.12125309
1.1443212 0.01797647 -0.11271977
1.1451476 0.017989462 -0.10398766
1.1359446 0.017844861 -0.094401427
1.1366314 0.01785565 -0.085733742
1.1371682 0.017864054 -0.078291804
1.1378078 0.017874066 -0.068364061
1.1383611 0.017882828 -0.058431119
1.1386633 0.017887536 -0.052210778
1.1390283 0.017893257 -0.043523587
1.1293702 0.017741622 -0.033286359
1.1396143 0.017902495 -0.023635719
1.1497751 0.018062115 -0.013808783
1.1397774 0.017904997 0.013668673
1.1396396 0.017902849 0.022382341
1.1394358 0.01789969 0.031074811
1.1391213 0.017894743 0.041018181
1.1487088 0.018045362 0.05140543
1.138232 0.017880794 0.060894791
1.1376574 0.017871793 0.070826523
1.1470571 0.018019373 0.08021988
1.1264744 0.017696077 0.087419987
1.1168368 0.043880682 -0.68326414
1.1305885 0.044420999 -0.67985034
1.1106447 0.043637436 -0.65472454
1.1163116 0.043860059 -0.64500004
1.1218932 0.044079404 -0.63522643
1.1186501 0.043951906 -0.62055635
1.1145709 0.043791629 -0.6072185
1.1279888 0.044318832 -0.60338789
1.1325545 0.044498302 -0.59476048
1.1376977 0.044700302 -0.58484697
1.1338263 0.044548128 -0.57039756
1.1208237 0.044037256 -0.55164748
1.1165866 0.04387084 -0.5375033
1.1296973 0.044386003 -0.53321099
1.1252294 0.044210467 -0.51913816
1.1297133 0.044386595 -0.50929141
1.1335618 0.044537753 -0.50065362
1.1378841 0.044707626 -0.49073488
1.1323931 0.044491857 -0.47812808
1.1354957 0.044613808 -0.47070068
1.1483105 0.045117289 -0.46577612
1.1337423 0.044544902 -0.4483794
1.1469336 0.045063104 -0.44205499
1.1315731 0.044459607 -0.42622262
1.1258643 0.044235315 -0.41288337
1.1383865 0.044727352 -0.40764672
1.1418977 0.044865277 -0.39768937
1.1362783 0.044644497 -0.38324744
1.129673 0.044384979 -0.37144184
1.1415912 0.044853233 -0.36709365
1.1348255 0.044587456 -0.3553631
1.1375008 0.044692598 -0.34669074
1.1401159 0.044795297 -0.33797833
1.1330563 0.044517893 -0.32649916
1.1358602 0.044628102 -0.31659144
1.1478914 0.045100827 -0.31050169
1.1305714 0.044420321 -0.29788435
1.1424909 0.044888634 -0.29171833
1.1349851 0.04459371 -0.28057128
1.1176529 0.043912783 -0.26725203
1.1291105 0.044362918 -0.26218593
1.1118476 0.043684676 -0.24796486
1.1139674 0.043767884 -0.23824535
1.1252868 0.044212654 -0.2329696
1.1270335 0.044281259 -0.22435392
1.1188956 0.04396154 -0.21386883
1.1499834 0.045183014 -0.21070534
1.1414963 0.044849526 -0.20143196
1.1331447 0.044521343 -0.19105186
1.1347675 0.04458512 -0.18114853
1.1459973 0.045026373 -0.17396151
1.1472899 0.045077097 -0.16520917
1.1288818 0.044353854 -0.15250769
1.1400824 0.044793971 -0.14389433
1.1312251 0.044445939 -0.1339927
1.1322135 0.044484742 -0.12535428
1.1331379 0.044521101 -0.11668877
1.1341124 0.044559427 -0.10678833
1.1448483 0.044981189 -0.098989427
1.1356095 0.044618253 -0.089443438
1.1362581 0.044643704 -0.080772839
1.1367621 0.044663493 -0.073328637
1.137289 0.044684235 -0.064629845
1.1377485 0.044702295 -0.055947151
1.1481771 0.045112018 -0.046412345
1.1385112 0.044732217 -0.037299823
1.1487515 0.045134544 -0.028859548
1.1589291 0.045534432 -0.020244861
1.1390777 0.044754446 -0.0099483188
1.1391203 0.044756114 -0.0012535629
1.1390967 0.04475522 0.0074611618
1.1490149 0.045144916 0.015052967
1.1388767 0.044746578 0.02361569
1.1386629 0.04473817 0.032327823
1.1383835 0.044727203 0.041018184
1.1380368 0.044713613 0.049726035
1.1376249 0.0446974 0.05841111
1.1570208 0.045459446 0.069543086
1.1464016 0.045042213 0.078958422
1.1257448 0.044230636 0.087419987
1.1279681 0.070965752 -0.70110774
1.1332841 0.071300253 -0.69244748
1.1392717 0.071676955 -0.68251193
1.1107312 0.069881357 -0.65229809
1.11637 0.070236064 -0.64256126
1.1219237 0.070585467 -0.63277549
1.1186526 0.070379712 -0.6181125
1.1057732 0.069569327 -0.60002154
1.1279428 0.070964195 -0.60092366
1.1413317 0.071806587 -0.59691358
1.1280873 0.070973314 -0.57903534
1.1318454 0.071209706 -0.57162505
1.1272175 0.070918538 -0.55852604
1.132039 0.071221866 -0.5486486
1.1367743 0.071519822 -0.53872943
1.1233051 0.070672363 -0.52037603
1.1357663 0.071456343 -0.51713544
1.1305611 0.071128935 -0.50435352
1.1343672 0.071368307 -0.49569896
1.1289377 0.071026772 -0.48306832
1.1412728 0.071802825 -0.47952166
1.1448896 0.072030395 -0.47078598
1.148448 0.07225427 -0.46200284
1.1426415 0.071888953 -0.44955793
1.1455536 0.072072178 -0.44205499
1.1395521 0.071694523 -0.42974511
1.1427901 0.071898304 -0.42102405
1.1459689 0.072098278 -0.41225845
1.1396551 0.071701072 -0.40018156
1.1332314 0.071296893 -0.38820556
1.1365691 0.07150688 -0.37828204
1.1208234 0.070516251 -0.36219087
1.13346 0.071311317 -0.3553631
1.1548455 0.072656713 -0.35376981
1.1479385 0.072222196 -0.34208339
1.1409273 0.071781121 -0.33050334
1.1437624 0.071959458 -0.32051474
1.1461687 0.072110854 -0.31176466
1.1581652 0.072865628 -0.30552241
1.1314458 0.071184531 -0.28924614
1.1333108 0.071301892 -0.28182006
1.1160188 0.070213988 -0.26846224
1.1277518 0.070952132 -0.26218593
1.1202511 0.070480242 -0.25013998
1.1419067 0.071842745 -0.24451496
1.1239328 0.070711866 -0.2329696
1.1161284 0.070220843 -0.221193
1.1376266 0.071573451 -0.21513461
1.1396813 0.071702674 -0.20392375
1.1313627 0.071179345 -0.19352543
1.1426566 0.071889892 -0.18646143
1.1343728 0.071368702 -0.17494196
1.1455469 0.072071679 -0.16771369
1.1370764 0.071538813 -0.15633148
1.1284955 0.070998855 -0.14511026
1.1297164 0.071075745 -0.13523743
1.1305755 0.071129806 -0.12782598
1.1415725 0.071821637 -0.11897013
1.1425653 0.071884103 -0.10898393
1.1335275 0.071315475 -0.098128654
1.1542398 0.072618611 -0.08976119
1.145021 0.072038598 -0.078978576
1.1357028 0.071452387 -0.068364061
1.1561892 0.07274121 -0.059456222
1.1366123 0.0715096 -0.050978441
1.1469414 0.07215941 -0.042641774
1.1372929 0.071552396 -0.032327957
1.1474841 0.072193563 -0.023843046
1.1376529 0.071575105 -0.014922205
1.1477135 0.072208047 -0.0062823482
1.147728 0.072208941 0.0025088422
1.1377071 0.071578503 0.0099481847
1.1475561 0.072198093 0.020070201
1.1473374 0.072184324 0.030103423
1.1470749 0.072167814 0.03887061
1.1566639 0.072771132 0.049324118
1.1462231 0.072114289 0.058923487
1.1456664 0.072079234 0.068943575
1.1344352 0.071372561 0.086963661
1.1483016 0.099453732 -0.70286024
1.1287159 0.097757384 -0.67738026
1.1259669 0.097519316 -0.66241121
1.1223342 0.097204663 -0.64878142
1.1178749 0.096818484 -0.6364606
1.1313925 0.097989298 -0.63273162
1.1274276 0.097645856 -0.61925137
1.1145587 0.09653125 -0.60111606
1.1279057 0.097687282 -0.59723186
1.1324213 0.098078288 -0.58855987
1.1286085 0.097748138 -0.57409793
1.1335566 0.098176695 -0.56419033
1.1288515 0.097769178 -0.55112189
1.1336 0.098180443 -0.5412131
1.1292284 0.097801834 -0.52704668
1.1337675 0.098194987 -0.51713544
1.1382203 0.098580629 -0.50718486
1.1415031 0.098864883 -0.49969655
1.1361132 0.09839806 -0.4869957
1.1397805 0.098715752 -0.47828394
1.1341689 0.098229736 -0.46573785
1.1464269 0.099291354 -0.46200284
1.1313572 0.097986192 -0.44590297
1.1538005 0.099930018 -0.44312337
1.138938 0.098642796 -0.42601624
1.1519639 0.099770926 -0.41943386
1.1363422 0.098417901 -0.40390635
1.1492304 0.099534176 -0.39719319
1.1333263 0.098156713 -0.38201669
1.145671 0.099225901 -0.37642035
1.1386125 0.098614536 -0.36583722
1.1318479 0.098028682 -0.35413393
1.1539572 0.099943541 -0.34999135
1.1470305 0.09934368 -0.33830747
1.1399879 0.098733626 -0.32677051
1.1520437 0.09977784 -0.3206861
1.1448267 0.099152707 -0.30925843
1.1468186 0.099325322 -0.30173093
1.1394269 0.098685101 -0.29046094
1.1416008 0.098873392 -0.28172955
1.1246169 0.097402409 -0.26711389
1.1266181 0.097575739 -0.25847679
1.1285496 0.09774299 -0.24984437
1.1206744 0.097060934 -0.2390985
1.1227105 0.097237244 -0.22927319
1.124661 0.097406164 -0.2194304
1.1162758 0.096679941 -0.21019351
1.1376758 0.098533407 -0.20392375
1.1394054 0.098683253 -0.19395085
1.1312116 0.0979736 -0.18237728
1.1327541 0.098107167 -0.17246182
1.1340315 0.098217793 -0.16378494
1.1451175 0.099177964 -0.15642715
1.1363912 0.098422177 -0.14638317
1.1373214 0.098502763 -0.13891459
1.1482447 0.099448808 -0.13131578
1.1295264 0.097827621 -0.11916251
1.1403148 0.098761983 -0.11148129
1.1411306 0.098832615 -0.1027283
1.1319486 0.09803737 -0.093172006
1.1326251 0.098096021 -0.084483743
1.1331518 0.098141558 -0.077041224
1.143649 0.099050768 -0.068963751
1.1341918 0.098231673 -0.059663054
1.1445087 0.099125147 -0.052668761
1.1349672 0.098298788 -0.042270973
1.1552088 0.10005188 -0.032895114
1.1454902 0.099210203 -0.022578811
1.1356664 0.098359346 -0.013688702
1.1357421 0.098365903 -0.0037406469
1.1357315 0.098365009 0.006207692
1.1555576 0.10008216 0.016438989
1.1354504 0.09834069 0.026102196
1.1551347 0.1000455 0.035424609
1.1548319 0.10001928 0.04426679
1.1544609 0.099987149 0.053126622
1.1440752 0.099087648 0.061428964
1.1434976 0.09903764 0.071447812
1.1329815 0.098126821 0.079522312
1.1323444 0.098071687 0.088193618
1.1195616 0.1236008 -0.70725173
1.1333485 0.12512289 -0.7038933
1.1209196 0.1237507 -0.68602115
1.1260995 0.12432258 -0.67738026
1.1226321 0.1239398 -0.66365349
1.1190341 0.12354258 -0.65000004
1.1332804 0.12511532 -0.6450749
1.1381377 0.12565164 -0.63636011
1.1167655 0.12329207 -0.61321592
1.1308079 0.12484238 -0.60810184
1.1360395 0.12541994 -0.59815073
1.1234916 0.12403468 -0.57903534
1.137357 0.12556538 -0.57363105
1.1321497 0.12499056 -0.56170672
1.1369789 0.12552366 -0.55174553
1.1327313 0.12505475 -0.53747666
1.1379168 0.12562725 -0.52627283
1.1333714 0.12512538 -0.51216507
1.1377707 0.1256111 -0.50219506
1.1324208 0.12502041 -0.48948243
1.1360986 0.1254265 -0.48077872
1.1300149 0.12475488 -0.46947074
1.1243331 0.1241276 -0.4570201
1.1370091 0.12552699 -0.45205465
1.1404107 0.12590256 -0.44329679
1.1256073 0.1242682 -0.42622262
1.1479268 0.12673232 -0.42320544
1.1323847 0.12501648 -0.40764672
1.1452649 0.12643841 -0.40097606
1.1486993 0.12681755 -0.39090586
1.1520462 0.1271871 -0.38080591
1.1363659 0.12545601 -0.3646003
1.1391031 0.12575819 -0.35584995
1.1322529 0.12500186 -0.34420636
1.1351953 0.12532671 -0.3342526
1.1472623 0.12665899 -0.32824752
1.1497175 0.12693001 -0.31943461
1.1421728 0.1260971 -0.30925843
1.1444893 0.1263528 -0.30046505
1.1370974 0.1255367 -0.28922319
1.14922 0.12687512 -0.28159532
1.1322639 0.12500311 -0.26693201
1.114592 0.12305214 -0.25503528
1.1167617 0.12329166 -0.24523993
1.1285753 0.12459596 -0.2374731
1.1208458 0.12374254 -0.22559398
1.1420493 0.12608345 -0.22074041
1.1536976 0.12736942 -0.21250622
1.1457045 0.12648697 -0.20065418
1.1474015 0.12667431 -0.19058776
1.138994 0.12574609 -0.18022415
1.1501604 0.12697889 -0.17293707
1.1315811 0.12492771 -0.16253324
1.1426307 0.12614764 -0.15518327
1.1536365 0.12736268 -0.14765285
1.1448529 0.12639292 -0.13761
1.1458651 0.12650467 -0.12880102
1.1369219 0.12551737 -0.11897012
1.1377927 0.12561345 -0.11022268
1.1385951 0.12570208 -0.10148878
1.1492403 0.12687731 -0.093535319
1.1299996 0.12475313 -0.084483735
1.1405249 0.12591511 -0.076475397
1.150995 0.12707102 -0.068290189
1.1316893 0.12493962 -0.057179227
1.1320899 0.12498391 -0.048493713
1.1523352 0.12721902 -0.039228979
1.1525657 0.12724441 -0.031640355
1.1428347 0.1261701 -0.022578809
1.1529261 0.12728429 -0.01265345
1.1430523 0.12619412 -0.0025089716
1.1330912 0.12509441 0.0074611669
1.1329833 0.12508249 0.01740892
1.1427259 0.12615812 0.027595306
1.1524181 0.12722814 0.036679246
1.1619878 0.12828463 0.047198981
1.1516063 0.12713856 0.056908328
1.1510689 0.12707919 0.067016758
1.150526 0.12701929 0.075867571
1.1300913 0.12476324 0.08323352
1.1392915 0.153026 -0.7078827
1.1453705 0.15384255 -0.69782436
1.1257765 0.15121074 -0.6724304
1.1222599 0.1507384 -0.65871906
1.1106942 0.14918493 -0.63890702
1.1248302 0.1510836 -0.63397992
1.1215763 0.15064661 -0.61925137
1.1268895 0.15136023 -0.60935241
1.1314732 0.15197587 -0.6006428
1.1359806 0.15258133 -0.59191805
1.1315916 0.15199178 -0.57861835
1.1359324 0.15257484 -0.56989336
1.131309 0.15195382 -0.5567314
1.1444254 0.15371558 -0.55232424
1.1300464 0.1517843 -0.5362432
1.1436462 0.15361091 -0.53044957
1.1391497 0.15300694 -0.51626235
1.1344954 0.15238178 -0.50219506
1.1296853 0.15173578 -0.4882493
1.1424913 0.15345582 -0.48338875
1.1466287 0.15401155 -0.47331083
1.1404769 0.15318525 -0.46200284
1.1347108 0.15241072 -0.44955793
1.1473365 0.15410656 -0.44437632
1.1506622 0.15455326 -0.43553406
1.1450757 0.1538029 -0.42195547
1.1389039 0.15297395 -0.40975243
1.1517683 0.15470183 -0.40298519
1.1458179 0.15390259 -0.38963491
1.1585634 0.15561453 -0.38264215
1.1429372 0.15351564 -0.36637083
1.1456733 0.15388317 -0.35756472
1.1578395 0.1555173 -0.35159951
1.1600953 0.15582027 -0.34394595
1.1534929 0.15493347 -0.33098292
1.1563116 0.15531208 -0.32081392
1.1587031 0.15563335 -0.31190619
1.1278394 0.15148781 -0.27189991
1.1398075 0.15309532 -0.26419801
1.1320999 0.15205999 -0.25323442
1.124289 0.15101092 -0.24242508
1.1355429 0.15252252 -0.23702124
1.1373055 0.15275927 -0.22825573
1.1389979 0.15298657 -0.21949695
1.1506038 0.15454541 -0.21125008
1.1521707 0.15475585 -0.20236917
1.153667 0.15495686 -0.19349675
1.1453102 0.15383442 -0.18302839
1.1464729 0.15399052 -0.17546116
1.147766 0.15416424 -0.16663337
1.1489949 0.15432931 -0.15777566
1.1403238 0.15316467 -0.14765607
1.1314187 0.15196852 -0.13891459
1.1424255 0.15344699 -0.13006854
1.1336492 0.15226814 -0.11897012
1.1247686 0.15107536 -0.10803624
1.1453007 0.15383312 -0.10110072
1.1362512 0.1526176 -0.090228021
1.1369883 0.15271661 -0.080220006
1.1376388 0.15280402 -0.070205882
1.1381364 0.15287083 -0.061449129
1.1484693 0.15425873 -0.053126745
1.1389809 0.15298426 -0.042641766
1.1392701 0.15302309 -0.033875491
1.1494021 0.15438402 -0.025305329
1.1495771 0.15440747 -0.015183993
1.129843 0.15175691 -0.004974233
1.1397538 0.15308806 0.0050177448
1.139667 0.15307641 0.015052974
1.1395202 0.15305668 0.023822851
1.1591203 0.1556893 0.03317856
1.1291221 0.15166011 0.041018192
1.1485815 0.15427378 0.050598431
1.1579975 0.15553856 0.061233006
1.1476078 0.15414301 0.069543093
1.1370749 0.15272829 0.078958429
1.1264675 0.1513035 0.088193625
1.1391605 0.18042536 -0.70161259
1.1451644 0.18137626 -0.69152099
1.1333098 0.17949869 -0.67252439
1.1297841 0.17894028 -0.65876263
1.1254274 0.17825024 -0.64632821
1.1216464 0.17765142 -0.63273162
1.1177158 0.17702888 -0.61925137
1.114305 0.17648862 -0.60462874
1.12822 0.17869252 -0.59940708
1.1333433 0.17950398 -0.58941609
1.1301794 0.17900291 -0.57363105
1.1350806 0.17977911 -0.56362373
1.1392934 0.18044636 -0.55484211
1.1345161 0.17968968 -0.54174238
1.1307358 0.17909101 -0.52627283
1.1352288 0.1798026 -0.51626235
1.1396352 0.18050054 -0.50621259
1.1348758 0.17974672 -0.49218681
1.1294504 0.1788874 -0.47952166
1.142682 0.18098307 -0.47331083
1.1365514 0.18001205 -0.46200284
1.1399987 0.18055803 -0.45321286
1.1341664 0.17963436 -0.44079265
1.1471738 0.18169451 -0.43425721
1.1411343 0.18073791 -0.42195547
1.135421 0.17983302 -0.40850869
1.1295635 0.17890531 -0.39519528
1.1422896 0.18092096 -0.38838366
1.1362036 0.17995697 -0.37517574
1.1295898 0.17890951 -0.36334297
1.1421175 0.18089367 -0.35629344
1.1451449 0.18137313 -0.3461889
1.1575735 0.18334161 -0.33883536
1.1414261 0.18078418 -0.32320812
1.1438277 0.18116452 -0.31438452
1.1366166 0.1800224 -0.30297637
1.1580064 0.18341024 -0.29913488
1.1407433 0.180676 -0.28663749
1.1428741 0.18101351 -0.27780005
1.1353123 0.17981581 -0.26670638
1.1276548 0.17860301 -0.25572583
1.1196318 0.17733224 -0.24612616
1.1234574 0.17793818 -0.22755568
1.1348422 0.17974131 -0.22074041
1.136472 0.17999946 -0.21197064
1.137818 0.18021266 -0.20443524
1.1393282 0.18045188 -0.19562283
1.1505189 0.18222432 -0.1884159
1.1323841 0.179352 -0.17646319
1.1434535 0.18110527 -0.1691595
1.1546532 0.18287914 -0.16040969
1.1363987 0.17998789 -0.14765607
1.1569381 0.18324097 -0.14253843
1.148167 0.18185179 -0.13244782
1.1491313 0.18200453 -0.12357772
1.1500309 0.18214697 -0.11468011
1.1508613 0.18227851 -0.10579614
1.1416786 0.1808241 -0.097328626
1.14238 0.18093517 -0.088489473
1.1430992 0.18104911 -0.078392819
1.1240119 0.17802599 -0.067112774
1.1344119 0.17967319 -0.057680797
1.1446815 0.18129972 -0.049344473
1.1450632 0.18136019 -0.039228976
1.1453259 0.18140179 -0.03036532
1.1455439 0.1814363 -0.020244852
1.1456748 0.18145704 -0.010122841
1.1555946 0.18302819 -0.001286542
1.1555706 0.18302444 0.0076575172
1.1554793 0.18300989 0.016580712
1.1553203 0.1829848 0.025523355
1.1550944 0.18294901 0.034444097
1.154847 0.18290982 0.042097617
1.1643629 0.18441695 0.051470816
1.1540774 0.1827879 0.059948254
1.153591 0.18271086 0.068878777
1.1431837 0.18106249 0.077120081
1.1424754 0.18095031 0.087217525
1.1429979 0.20874853 -0.7068097
1.1321245 0.20676269 -0.68639863
1.1464663 0.20938198 -0.68137681
1.1259665 0.20563804 -0.6575045
1.1229956 0.20509551 -0.64258593
1.1284692 0.20609508 -0.63259953
1.139158 0.20804726 -0.61248291
1.1443726 0.20899957 -0.60235423
1.1407251 0.20833343 -0.5876593
1.1457264 0.20924684 -0.57751769
1.1494203 0.20992142 -0.56988257
1.1536626 0.21069622 -0.56095433
1.1489408 0.20983389 -0.54772699
1.1357138 0.20741817 -0.52918047
1.1402133 0.20824 -0.51908553
1.1356132 0.20739985 -0.50494361
1.1399046 0.20818365 -0.49485049
1.1339943 0.20710421 -0.48338875
1.1381009 0.20785409 -0.47331083
1.1421206 0.20858833 -0.46319684
1.136885 0.20763206 -0.44942322
1.1406999 0.20832875 -0.43932095
1.1444278 0.20900965 -0.42918521
1.1388099 0.20798361 -0.41563761
1.1418954 0.20854717 -0.40679616
1.1449211 0.20909977 -0.39791068
1.1389577 0.20801064 -0.38458675
1.1328534 0.20689583 -0.37139913
1.1453869 0.20918486 -0.36432183
1.1571156 0.21132685 -0.35961726
1.1503509 0.21009137 -0.34778479
1.1529326 0.2105629 -0.33883536
1.1463238 0.20935594 -0.32590154
1.1487356 0.20979641 -0.31700441
1.1514132 0.21028538 -0.30680203
1.1441522 0.2089593 -0.29538402
1.1460295 0.20930217 -0.28776541
1.1293153 0.20624958 -0.27296171
1.1316155 0.20666967 -0.26293328
1.1242208 0.20531924 -0.25074178
1.135694 0.20741455 -0.24408673
1.1278566 0.20598321 -0.23326054
1.1199194 0.20453368 -0.22259042
1.1408979 0.20836498 -0.21756873
1.1422741 0.20861633 -0.20997344
1.1537285 0.21070822 -0.20152597
1.1457051 0.20924293 -0.18967628
1.137567 0.20775665 -0.17798442
1.1486032 0.20977218 -0.1706053
1.1402781 0.20825173 -0.15905029
1.1513574 0.21027525 -0.15020186
1.1526029 0.21050273 -0.1399826
1.1437043 0.20887749 -0.13118982
1.1544408 0.21083833 -0.12334365
1.1455417 0.20921302 -0.11342008
1.1463611 0.20936272 -0.10451487
1.1470095 0.20948112 -0.096885659
1.1477031 0.20960775 -0.087989882
1.1483312 0.20972249 -0.079068616
1.1489663 0.20983851 -0.068878897
1.1495138 0.20993853 -0.058683939
1.1400392 0.20820814 -0.050598547
1.1502165 0.2100668 -0.042118143
1.1406662 0.20832261 -0.032895103
1.1408799 0.20836169 -0.024050368
1.1508639 0.21018508 -0.015314884
1.1411082 0.20840338 -0.0063369675
1.1411191 0.20840535 0.0037859038
1.1410573 0.20839411 0.012653328
1.1409053 0.20836627 0.022775026
1.1406662 0.20832261 0.032894991
1.1502173 0.21006697 0.042097617
1.149812 0.20999295 0.052299451
1.1493193 0.209903 0.062497299
1.148739 0.20979699 0.07269039
1.1382587 0.20788291 0.082169585
1.1506671 0.23829176 -0.7043311
1.1214293 0.23223691 -0.67628574
1.1349286 0.23503248 -0.67253023
1.1406323 0.23621364 -0.66239047
1.1198996 0.23192008 -0.63885671
1.1332343 0.23468159 -0.63490522
1.1379431 0.23565669 -0.62606019
1.1512523 0.23841296 -0.6218338
1.151046 0.23837024 -0.60056037
1.1473756 0.23761007 -0.58580792
1.1435412 0.23681605 -0.57116699
1.1395447 0.23598841 -0.55663931
1.1488841 0.23792249 -0.53624475
1.1439277 0.2368961 -0.5231728
1.1567689 0.23955536 -0.51826531
1.1420802 0.2365135 -0.50260746
1.1367871 0.23541731 -0.48978975
1.140412 0.23616803 -0.48092124
1.1353949 0.23512903 -0.46700388
1.1393424 0.23594648 -0.45686781
1.143203 0.23674598 -0.44669694
1.1373414 0.2355321 -0.43425721
1.1502105 0.23819721 -0.42752525
1.1441431 0.23694065 -0.41520557
1.1467797 0.23748663 -0.40754944
1.1405244 0.23619124 -0.3953706
1.1434441 0.23679587 -0.38647574
1.1369841 0.23545811 -0.37446854
1.1393597 0.23595005 -0.36686113
1.1327053 0.23457198 -0.35504195
1.1540956 0.23900174 -0.35191104
1.1566904 0.23953904 -0.34291172
1.1494417 0.2380379 -0.3324483
1.1613384 0.24050166 -0.32611662
1.1448176 0.23708032 -0.31190619
1.1474394 0.23762326 -0.30169204
1.1404698 0.23617996 -0.2890462
1.1428964 0.23668249 -0.27887169
1.1351203 0.23507212 -0.26896659
1.1373755 0.23553912 -0.2588405
1.14912 0.23797132 -0.25078458
1.1317809 0.23438056 -0.23777634
1.1452965 0.2371795 -0.21941252
1.1471279 0.2375588 -0.20919763
1.1199087 0.23192196 -0.19395085
1.1505282 0.23826297 -0.18872084
1.1424156 0.23658292 -0.17696083
1.1244963 0.23287199 -0.16394657
1.1449286 0.23710333 -0.15912415
1.1365309 0.23536424 -0.14765285
1.1474736 0.23763038 -0.13869418
1.1580696 0.23982467 -0.13213208
1.1494138 0.23803221 -0.1207831
1.140653 0.23621789 -0.10959853
1.1415461 0.23640287 -0.099429205
1.1519209 0.23855138 -0.092581794
1.1525788 0.2386876 -0.083606966
1.1531711 0.2388103 -0.074606724
1.1439869 0.23690838 -0.063782029
1.1639333 0.24103898 -0.05709403
1.154592 0.23910457 -0.046326637
1.1647316 0.24120435 -0.036340885
1.1258382 0.23314986 -0.025087174
1.1553839 0.23926854 -0.01544578
1.1554718 0.23928672 -0.0051487619
1.1261003 0.23320419 0.0037532686
1.1456225 0.23724699 0.012762411
1.1454939 0.23722038 0.021685116
1.1550869 0.239207 0.030888744
1.1352065 0.23508999 0.040483359
1.1544379 0.23907259 0.050174549
1.1443112 0.23697549 0.057398926
1.1437771 0.23686484 0.067594491
1.1333853 0.23471281 0.077120088
1.1229187 0.23254529 0.086465657
1.1530893 0.26727176 -0.70947218
1.1422786 0.26476598 -0.6889838
1.1227667 0.26024336 -0.66375327
1.1283666 0.26154137 -0.65367037
1.1246812 0.26068714 -0.63994879
1.1208472 0.25979844 -0.62634355
1.125479 0.26087207 -0.61752981
1.1466347 0.26577568 -0.61926734
1.1338912 0.26282191 -0.60109508
1.129645 0.26183766 -0.5876593
1.1339784 0.26284209 -0.57879794
1.1388557 0.26397258 -0.56861788
1.1342641 0.26290834 -0.55535936
1.1295331 0.26181176 -0.54222667
1.1340996 0.26287025 -0.5320878
1.1374679 0.26365086 -0.52445704
1.1502569 0.26661524 -0.51954329
1.1451373 0.2654286 -0.50656503
1.1488763 0.26629525 -0.49756417
1.1435356 0.26505736 -0.48473808
1.1385765 0.26390791 -0.47073993
1.1511128 0.26681358 -0.4654566
1.1449687 0.26538956 -0.45410892
1.1396682 0.26416096 -0.44031262
1.1342211 0.26289836 -0.42664614
1.1469808 0.26585588 -0.4198283
1.1505061 0.26667303 -0.40953779
1.1442873 0.26523161 -0.39731416
1.1472127 0.26590967 -0.38832319
1.1500647 0.26657066 -0.3793301
1.152856 0.2672177 -0.3702943
1.1555736 0.26784763 -0.36125758
1.1586008 0.26854932 -0.35089234
1.1521724 0.26705924 -0.33775437
1.1549999 0.26771456 -0.3274205
1.1479946 0.2660909 -0.3157593
1.1408786 0.26444149 -0.30424777
1.1339718 0.26284063 -0.29158643
1.1455777 0.26553068 -0.28503513
1.1286926 0.26161695 -0.27149495
1.1303995 0.26201251 -0.26390606
1.1323318 0.26246044 -0.25502795
1.1341938 0.26289207 -0.24615526
1.1359937 0.26330921 -0.2372479
1.1188419 0.25933361 -0.22324659
1.1396213 0.26414999 -0.21814677
1.1414324 0.26456988 -0.20792986
1.1431566 0.2649695 -0.19769712
1.1351737 0.26311913 -0.18587412
1.1459644 0.26562029 -0.17975406
1.1474488 0.26596436 -0.1694818
1.1391919 0.26405054 -0.15785885
1.1501555 0.2665917 -0.14889933
1.1417022 0.26463237 -0.13742608
1.1523759 0.26710638 -0.12955163
1.134048 0.26285821 -0.11722008
1.1447022 0.26532775 -0.10797196
1.1455766 0.26553038 -0.097713739
1.1462693 0.26569098 -0.088741928
1.1372597 0.26360267 -0.077805392
1.1475309 0.26598337 -0.069467604
1.1480136 0.26609528 -0.060481314
1.138698 0.26393604 -0.051034737
1.139044 0.26401624 -0.04211814
1.1490622 0.26633829 -0.033462256
1.1395378 0.26413068 -0.024257693
1.1494417 0.26642632 -0.014168995
1.1495184 0.26644406 -0.0038718861
1.1495137 0.26644295 0.0051486506
1.149442 0.26642635 0.014148292
1.149303 0.26639411 0.023167703
1.1490974 0.26634645 0.03216517
1.1488245 0.26628321 0.041181352
1.1582179 0.26846051 0.050599758
1.1578704 0.26837996 0.058380105
1.1574018 0.26827133 0.067464367
1.1471453 0.265894 0.075880893
1.1367409 0.26348239 0.085423887
1.1469969 0.2944988 -0.68888938
1.1436549 0.29364073 -0.67485452
1.1577663 0.29726389 -0.66941118
1.1463968 0.29434472 -0.64933491
1.1426332 0.29337838 -0.63554597
1.1387435 0.29237965 -0.6218338
1.1426612 0.29338562 -0.61412573
1.1557901 0.29675648 -0.60965979
1.1516117 0.29568365 -0.59603846
1.1299064 0.29011068 -0.57371336
1.1428454 0.2934328 -0.56912333
1.1476123 0.29465684 -0.55880511
1.1440656 0.29374614 -0.5429799
1.1264606 0.28922591 -0.51023018
1.1307304 0.29032224 -0.50006181
1.1338762 0.29112998 -0.49241048
1.1374891 0.2920576 -0.48344707
1.1410273 0.29296604 -0.47447595
1.1445073 0.29385954 -0.4654566
1.1388738 0.29241315 -0.45283681
1.1426579 0.2933847 -0.4425588
1.1459013 0.29421747 -0.43352753
1.1399511 0.29268974 -0.42112264
1.1343194 0.29124379 -0.40754944
1.1377211 0.29211709 -0.39731416
1.1402154 0.2927576 -0.3896178
1.1430669 0.29348972 -0.38060737
1.1366045 0.29183051 -0.36859858
1.1489425 0.29499838 -0.36125758
1.1426623 0.29338583 -0.34806255
1.1455607 0.29413009 -0.33775437
1.1390356 0.29245463 -0.32475853
1.1320512 0.29066139 -0.31317112
1.1440325 0.29373771 -0.30546367
1.1553373 0.29664022 -0.30016702
1.1484172 0.29486349 -0.2873908
1.1225042 0.28821012 -0.27022082
1.1341971 0.29121238 -0.26228291
1.1458406 0.29420194 -0.25415474
1.1289709 0.28987041 -0.23979138
1.1309547 0.29037982 -0.22961068
1.132618 0.29080686 -0.22069842
1.1535065 0.29617018 -0.21402317
1.1457238 0.29417187 -0.20193958
1.1473871 0.29459894 -0.19160938
1.148963 0.29500353 -0.18126461
1.1598572 0.29780069 -0.17362612
1.1419142 0.29319373 -0.16176909
1.1430787 0.29349276 -0.15275189
1.1440225 0.29373509 -0.14502458
1.1548283 0.2965095 -0.13584392
1.1462998 0.29431975 -0.12438893
1.1473075 0.29457846 -0.11405651
1.1481167 0.2947863 -0.10501881
1.1586158 0.29748192 -0.095466308
1.1399673 0.29269385 -0.084880583
1.1406415 0.29286695 -0.074606717
1.1412286 0.29301772 -0.064327165
1.1513457 0.2956154 -0.055807769
1.132416 0.29075503 -0.044668924
1.1424321 0.29332671 -0.03475919
1.1523662 0.2958774 -0.024672354
1.1428601 0.29343653 -0.0128716
1.1429254 0.29345337 -0.0025744112
1.1429037 0.29344776 0.0077229743
1.1428133 0.29342461 0.016722435
1.1426561 0.29338425 0.025741512
1.1521144 0.29581267 0.035032894
1.1518676 0.29574931 0.042817242
1.1418403 0.29317477 0.051470824
1.1510344 0.29553539 0.062279735
1.1407963 0.29290673 0.072037227
1.1402309 0.2927615 0.081018217
1.1493514 0.29510325 0.089473166
1.1549084 0.3257179 -0.70156574
1.1273537 0.31794664 -0.67118067
1.1497324 0.32425809 -0.67072511
1.1384559 0.32107779 -0.6506359
1.1262733 0.31764197 -0.63206971
1.1302307 0.31875804 -0.62439722
1.1347812 0.32004142 -0.61542255
1.1313362 0.31906983 -0.60056037
1.1277287 0.31805238 -0.58580792
1.1326058 0.31942791 -0.57556057
1.1362071 0.32044363 -0.56784624
1.1316469 0.31915745 -0.55453944
1.1362612 0.32045886 -0.5442577
1.1308987 0.31894648 -0.53239214
1.1441281 0.32267752 -0.52616549
1.1391268 0.32126701 -0.51310593
1.1340092 0.31982368 -0.5001359
1.1376476 0.32084987 -0.49113485
1.1417292 0.32200098 -0.48080117
1.1357902 0.32032609 -0.46933129
1.1396888 0.32142556 -0.45901528
1.1344967 0.31996119 -0.44513148
1.1381922 0.32100338 -0.43482813
1.1418009 0.32202119 -0.42449161
1.1448907 0.32289258 -0.41541028
1.1387964 0.32117385 -0.40310064
1.1417289 0.32200095 -0.39404377
1.1441866 0.322694 -0.3862713
1.137813 0.32089645 -0.37417537
1.1497306 0.32425755 -0.36807173
1.1431798 0.32241011 -0.35607836
1.1457663 0.32313952 -0.34698802
1.1386698 0.32113814 -0.33645371
1.1503839 0.32444185 -0.33008245
1.1531124 0.32521141 -0.31963941
1.1464324 0.32332739 -0.30667868
1.1393168 0.32132059 -0.29514477
1.1414502 0.3219223 -0.28610763
1.1250587 0.31729937 -0.27122682
1.136688 0.3205792 -0.26319075
1.1291814 0.31846207 -0.25205427
1.1404237 0.32163277 -0.2451245
1.1233147 0.31680754 -0.23215753
1.1342047 0.31987882 -0.22640041
1.145299 0.3230077 -0.21921748
1.1468784 0.32345316 -0.21011434
1.1483874 0.32387871 -0.20101975
1.150032 0.32434261 -0.19059971
1.141885 0.32204494 -0.17996015
1.1431729 0.32240808 -0.17090601
1.1537601 0.325394 -0.16448788
1.1453917 0.32303384 -0.15403551
1.1561971 0.32608134 -0.14484146
1.1382396 0.32101679 -0.13213207
1.1393059 0.32131752 -0.12180667
1.1402856 0.32159379 -0.111472
1.1410708 0.32181531 -0.10243252
1.151386 0.32472447 -0.094150968
1.1425319 0.3222273 -0.083010256
1.1430302 0.32236788 -0.075238973
1.1435492 0.32251418 -0.066178799
1.1535546 0.32533601 -0.058891721
1.1540053 0.32546318 -0.048430253
1.1639878 0.32827851 -0.038281474
1.1546431 0.325643 -0.027497053
1.1452063 0.32298157 -0.01688502
1.154929 0.32572368 -0.0065554753
1.1453108 0.32301101 0.0051922873
1.1548632 0.32570514 0.014388098
1.1547236 0.32566571 0.023560379
1.1545506 0.32561696 0.031412285
1.1639054 0.32825524 0.040898658
1.1443379 0.32273671 0.049313191
1.1631685 0.32804742 0.059361286
1.1626978 0.32791469 0.068598218
1.1524734 0.32503113 0.078483701
1.1421723 0.32212585 0.088189051
1.1401124 0.35074446 -0.69391775
1.1209469 0.3448483 -0.66862363
1.1181369 0.34398383 -0.65348703
1.1151601 0.34306806 -0.63845295
1.128212 0.34708339 -0.63424844
1.1497102 0.35369706 -0.63455886
1.1458254 0.35250199 -0.62074673
1.1417964 0.35126248 -0.60705501
1.1376448 0.34998527 -0.59344316
1.1597325 0.35678032 -0.59180111
1.1559975 0.35563129 -0.57688493
1.1347778 0.3491033 -0.55362999
1.1480497 0.35318619 -0.54739511
1.1438401 0.35189122 -0.53282505
1.1471486 0.35290906 -0.52498102
1.1509423 0.35407615 -0.51581174
1.1458632 0.35251355 -0.50272429
1.1500127 0.35379013 -0.49224326
1.1363195 0.34957755 -0.47431359
1.1313243 0.34804079 -0.46029636
1.1435813 0.35181159 -0.45480844
1.1468709 0.35282362 -0.44564876
1.1496341 0.35367364 -0.43778583
1.152792 0.35464513 -0.4285993
1.1593437 0.35666075 -0.40879726
1.1627094 0.35769612 -0.39819673
1.1560724 0.35565427 -0.38717771
1.1410017 0.35101798 -0.37067702
1.14405 0.35195577 -0.36024541
1.1470112 0.35286671 -0.34978634
1.1491747 0.3535324 -0.34192449
1.1424208 0.35145453 -0.33008245
1.1447992 0.35218626 -0.32093567
1.1471055 0.35289571 -0.31179109
1.140081 0.35073474 -0.30016702
1.1422361 0.35139775 -0.29106069
1.1257224 0.34631747 -0.27733254
1.1370313 0.34979656 -0.27055916
1.1392447 0.35047749 -0.26016757
1.1320158 0.34825355 -0.24770901
1.1337926 0.34880012 -0.23864786
1.1453636 0.35235986 -0.22887714
1.1378255 0.35004079 -0.21662083
1.1584251 0.35637808 -0.20963272
1.1412656 0.35109913 -0.1958116
1.1428554 0.35158828 -0.18538421
1.1441765 0.35199463 -0.17623819
1.1454279 0.35237965 -0.1671028
1.1464489 0.35269374 -0.15925573
1.157063 0.35595906 -0.15132208
1.1581324 0.35628808 -0.14208457
1.140269 0.35079256 -0.12934941
1.1603261 0.35696289 -0.12091589
1.1422529 0.35140288 -0.10850886
1.1430124 0.35163653 -0.099369898
1.162861 0.35774276 -0.090412408
1.1538656 0.35497534 -0.081771806
1.1353467 0.34927821 -0.071362473
1.1549894 0.35532114 -0.062018968
1.1554627 0.35546675 -0.051471375
1.1462529 0.35263342 -0.041879445
1.1369705 0.34977776 -0.032458622
1.1562866 0.35572025 -0.023756819
1.137326 0.34988722 -0.012980677
1.1660647 0.35872835 -0.0026616747
1.1564848 0.3557812 0.0079193255
1.1468179 0.35280722 0.018325197
1.1370661 0.34980723 0.02855516
1.1651685 0.35845262 0.047896925
1.1647854 0.35833478 0.057193317
1.1548584 0.35528085 0.064633965
1.1638148 0.35803622 0.075796828
1.1440705 0.35196206 0.085003026
1.1433371 0.38144615 -0.6923722
1.1483132 0.38310629 -0.68315929
1.1449369 0.38197985 -0.66903734
1.1420951 0.38103178 -0.65370756
1.1216792 0.37422049 -0.63039249
1.1352643 0.37875286 -0.624677
1.1403921 0.38046363 -0.61420947
1.1369485 0.37931478 -0.59922338
1.1418655 0.38095522 -0.5887413
1.1466956 0.38256669 -0.57821447
1.1336782 0.37822369 -0.5604648
1.1290812 0.37669 -0.54715663
1.1330159 0.37800273 -0.53804177
1.1281972 0.37639505 -0.5248788
1.1406779 0.380559 -0.51973915
1.1351484 0.37871414 -0.50795054
1.1387904 0.37992927 -0.49880883
1.1335868 0.3781932 -0.48585084
1.137069 0.37935492 -0.47672233
1.1404926 0.3804971 -0.46754512
1.1349752 0.37865645 -0.45480844
1.1382401 0.37974563 -0.44564876
1.1418859 0.38096195 -0.4351607
1.1454445 0.38214922 -0.42463946
1.1399401 0.3803128 -0.41085088
1.1338806 0.37829122 -0.39851069
1.1367372 0.37924427 -0.38936147
1.148964 0.38332343 -0.38189644
1.1430101 0.38133708 -0.36838841
1.1460161 0.38233992 -0.3578594
1.1485718 0.38319266 -0.34863469
1.1331377 0.37804335 -0.33268932
1.1355171 0.37883717 -0.32354799
1.1375015 0.37949929 -0.31570646
1.1397526 0.38025025 -0.30655146
1.1330352 0.37800914 -0.29366723
1.1261919 0.37572607 -0.2809301
1.1281962 0.37639472 -0.27184629
1.1211379 0.37403986 -0.25931415
1.1322623 0.37775138 -0.25236085
1.1340592 0.37835073 -0.24322893
1.1267178 0.37590152 -0.23087893
1.1565676 0.38586012 -0.2259721
1.1488287 0.38327828 -0.21491908
1.1594892 0.38683486 -0.20867088
1.1516058 0.38420475 -0.1977134
1.1531987 0.38473621 -0.18711181
1.1640915 0.38837025 -0.17793089
1.1465492 0.38251776 -0.16584729
1.166696 0.38923919 -0.15783922
1.1585392 0.38651791 -0.14591403
1.1597029 0.38690615 -0.13525064
1.1514692 0.38415918 -0.12222947
1.1523201 0.38444313 -0.11296778
1.1625574 0.38785845 -0.10452812
1.1538222 0.38494417 -0.09440399
1.1640234 0.38834754 -0.084472708
1.1457405 0.38224795 -0.07256183
1.1462975 0.38243374 -0.062018968
1.1561345 0.38571569 -0.054555852
1.1470169 0.38267374 -0.04486654
1.1473446 0.38278306 -0.034312986
1.1570691 0.38602743 -0.023953153
1.1667088 0.38924357 -0.013417001
1.1572812 0.38609824 -0.0053232848
1.1478001 0.38293514 0.003949102
1.1572233 0.38607892 0.013307824
1.1665778 0.38919976 0.022797184
1.1568956 0.38596961 0.03193583
1.1565872 0.38586667 0.042577337
1.1561908 0.38573435 0.053215604
1.1652457 0.38875535 0.063022539
1.1647545 0.3885915 0.072411045
1.1451821 0.38206166 0.081771709
1.1443268 0.41198304 -0.69338751
1.1403682 0.41055784 -0.68051666
1.1369903 0.40934178 -0.66640252
1.1417395 0.41105157 -0.65716642
1.1547403 0.41573209 -0.65256554
1.1600542 0.41764522 -0.64183062
1.1619966 0.41834456 -0.61575305
1.1537416 0.41537261 -0.58817178
1.1409004 0.41074944 -0.57029039
1.1409529 0.41076839 -0.54625612
1.1367826 0.40926698 -0.53162569
1.1400319 0.41043675 -0.52370661
1.1437571 0.41177794 -0.51445001
1.1387312 0.40996853 -0.50131536
1.1422956 0.41125172 -0.49206993
1.1453013 0.41233382 -0.48411337
1.131687 0.40743247 -0.46624386
1.1350074 0.40862787 -0.45703551
1.1387167 0.40996334 -0.44649106
1.133484 0.40807939 -0.43253347
1.1281095 0.40614441 -0.41870716
1.1404139 0.41057432 -0.41144258
1.134401 0.40840951 -0.39904404
1.1372379 0.40943086 -0.3898156
1.1493747 0.41380045 -0.38223928
1.134083 0.40829507 -0.36708432
1.1370538 0.40936461 -0.35655189
1.1301837 0.40689117 -0.34586775
1.1326382 0.4077749 -0.33667514
1.1350213 0.40863287 -0.32748389
1.1191461 0.40291747 -0.31316042
1.1311042 0.40722257 -0.30392945
1.124118 0.40470737 -0.29235369
1.1258942 0.40534687 -0.28452784
1.1206653 0.40346438 -0.26405635
1.1225276 0.40413481 -0.25496429
1.1240736 0.40469146 -0.24715033
1.1350465 0.40864187 -0.23996115
1.155219 0.4159044 -0.23450528
1.1476169 0.41316754 -0.2233116
1.1489675 0.41365376 -0.21532379
1.1504792 0.41419801 -0.20600371
1.1426376 0.41137484 -0.19506438
