# .PCD v0.7 - Point Cloud Data file format
VERSION 0.7
FIELDS x y z
SIZE 4 4 4
TYPE F F F
COUNT 1 1 1
WIDTH 1432
HEIGHT 1
VIEWPOINT 0 0 0 1 0 0 0
POINTS 1432
DATA ascii
0.79414088 -0.043704249 0.5725646
0.76496488 -0.042098615 0.56174409
0.76004112 -0.041827593 0.56840831
0.74939138 -0.041241534 0.58241886
0.73581314 -0.0404943 0.58355737
0.71515363 -0.039357312 0.5774135
0.70946413 -0.039044179 0.58441097
0.65060705 -0.035805084 0.57647938
0.63247246 -0.034807093 0.58169329
0.6200847 -0.034125336 0.5803709
0.61500412 -0.03384573 0.58576816
0.59489262 -0.032738961 0.57786757
1.0293163 -0.032347549 -0.20484489
1.031275 -0.03240912 -0.19473392
1.0230969 -0.032152075 -0.18395381
1.0347085 -0.032517064 -0.17555895
1.0362003 -0.032563854 -0.16651839
1.0278994 -0.032303084 -0.15485273
1.0292108 -0.032344274 -0.14587241
1.0206842 -0.032076292 -0.13444203
1.0416591 -0.0327354 -0.12796287
1.0329316 -0.032461159 -0.11661319
1.0339093 -0.032491915 -0.10759038
1.0248584 -0.032207452 -0.097611696
1.0158086 -0.031923052 -0.086681888
1.0364578 -0.032571968 -0.079335399
1.0371858 -0.032594796 -0.069160372
1.0277711 -0.032299008 -0.059524324
1.0283062 -0.032315787 -0.04941754
1.0385939 -0.032639142 -0.043097354
1.0289404 -0.032335695 -0.033700723
1.0291953 -0.032343775 -0.024715919
1.0193778 -0.032035232 -0.015576524
1.0394645 -0.032666504 -0.0068068015
1.0294893 -0.032353044 0.0022470439
1.0294305 -0.032351136 0.011235269
1.0392637 -0.032660186 0.021544132
1.0190548 -0.032025099 0.030028174
1.0486728 -0.032955889 0.04122274
1.0382352 -0.032627884 0.051021248
1.047729 -0.032926206 0.060661707
1.0271382 -0.032279167 0.069607295
1.0264919 -0.032258842 0.07857243
1.0157143 -0.031920109 0.087781459
1.01491 -0.03189484 0.09664616
1.0337924 -0.032488234 0.10870954
1.0328047 -0.03245718 0.11773127
1.0514394 -0.033042796 0.13031985
1.0501088 -0.033000953 0.14065015
1.048842 -0.032961197 0.14981313
1.027562 -0.032292467 0.15707794
1.0458865 -0.032868277 0.16923659
1.044174 -0.032814514 0.17951041
1.0425684 -0.032764088 0.18862011
1.0406691 -0.032704365 0.1988422
1.0388951 -0.032648575 0.20792055
1.0368029 -0.032582894 0.21812378
1.0348608 -0.032521799 0.22716764
1.0328401 -0.03245832 0.23619421
1.0401963 -0.032689467 0.24864231
1.037704 -0.032611206 0.25885636
1.0354068 -0.032538965 0.26790655
1.0327306 -0.032454927 0.27805457
1.0302659 -0.032377411 0.28706059
1.0177951 -0.03198548 0.29439783
1.0247657 -0.032204527 0.3061339
1.0312639 -0.032408822 0.31913054
1.0189185 -0.032020826 0.32508403
1.0251689 -0.032217257 0.33821684
1.031265 -0.032408796 0.35148564
1.02816 -0.032311223 0.36047608
1.0241686 -0.032185815 0.37167543
1.0302538 -0.032377057 0.38409492
1.0264317 -0.032256957 0.39420468
1.0229542 -0.032147642 0.4031513
1.0101317 -0.031744715 0.40832111
1.0074389 -0.031660046 0.41492689
1.0042466 -0.031559732 0.42260239
1.0101717 -0.031745967 0.43421817
1.0063457 -0.031625714 0.4430213
1.0211746 -0.032091767 0.45888194
1.0090601 -0.031711012 0.46140215
1.0055052 -0.031599313 0.4691062
1.0013753 -0.031469524 0.47786725
1.0241196 -0.032184303 0.49974304
1.0197217 -0.03204602 0.50866544
1.0158144 -0.031923328 0.51643193
1.0201421 -0.032059345 0.52988893
1.0243117 -0.032190327 0.54346043
1.0195324 -0.032040123 0.55238283
1.0146756 -0.031887505 0.5612632
1.0190675 -0.032025553 0.5739125
1.0146629 -0.031887092 0.58167213
0.93139416 -0.029270267 0.56546277
0.90942794 -0.028579956 0.56304884
0.89602917 -0.028158879 0.56563133
0.89106148 -0.028002774 0.57343286
0.86930853 -0.027319139 0.57022488
0.84768057 -0.026639437 0.56668156
0.83382845 -0.026204145 0.569336
0.83766639 -0.026324784 0.58139664
0.81054121 -0.025472349 0.58512747
0.78866029 -0.02478466 0.5812062
0.77556533 -0.024373179 0.58206904
0.76251596 -0.023963099 0.58274794
0.70246762 -0.022075957 0.57805866
0.67706221 -0.021277552 0.57726419
0.67200142 -0.021118527 0.58315355
0.65939635 -0.020722395 0.58238053
0.64621699 -0.020308232 0.58214355
0.62865388 -0.019756293 0.58651853
0.60331589 -0.018960005 0.58416647
1.0195401 -0.008007573 -0.20511883
1.021503 -0.0080230115 -0.19510841
1.0231667 -0.0080360658 -0.18618652
1.0346057 -0.0081259497 -0.1789548
1.0262601 -0.0080603855 -0.1683009
1.0278642 -0.0080729621 -0.15820839
1.0193095 -0.0080057885 -0.14779747
1.0208609 -0.0080179488 -0.13666961
1.0220146 -0.0080270097 -0.12775554
1.0230906 -0.0080354735 -0.11883175
1.0240886 -0.0080433423 -0.10989892
1.0348475 -0.0081278021 -0.10307585
1.0258505 -0.0080571715 -0.092008829
1.0166473 -0.007984872 -0.082246587
1.0373542 -0.0081475331 -0.073687509
1.0379577 -0.0081522427 -0.064631917
1.0285567 -0.0080784522 -0.053906098
1.0389781 -0.0081602307 -0.045364227
1.0193472 -0.008006094 -0.035597552
1.0296438 -0.0080869775 -0.025848119
1.0398285 -0.0081669679 -0.01702534
1.0299461 -0.0080893636 -0.0067413505
1.0299659 -0.0080894828 0.0022470453
1.0298942 -0.0080889473 0.012349764
1.0397447 -0.0081663141 0.021544134
1.0294878 -0.0080857892 0.031454604
1.0291297 -0.0080829291 0.041551232
1.028728 -0.00807977 0.050530665
1.0282478 -0.0080760159 0.059506249
1.0375904 -0.0081493901 0.070283093
1.026967 -0.0080659436 0.07857243
1.0161843 -0.0079812463 0.087781467
1.0253344 -0.0080531295 0.097593665
1.0342708 -0.0081233447 0.10870954
1.0332828 -0.0081155971 0.11773127
1.0420022 -0.0081840837 0.12909041
1.0307722 -0.0080958689 0.13799638
1.0196295 -0.008008251 0.14557314
1.0280375 -0.0080743525 0.15707794
1.0364991 -0.0081408126 0.16764002
1.034802 -0.0081274621 0.17781691
1.0332109 -0.0081149451 0.18684067
1.0313286 -0.0081001641 0.19696634
1.0295706 -0.0080863964 0.20595904
1.0274971 -0.0080701243 0.21606602
1.0255725 -0.0080549857 0.22502455
1.033062 -0.0081138164 0.23731226
1.020957 -0.008018747 0.24511757
1.018779 -0.0080016414 0.25401792
1.0165237 -0.0079839388 0.26289895
1.0235523 -0.0080391336 0.27545592
1.0211096 -0.0080200015 0.28437775
1.0278724 -0.0080731101 0.29717517
1.0156584 -0.0079771467 0.30327281
1.012635 -0.0079533653 0.31322071
1.0098631 -0.0079316692 0.32204586
1.0161467 -0.0079810228 0.33508521
1.0128112 -0.0079547977 0.34503636
1.0097618 -0.0079308366 0.35386184
1.0156401 -0.0079770312 0.36716673
1.0217716 -0.0080251927 0.37949768
1.0184209 -0.0079987887 0.38840002
1.005681 -0.0078987721 0.39362809
1.0022079 -0.0078715039 0.40238947
1.0171521 -0.0079888962 0.41873357
0.99503279 -0.0078151487 0.41981968
1.0014515 -0.0078655453 0.43027073
0.98898357 -0.0077676447 0.43387914
1.0038905 -0.0078847688 0.44960153
0.99992895 -0.0078536551 0.45834517
1.0054624 -0.0078970483 0.47019455
0.99230015 -0.0077936645 0.47463623
0.99710351 -0.0078314543 0.4876712
0.99281001 -0.0077976892 0.49635416
1.0068063 -0.0079076309 0.51300919
1.0111611 -0.0079418151 0.52639335
0.99828273 -0.0078406362 0.52940542
1.0118032 -0.007946942 0.54652631
0.99884385 -0.0078451075 0.54940832
1.0039567 -0.0078852521 0.56081074
1.008333 -0.0079196449 0.57341254
1.0039303 -0.0078850752 0.5810867
0.93428361 -0.0073380223 0.56139141
0.90377074 -0.0070983814 0.55384845
0.89042312 -0.0069935368 0.55641514
0.87710011 -0.0068889009 0.55879152
0.86319655 -0.0067796758 0.5619126
0.84159499 -0.0066100406 0.55836737
0.82779008 -0.0065016197 0.56100017
0.82286316 -0.0064629368 0.56820279
0.81787354 -0.0064237174 0.57536215
0.78782517 -0.0061877421 0.56585616
0.78285736 -0.0061487015 0.5727098
0.76116771 -0.0059783808 0.56840831
0.75050217 -0.0058945478 0.58241886
0.7084288 -0.0055641588 0.57113725
0.66033131 -0.005186385 0.58166629
0.64033872 -0.0050293263 0.57405657
0.60422689 -0.0047457279 0.58351296
1.0085187 0.015843106 -0.20865972
1.020331 0.016028656 -0.20066819
1.0023884 0.015746813 -0.18806788
1.0236773 0.016081225 -0.18282819
1.0254211 0.016108584 -0.17277732
1.0367637 0.0162868 -0.16539647
1.0284495 0.016156146 -0.15372185
1.0297518 0.01617665 -0.14474009
1.0212071 0.016042419 -0.13333693
1.0223317 0.016060062 -0.12441915
1.0135677 0.015922405 -0.11325607
1.0244637 0.016093558 -0.10542932
1.0254483 0.016108995 -0.095374465
1.0261474 0.016120022 -0.087531701
1.0269564 0.016132718 -0.077461191
1.0275931 0.01614267 -0.068495363
1.0282166 0.016152564 -0.058393635
1.0286869 0.016159896 -0.049417537
1.029079 0.016166033 -0.040437672
1.0294261 0.016171517 -0.030340666
1.0396481 0.016332092 -0.021562411
1.0298116 0.016177595 -0.011235396
1.0298704 0.016178489 -0.0022471722
1.0298429 0.016178071 0.0078557627
1.0397133 0.016333101 0.018150439
1.0395154 0.016330002 0.027223963
1.0391984 0.016325055 0.037420094
1.0288435 0.016162392 0.046041384
1.0184181 0.015998539 0.054484814
1.0278124 0.016146179 0.065122701
1.0371778 0.016293343 0.074809901
1.0264289 0.016124422 0.084163688
1.0156977 0.01595583 0.092214689
1.0246911 0.016097182 0.10319364
1.0336912 0.016238503 0.11322149
1.0326638 0.01622241 0.12223884
1.0314152 0.0162028 0.13236319
1.0399694 0.016337147 0.1438629
1.0287824 0.016161373 0.15147735
1.0175426 0.015984824 0.15890761
1.0257986 0.016114462 0.17052148
1.0242716 0.016090501 0.17946777
1.0128334 0.015910853 0.18658884
1.0209838 0.016038882 0.19731864
1.0194459 0.016014742 0.20511872
1.027402 0.016139733 0.21606602
1.0157112 0.015956061 0.22288147
1.0137277 0.015924856 0.2317377
1.0311222 0.016198143 0.24520278
1.0192366 0.016011402 0.25179464
1.026401 0.016123993 0.26427418
1.014097 0.015930666 0.27175993
1.0116872 0.015892847 0.28060025
1.0088865 0.015848827 0.29051119
1.0254811 0.016109567 0.30500636
1.004333 0.015777331 0.30588597
1.0111651 0.015884647 0.31763631
1.0175049 0.015984217 0.33064812
1.0138381 0.015926668 0.34172887
1.0108178 0.015879162 0.35056424
1.0171384 0.015978433 0.36273155
1.0041474 0.015774436 0.36924115
1.0008874 0.015723204 0.3779909
0.9975512 0.015670782 0.38671187
1.0029906 0.015756255 0.40020198
0.99065089 0.01556236 0.4040648
0.99676287 0.015658382 0.41547391
0.9843657 0.015463594 0.41914782
0.99030268 0.015556904 0.43064892
0.99564171 0.015640827 0.44334289
1.0008339 0.015722336 0.45616251
0.99681556 0.015659185 0.46488002
0.99272126 0.015594871 0.47356215
0.99807268 0.015678942 0.48549464
1.0032907 0.015760927 0.49755356
1.000013 0.015709458 0.50411022
1.0050336 0.015788255 0.51629257
1.0099169 0.015865024 0.52859819
1.0052662 0.015791949 0.5373922
1.0005389 0.015717711 0.54614532
0.99634492 0.015651848 0.55376154
0.99208313 0.015584881 0.5613628
1.0044656 0.01577937 0.57999992
0.95133835 0.014944816 0.57169223
0.90308732 0.014186795 0.55482608
0.8897382 0.013977076 0.55737841
0.86737674 0.013625796 0.5553124
0.8714965 0.013690526 0.56736803
0.83257705 0.013079102 0.55375487
0.82771355 0.013002749 0.56100017
0.81517714 0.012805785 0.56162465
0.79387707 0.012471194 0.55722857
0.7971186 0.012522096 0.56995183
0.7840324 0.012316519 0.57100046
0.78640908 0.012353831 0.58464354
0.74938899 0.011772299 0.56734252
0.74441016 0.011694098 0.5738613
0.73874623 0.011605137 0.58113623
0.7180379 0.011279816 0.57506025
0.69955975 0.01098954 0.58188945
0.65339893 0.010264391 0.57433826
0.63524622 0.0099791829 0.57962286
0.62283713 0.0097842757 0.57834095
1.0190067 0.040036898 -0.20401543
1.010932 0.039719652 -0.19323237
1.0127804 0.039792251 -0.18328191
1.034036 0.040627401 -0.17781703
1.0258651 0.040306401 -0.16606148
1.0272739 0.040361714 -0.157096
1.0286046 0.040413983 -0.14811856
1.0300093 0.040469237 -0.13799649
1.0311733 0.040514924 -0.1289959
1.0323881 0.040562667 -0.11886752
1.0234489 0.040211447 -0.10879065
1.0344139 0.040642269 -0.099679641
1.0352437 0.040674873 -0.090642035
1.0261199 0.040316317 -0.079701751
1.0367446 0.040733758 -0.071424104
1.0274208 0.040367428 -0.060636986
1.0179307 0.039994601 -0.051160365
1.0283219 0.040402923 -0.042682949
1.0286548 0.040415976 -0.033700716
1.0388989 0.040818453 -0.024955874
1.0290859 0.0404329 -0.01572923
1.0291839 0.040436745 -0.0067413473
1.0292004 0.040437371 0.0033616114
1.0191263 0.040041596 0.013351327
1.0389509 0.040820479 0.022687418
1.0386785 0.040809747 0.032884836
1.0483365 0.04118925 0.042358052
1.0378902 0.040778782 0.052163385
1.0274208 0.040367421 0.060636867
1.0367458 0.04073387 0.071405873
1.0360837 0.040707823 0.080457337
1.0252895 0.040283736 0.089770354
1.0244677 0.040251426 0.098721065
1.0234507 0.040211521 0.10877266
1.032259 0.040557526 0.11998534
1.0311733 0.040514909 0.12899578
1.039762 0.040852331 0.14044935
1.0286072 0.040414058 0.14810047
1.0271035 0.040354986 0.15820827
1.0256848 0.040299226 0.16717221
1.0336459 0.040612061 0.18007416
1.0320364 0.04054882 0.18909441
1.0305653 0.040491004 0.19696634
1.0285816 0.04041307 0.20709102
1.0267365 0.040340587 0.21606602
1.0345736 0.040648445 0.22716764
1.0322974 0.040559068 0.23731226
1.0299175 0.040465519 0.24745202
1.0277205 0.040379241 0.25643715
1.0251577 0.040278509 0.26651308
1.0227947 0.040185701 0.27545592
1.0104178 0.039699417 0.28280699
1.0079134 0.039601009 0.29162049
1.0145781 0.039862853 0.30437171
1.0118854 0.039757084 0.31322071
1.0091157 0.039648306 0.32204586
1.0153946 0.039894886 0.33508521
1.0120616 0.039763995 0.34503636
1.0090144 0.039644308 0.35386184
1.0050974 0.03949035 0.36485571
1.0018777 0.039363839 0.37361959
1.0074894 0.039584316 0.38703734
1.0040762 0.039450262 0.39582127
1.0005865 0.039313111 0.40457505
0.98867929 0.038845304 0.40731356
0.99429631 0.039065961 0.41981968
0.98142552 0.038560275 0.42451966
0.98777425 0.03880972 0.43496636
0.98443055 0.038678382 0.44249329
0.98053461 0.038525257 0.45107374
0.98560631 0.038724542 0.46387559
0.99052864 0.038917929 0.47680002
0.98685771 0.038773745 0.484364
0.99207526 0.038978696 0.49635416
1.0060611 0.039528217 0.51300919
1.0021222 0.039373484 0.52067345
0.98985755 0.03889158 0.52256048
1.0028572 0.039402273 0.54067069
1.0068598 0.039559569 0.55422771
0.98456281 0.0386835 0.55320847
0.99704134 0.039173868 0.571729
0.99264503 0.03900113 0.57934004
0.922593 0.03624877 0.56027508
0.8915835 0.035030361 0.5534904
0.87887889 0.034531172 0.55495906
0.86560237 0.034009542 0.55720365
0.86071074 0.033817377 0.56474197
0.8391369 0.032969769 0.56112587
0.81709009 0.032103505 0.55806202
0.81219274 0.031911101 0.56517661
0.80660444 0.031691544 0.57313615
0.77728587 0.030539626 0.56257802
0.77977347 0.030637348 0.57612032
0.76673335 0.030124957 0.57689899
0.74867523 0.029415512 0.58405483
0.73572701 0.028906757 0.58435446
0.7150588 0.028094674 0.57818818
0.66864139 0.02627095 0.57151425
0.66363245 0.026074165 0.5773319
0.63798928 0.025066638 0.5761435
0.61545986 0.02418148 0.58576816
0.6031484 0.023697728 0.58416647
0.58379275 0.022937233 0.57537806
0.99710572 0.062732622 -0.20553549
1.0086505 0.063458934 -0.19873868
1.0105475 0.063578263 -0.18881612
1.0121534 0.063679285 -0.17997292
1.0038408 0.063156284 -0.16945468
1.0153115 0.063878007 -0.16112755
1.0265468 0.064584889 -0.15372185
1.0181177 0.064054526 -0.14224455
1.0292139 0.064752646 -0.13463145
1.020576 0.0642092 -0.12329482
1.0116925 0.063650317 -0.11325607
1.0326104 0.064966328 -0.10533337
1.0235511 0.064396389 -0.095374465
1.014491 0.06382633 -0.084464431
1.015188 0.063870229 -0.075590722
1.0158076 0.06390918 -0.066711254
1.0263767 0.064574152 -0.057280824
1.0168672 0.063975811 -0.047835246
1.0172451 0.063999623 -0.038942154
1.0275214 0.064646184 -0.030340662
1.0177685 0.064032584 -0.021147747
1.0079343 0.063413858 -0.012127711
1.0080045 0.063418269 -0.0022035348
1.0179654 0.064044952 0.0066757775
1.0078895 0.063411057 0.015423689
1.0276442 0.064653933 0.025830025
1.0273801 0.064637303 0.034814548
1.0070953 0.063361049 0.042946
1.0165921 0.063958555 0.053382616
1.0160207 0.063922606 0.0633711
1.0253853 0.064511798 0.072960921
1.0047247 0.06321194 0.081440121
1.0139174 0.063790254 0.091115415
1.022908 0.064355902 0.10206673
1.0120579 0.06367325 0.1099292
1.0208421 0.064225964 0.12106346
1.0197488 0.064157121 0.12998489
1.0185779 0.064083539 0.13889641
1.0272064 0.064626299 0.14923227
1.0160036 0.063921504 0.15668702
1.0146002 0.063833199 0.16556479
1.0129306 0.063728176 0.1755283
1.0113633 0.063629553 0.18437846
1.0193075 0.064129367 0.19621359
1.0173376 0.064005449 0.20622188
1.0252672 0.06450434 0.21717778
1.0133443 0.063754186 0.22509713
1.0113453 0.06362845 0.23394904
1.0090064 0.063481286 0.24387728
1.006844 0.063345239 0.25269052
1.0139742 0.063793853 0.2651161
1.0116266 0.063646153 0.27397197
1.008896 0.063474312 0.28390107
1.0159696 0.063919321 0.29549956
1.0130227 0.063733973 0.30548799
1.0011332 0.062985964 0.31026581
0.99839294 0.062813587 0.31900769
1.01454 0.063829429 0.33396766
1.0021385 0.063049145 0.3396219
0.99914253 0.062860705 0.34837145
0.99567795 0.062642701 0.35819167
0.99171925 0.062393673 0.36905277
0.99821019 0.062802024 0.38017386
0.9855634 0.062006362 0.38525307
0.99143636 0.062375907 0.39757159
0.98793602 0.062155608 0.40622535
0.99356008 0.062509485 0.41872528
0.99950612 0.062883556 0.43027073
0.98658574 0.062070671 0.43496636
1.0009592 0.062974989 0.45179069
0.98792273 0.0621548 0.45633906
0.99293745 0.062470287 0.46922556
0.98933685 0.062243789 0.47680002
0.99463093 0.062576801 0.48876733
0.98195463 0.06177932 0.4918825
0.98706573 0.062100887 0.50392938
1.0009164 0.062972277 0.52067345
0.99749392 0.062756985 0.52722621
1.0016505 0.063018501 0.54067069
0.99690354 0.062719844 0.54940832
1.000783 0.062963866 0.56299978
1.0057545 0.063276671 0.57450336
1.0007125 0.062959485 0.58327562
0.956249 0.06016209 0.5799728
0.91656822 0.057665553 0.56831098
0.90314311 0.056820896 0.5709675
0.87234646 0.054883357 0.56355953
0.8590647 0.05404773 0.56567371
0.83690351 0.052653488 0.56295669
0.83196861 0.052343007 0.57025295
0.81816465 0.051474504 0.57267535
0.81314582 0.051158719 0.5798074
0.7987175 0.050251029 0.58277369
0.77080607 0.048494961 0.57018095
0.76075727 0.047862761 0.5835731
0.73990315 0.046550713 0.57790691
0.72131962 0.045381539 0.5852679
0.70913559 0.044615023 0.58441097
0.67036611 0.042175822 0.58389246
0.61979759 0.038994335 0.5803709
0.99467373 0.086148068 -0.20881256
1.0159895 0.087994263 -0.20401543
1.0081499 0.087315276 -0.19211982
1.0195854 0.088305697 -0.18506135
1.0211555 0.088441618 -0.17612354
1.0228274 0.088586427 -0.16606148
1.0242323 0.08870808 -0.157096
1.015698 0.087969013 -0.14669435
1.0169346 0.088076122 -0.13779205
1.0279782 0.089032628 -0.13013051
1.0290704 0.089127161 -0.1211213
1.0102749 0.087499328 -0.10994702
1.0111923 0.087578751 -0.10109363
1.0220561 0.0885197 -0.092008822
1.0128868 0.087725498 -0.082246579
1.0037041 0.086930223 -0.071561903
1.0142314 0.087841935 -0.063388988
1.0048541 0.087029845 -0.052859373
1.0152286 0.087928325 -0.044491831
1.0254529 0.088813841 -0.038192198
1.0257459 0.088839233 -0.029208589
1.0259819 0.088859707 -0.019108396
1.0161467 0.088007808 -0.010022624
1.0161958 0.088012099 -5.7377751e-08
1.0061947 0.087145895 0.0088137444
1.0160213 0.08799696 0.018904964
1.0158181 0.087979406 0.027803782
1.015497 0.087951541 0.037821282
1.0250816 0.088781685 0.047172774
1.0245714 0.088737488 0.057262752
1.0140924 0.08782991 0.065591946
1.0134014 0.087770067 0.075590603
1.012614 0.087701879 0.085564218
0.99199164 0.085915767 0.092579067
1.0009478 0.086691462 0.10338203
1.0198132 0.088325374 0.11436631
1.0285363 0.089080893 0.12560897
1.0175261 0.088127337 0.13331898
1.0161719 0.088010035 0.14334823
1.0050337 0.087045394 0.15076554
1.0133505 0.087765686 0.1622282
1.0119015 0.087640159 0.17109816
1.0101776 0.087490842 0.1810701
1.0083597 0.087333366 0.19100691
0.99688721 0.086339787 0.19789195
1.0046558 0.087012634 0.20975095
1.0125299 0.087694541 0.22066472
1.0200394 0.088345006 0.2328403
0.9985863 0.086486921 0.2371611
1.006161 0.087142989 0.24828626
1.0036819 0.086928263 0.25819787
1.0110278 0.087564513 0.2695466
1.008345 0.087332115 0.27948752
1.0058768 0.087118343 0.28830919
1.0125583 0.087697044 0.30105621
1.0000434 0.086613126 0.30807662
1.0068252 0.08720047 0.31984183
1.0036457 0.086925127 0.32975656
1.0101814 0.087491192 0.34172887
0.99738425 0.086382784 0.34837145
1.0017211 0.086758412 0.36596149
1.007833 0.087287821 0.37822393
0.9952054 0.086194135 0.38345364
0.99183381 0.085902102 0.39215624
0.98838663 0.085603572 0.40082899
0.98486418 0.085298456 0.40947121
0.98081541 0.084947802 0.41914782
0.98626614 0.085419863 0.43172044
0.97384793 0.084344298 0.43520814
0.97958285 0.084841043 0.44678777
0.98469508 0.085283816 0.45956734
0.98066211 0.084934533 0.46817499
0.97655445 0.084578782 0.47674698
0.99074644 0.08580792 0.49311113
0.9869706 0.085480899 0.50068152
0.99198562 0.085915267 0.51281875
0.9963063 0.086289436 0.52614433
0.98291802 0.085129887 0.53011799
0.9969303 0.08634346 0.54614532
0.99275142 0.08598154 0.55376154
0.98850495 0.08561378 0.5613628
0.99221474 0.085935049 0.57499993
0.98717797 0.085498832 0.58366907
0.92591161 0.080192618 0.56952339
0.90525752 0.078403763 0.56503254
0.8834824 0.076517813 0.56223118
0.86958438 0.075314097 0.56546515
0.8480075 0.073445342 0.56204009
0.83482331 0.072303526 0.56386375
0.82988924 0.071876131 0.57115465
0.81672484 0.070736043 0.57267535
0.7867468 0.068139605 0.56328183
0.78987968 0.068410955 0.57602948
0.77621061 0.067227088 0.57782149
0.76320738 0.066100888 0.57857168
0.75025082 0.064978741 0.57913852
0.63921636 0.055362098 0.57265818
0.64158803 0.055567496 0.58495909
0.62916207 0.054491304 0.58376861
0.61680633 0.053421162 0.58240551
0.59231335 0.051299863 0.579166
0.99168527 0.10948311 -0.21206999
1.003227 0.11075731 -0.20534903
1.0049701 0.1109498 -0.19653332
1.0066365 0.11113374 -0.18770266
1.0084181 0.11133043 -0.17775995
1.0295317 0.11366136 -0.17217931
1.0015291 0.11056981 -0.15847297
1.0126976 0.11180282 -0.15114135
1.01397 0.11194337 -0.14224455
1.005453 0.11100305 -0.1309302
1.0361547 0.11439256 -0.1256889
1.0175717 0.11234096 -0.11325868
1.0185152 0.11244509 -0.10432055
1.0094844 0.11144809 -0.094448492
1.0103581 0.11154459 -0.084464423
1.0110524 0.11162121 -0.075590715
1.0215878 0.11278433 -0.067365281
1.002347 0.11066014 -0.056168571
1.0127246 0.11180589 -0.047835242
1.013101 0.1118474 -0.038942151
1.0134002 0.11188039 -0.03004609
1.0136447 0.11190745 -0.020026423
1.0137799 0.11192232 -0.01112631
1.0038999 0.11083159 -0.001110608
1.0138016 0.11192477 0.0089010103
1.0136857 0.11191195 0.017801398
1.0134635 0.1118874 0.027803784
1.0131836 0.11185652 0.036700483
1.0227056 0.11290777 0.047172777
1.0024078 0.11066681 0.055059589
1.0216608 0.1127924 0.066235006
1.0012212 0.11053582 0.07374198
1.0202637 0.11263817 0.085292391
0.98979115 0.10927399 0.091501564
1.0086286 0.11135357 0.10328989
1.007571 0.11123686 0.11325596
1.0164185 0.1122136 0.1232947
1.0053115 0.11098742 0.13202462
1.0139724 0.11194357 0.14222662
1.0028682 0.11071768 0.14965622
1.001358 0.11055093 0.15956309
1.0097392 0.11147624 0.16999897
0.99824655 0.11020743 0.17820795
0.9966628 0.1100326 0.18696533
1.0045415 0.11090241 0.19873856
1.0122892 0.11175774 0.21066765
1.0007076 0.11047916 0.21743606
1.0082302 0.11130963 0.22952527
0.996526 0.11001749 0.23607634
0.99417651 0.10975812 0.24589889
1.011268 0.111645 0.25956199
1.008684 0.1113597 0.2695466
1.0063076 0.11109738 0.27839214
0.99398756 0.10973726 0.28556338
1.0010061 0.11051209 0.29710889
0.98855072 0.10913698 0.30406651
0.99501508 0.10985068 0.31682447
1.0013192 0.11054663 0.32975656
0.9893676 0.10922716 0.33424714
0.99544626 0.10989825 0.34728792
0.99239612 0.10956157 0.35601428
0.9982065 0.11020301 0.36924115
0.99455202 0.10979957 0.37909135
0.99164921 0.10947911 0.38671187
0.98825717 0.10910461 0.39540339
0.98522389 0.10876972 0.40299243
0.98169094 0.10837964 0.41162694
0.97808313 0.10798133 0.42023006
0.97440088 0.10757479 0.42880118
0.98019779 0.10821486 0.4403429
0.98538119 0.10878709 0.45308861
0.9814136 0.10834906 0.46172255
0.97737139 0.1079028 0.47032136
0.98270285 0.10849133 0.48220819
0.97011846 0.10710201 0.48528266
0.97526896 0.10767069 0.49725005
0.98084968 0.10828674 0.50823998
0.97696823 0.10785827 0.5157516
0.98178679 0.10839027 0.52796429
0.98648572 0.10890904 0.54026359
0.98235184 0.10845264 0.54783481
0.97876686 0.10805684 0.55429155
0.98316056 0.1085419 0.56675744
0.98741162 0.1090112 0.57934004
0.9744432 0.10757949 0.58179647
0.89774436 0.099111848 0.55482608
0.87605053 0.096716844 0.55207002
0.86224502 0.095192693 0.5553124
0.83242279 0.091900311 0.54646736
0.8353256 0.092220746 0.56020212
0.81399041 0.089865349 0.55627668
0.80035132 0.088359557 0.55859679
0.78735858 0.086925142 0.55983078
0.78186268 0.086318396 0.56757367
0.77690989 0.085771643 0.57441646
0.77126223 0.085148089 0.58206904
0.7453559 0.082288019 0.58324373
0.71627694 0.079077683 0.57192141
0.71902031 0.079380535 0.58447284
0.70624673 0.077970348 0.58441097
0.69289064 0.076495789 0.58493668
0.63762909 0.070394866 0.55765009
0.64703614 0.071433417 0.57718414
0.63524503 0.070131622 0.57545227
0.60563487 0.066862665 0.5782178
0.59996849 0.066237085 0.58416647
0.9892869 0.13287787 -0.20989281
0.99127972 0.1331455 -0.20009206
1.0027075 0.13468049 -0.19323237
0.99458969 0.13359009 -0.18260601
1.0060879 0.1351345 -0.17443004
1.0075582 0.135332 -0.16556491
1.0087804 0.13549612 -0.15780641
1.0002999 0.13435708 -0.14747238
1.0113564 0.13584219 -0.14001863
1.0028393 0.13469817 -0.12872301
0.9940722 0.13352063 -0.11871282
1.0049131 0.13497669 -0.11104427
1.0059443 0.13511524 -0.10109362
1.0067804 0.1352275 -0.092232533
1.0175087 0.1366685 -0.083052911
0.99841762 0.13410428 -0.072652034
1.0088991 0.13551208 -0.064490557
1.0094775 0.13558981 -0.054502711
1.0000093 0.13431805 -0.045165103
1.0101846 0.13568482 -0.038942151
1.0105151 0.13572916 -0.028925009
1.0107269 0.13575763 -0.020026421
1.0009624 0.13444602 -0.0099243596
1.0208328 0.13711503 -5.4628991e-08
1.0108832 0.13577858 0.0089010121
1.010748 0.13576043 0.018904967
1.0105461 0.13573328 0.027803786
1.0102671 0.13569584 0.036700483
1.0099112 0.13564801 0.04559439
1.0193753 0.13691923 0.055018988
1.0089688 0.13552147 0.063371107
1.0083029 0.135432 0.073371254
0.99775124 0.13401473 0.081440128
0.99691153 0.13390195 0.091310635
0.99608386 0.13379076 0.10008487
0.99506104 0.1336534 0.10995549
1.0137568 0.13616459 0.12106347
1.0027007 0.13467954 0.12981774
1.0112057 0.13582186 0.14112265
1.0099466 0.13565271 0.15002084
0.98885822 0.13282023 0.15690178
0.99724042 0.13394608 0.16724223
1.0055183 0.13505803 0.17774212
1.0039427 0.13484634 0.18658884
1.0022907 0.13462444 0.19542135
1.0005624 0.13439231 0.20423898
0.99852514 0.13411869 0.21414898
0.99687725 0.13389735 0.22182691
0.99492073 0.13363455 0.23059587
1.0121678 0.13595112 0.24399479
1.0001262 0.13433371 0.25159872
0.99791211 0.13403635 0.26039514
1.0051953 0.13501461 0.27175993
1.0025051 0.13465323 0.28169495
1.0000305 0.1343209 0.29051119
0.99715304 0.13393436 0.30041176
0.99451685 0.13358028 0.30918014
0.99180496 0.13321601 0.31792501
0.99808252 0.13405921 0.33084646
0.98579454 0.13240875 0.33641791
0.99182755 0.13321905 0.34947202
0.98799044 0.13270371 0.36036733
0.98483598 0.13227996 0.36905277
0.98120099 0.13179174 0.37878162
0.98711294 0.13258579 0.39106137
0.97406757 0.1308336 0.39708292
0.98019838 0.13165706 0.408384
0.97617394 0.13111654 0.41808224
0.96389192 0.1294668 0.42160484
0.9697324 0.13025135 0.43307456
0.98400497 0.13216835 0.44985059
0.97108531 0.13043302 0.45429114
0.96711922 0.12990031 0.46282417
0.9719969 0.13055548 0.47568601
0.96837288 0.13006872 0.48315218
0.97353441 0.13076198 0.49510822
0.98739558 0.13262376 0.51172358
0.98405498 0.13217506 0.51823312
0.97078955 0.1303933 0.52217358
0.98364604 0.13212016 0.54026359
0.98759907 0.13265109 0.55376154
0.98277205 0.1320028 0.56243616
0.97848207 0.13142654 0.56999993
0.98205453 0.13190633 0.58366907
0.90420508 0.12144985 0.55907339
0.89093029 0.11966684 0.56171435
0.87707382 0.11780571 0.56512249
0.85554034 0.1149134 0.5619126
0.84238911 0.11314698 0.56389576
0.82926935 0.11138477 0.56569052
0.81618339 0.10962709 0.56729764
0.8112458 0.10896387 0.57446247
0.79012156 0.10612657 0.56995183
0.7845329 0.10537591 0.57775784
0.76359779 0.10256397 0.57271206
0.73787576 0.099109046 0.5738613
0.69405276 0.093222879 0.58111978
0.6551078 0.087991945 0.58093983
0.63465917 0.085245334 0.57405657
0.99600154 0.15775116 -0.20975105
0.98808432 0.15649723 -0.19899218
0.98996466 0.15679498 -0.18917008
0.99155742 0.15704735 -0.18041623
0.9932605 0.15731703 -0.17054297
0.99469262 0.15754385 -0.16176072
1.0059787 0.15933137 -0.15336376
1.0072622 0.15953471 -0.14446978
1.0086157 0.15974905 -0.13444203
1.0097361 0.15992646 -0.12552549
1.0010889 0.15855691 -0.11437061
1.0020366 0.15870699 -0.10552132
1.002908 0.15884501 -0.096663997
0.99395645 0.15742716 -0.085832052
1.0143546 0.16065797 -0.078572549
0.99535704 0.15764907 -0.067165345
1.0156188 0.16085818 -0.059524309
1.0062819 0.15937936 -0.048937742
1.0163981 0.16098163 -0.043814488
1.0069027 0.15947771 -0.033373516
1.007152 0.15951717 -0.024475945
0.98758888 0.15641871 -0.014189103
1.0074325 0.15956163 -0.0044506281
0.99755037 0.15799651 0.0054998025
1.0172168 0.16111133 0.014596694
1.0071779 0.15952131 0.023354601
1.0069382 0.15948337 0.032252446
1.0065768 0.15942612 0.042268444
1.0061741 0.15936232 0.051160254
1.0056949 0.15928641 0.060048167
1.0051389 0.15919834 0.068931513
0.99465847 0.15753844 0.077046759
0.99386418 0.15741262 0.086920865
0.99307716 0.15728796 0.095698662
1.0019232 0.15868902 0.10661898
1.0107795 0.16009176 0.11659925
1.0096014 0.15990512 0.12663154
0.99853402 0.15815227 0.13534261
0.99732947 0.15796147 0.14415982
1.0058141 0.15930529 0.15446571
0.99451911 0.15751635 0.16285031
0.99307764 0.15728803 0.17163099
1.0010834 0.15855603 0.18328181
0.99946547 0.15829976 0.19211972
1.0072411 0.15953131 0.20399752
1.0054445 0.15924676 0.21288905
1.0033299 0.15891184 0.22288147
0.99174201 0.15707646 0.22950947
1.0089442 0.15980102 0.24288954
1.0068122 0.15946339 0.25179464
0.99475944 0.1575544 0.25928786
1.0017353 0.15865923 0.27175993
0.99935484 0.15828224 0.28060025
0.98709702 0.15634079 0.2877444
0.99404645 0.15744148 0.29930529
0.98165476 0.15547882 0.30623558
0.98839116 0.15654577 0.31792501
0.98526359 0.1560504 0.32772529
0.99175763 0.157079 0.3396219
0.98841357 0.15654929 0.34947202
0.98575222 0.15612777 0.35709447
0.99110907 0.15697625 0.37143126
0.98786998 0.15646327 0.38017386
0.97493517 0.15441453 0.38633868
0.98073381 0.15533295 0.39866364
0.97682446 0.15471378 0.408384
0.96417141 0.15270969 0.41310182
0.97823107 0.15493652 0.43064892
0.97448206 0.15434277 0.4392755
0.96167123 0.15231371 0.44372171
0.97670341 0.15469456 0.45849755
0.99107832 0.15697137 0.47457734
0.98746628 0.15639925 0.48223418
0.97494167 0.15441549 0.48543242
0.9795453 0.15514466 0.49851903
0.9845432 0.15593627 0.51064521
0.98010439 0.15523323 0.51932454
0.975591 0.15451843 0.52796429
0.97967297 0.15516496 0.5413546
0.9835977 0.15578657 0.55485684
0.98736364 0.15638298 0.56846935
0.97450429 0.15434629 0.57106793
0.970164 0.15365881 0.57859367
0.92698067 0.14681929 0.57371676
0.889072 0.14081514 0.55975187
0.8669346 0.13730893 0.55782676
0.84551489 0.13391635 0.55459082
0.84832793 0.13436195 0.56849504
0.82701916 0.13098693 0.56478477
0.81337404 0.12882575 0.56729764
0.80036891 0.12676594 0.56871784
0.78740191 0.12471219 0.56995183
0.77385461 0.12256648 0.57186234
0.76889616 0.12178113 0.57867777
0.7553845 0.11964112 0.58024156
0.74253839 0.11760648 0.58078009
0.71636301 0.11346071 0.5821088
0.70304739 0.11135169 0.58285946
0.69040996 0.10935014 0.58264619
0.67719764 0.10725748 0.58300877
0.65159959 0.1032032 0.58238053
0.63982898 0.10133892 0.58073169
0.97252315 0.17761429 -0.20676537
0.99355334 0.18145509 -0.20205374
0.99545848 0.181803 -0.19211981
0.98738956 0.18032943 -0.18150246
0.99860525 0.18237771 -0.17443003
0.99017733 0.18083854 -0.16506432
1.010999 0.18464126 -0.1593385
0.99286044 0.18132855 -0.14747237
0.99408859 0.18155284 -0.13865921
0.99538088 0.18178879 -0.128723
0.99644804 0.18198371 -0.11988819
1.0072181 0.18395066 -0.11213293
1.0082517 0.18413943 -0.10208473
0.99929261 0.18250322 -0.092232533
1.0001359 0.18265724 -0.082246572
1.0008039 0.18277925 -0.073371358
1.0013956 0.18288729 -0.064490557
1.0019697 0.1829921 -0.054502707
1.0023994 0.18307063 -0.045612283
0.99292195 0.18133977 -0.036358394
0.98339152 0.1795992 -0.026176998
1.0032504 0.18322608 -0.017801505
0.99353689 0.1814521 -0.0077209626
1.0034026 0.18325385 0.0011036952
1.0033435 0.18324304 0.011126203
1.0032098 0.18321866 0.020026317
1.0029683 0.18317452 0.030028189
1.0026723 0.18312046 0.038924251
1.0022477 0.18304291 0.048937637
1.0017893 0.18295926 0.05782659
0.9913677 0.18105587 0.067147657
1.0005629 0.18273526 0.076691277
0.99977332 0.18259102 0.086681768
0.97940308 0.17887074 0.093673855
0.99802119 0.18227106 0.10550351
0.99707747 0.18209872 0.11435281
0.98615998 0.18010478 0.12308799
1.004572 0.18346737 0.13444193
0.99363816 0.18147053 0.14195652
1.002111 0.18301789 0.15224364
0.99087924 0.18096666 0.16065317
1.0088636 0.18425117 0.17275932
0.99746084 0.18216862 0.18107012
1.0053324 0.18360628 0.19286136
1.0036385 0.18329693 0.2017722
1.0112708 0.18469082 0.2138238
0.9997834 0.18259285 0.22066474
0.9880138 0.18044333 0.22840527
0.98601544 0.1800784 0.23716111
0.99322557 0.18139516 0.24939659
0.99104679 0.18099724 0.25819787
0.99801272 0.1822695 0.27064458
0.99534839 0.18178289 0.28060025
0.99290168 0.18133603 0.28941917
0.99006134 0.18081729 0.29930529
0.98745418 0.18034111 0.30807662
0.98442864 0.17978857 0.31792501
0.98166192 0.17928328 0.32664564
0.98778152 0.18040092 0.3396219
0.97553766 0.17816482 0.34508494
0.98141348 0.17923792 0.35819167
0.98673332 0.18020952 0.37253439
0.98390949 0.1796937 0.38017386
0.97144389 0.17741713 0.38525307
0.96809965 0.17680636 0.39385596
0.97334242 0.17776388 0.40731356
0.96980882 0.17711854 0.41593245
0.96620131 0.17645964 0.42451966
0.97151577 0.17743027 0.43712199
0.95924288 0.17518881 0.44052455
0.97328305 0.17775303 0.45740995
0.97821224 0.17865324 0.47030187
0.95692599 0.17476568 0.46920082
0.97103304 0.17734203 0.48543242
0.96735418 0.17667022 0.49296406
0.9718408 0.17748961 0.50608587
0.97728741 0.17848435 0.51715839
0.97337872 0.17777047 0.52472043
0.97805971 0.1786254 0.53702152
0.98262161 0.1794585 0.54940832
0.97906309 0.17880863 0.55593413
0.97425348 0.17793024 0.56459814
0.96936947 0.17703825 0.57321912
0.88909256 0.16237703 0.55384845
0.87596172 0.15997899 0.55641514
0.85455841 0.15606999 0.55341852
0.84093291 0.15358159 0.5564571
0.83672374 0.15281284 0.56297565
0.81554806 0.14894548 0.55919284
0.79391092 0.14499387 0.55595165
0.78105599 0.1426461 0.55722857
0.77563196 0.1416555 0.56500334
0.75486034 0.13786194 0.56007135
0.77308577 0.14119053 0.58549428
0.75235611 0.13740459 0.58024156
0.69261765 0.12649438 0.57652402
0.68764204 0.12558568 0.58264619
0.65199989 0.11907627 0.56357509
0.65457541 0.11954661 0.5758816
0.63423759 0.11583229 0.56914461
0.61153561 0.11168619 0.57969856
0.59379208 0.10844567 0.58416647
0.97853637 0.2026452 -0.20445424
0.99946678 0.20697968 -0.19956382
1.0013386 0.20736729 -0.18952499
0.9932766 0.20569767 -0.17885767
1.0046064 0.20804404 -0.1705395
0.99618196 0.20629941 -0.16112754
0.99768162 0.20660995 -0.15114133
0.98923677 0.20486112 -0.14086352
0.99054432 0.20513187 -0.13093019
1.0013473 0.20736907 -0.12329482
0.99275053 0.20558873 -0.11215908
0.99367118 0.20577943 -0.10330771
0.99461722 0.20597532 -0.093331702
1.0051354 0.20815358 -0.085292503
0.99614024 0.20629072 -0.074489959
0.99673879 0.2064147 -0.06560982
0.98748446 0.20449817 -0.056168564
1.0075412 0.20865172 -0.047172882
0.99812043 0.2067008 -0.037821386
0.9886173 0.20473278 -0.028641425
1.0084051 0.20883062 -0.020222753
0.98895615 0.20480293 -0.011017221
0.98901439 0.204815 -0.0011106012
0.98897737 0.20480734 0.0088137528
0.9986552 0.20681158 0.017801406
0.98864746 0.20473906 0.027531205
0.99816048 0.20670912 0.036700491
0.99775916 0.206626 0.046714798
0.99732196 0.20653543 0.055604745
1.0065119 0.20843855 0.066235013
0.98637545 0.20426849 0.073741987
0.98561823 0.20411173 0.083636247
0.98486608 0.20395595 0.092416592
0.98393101 0.20376235 0.10227726
0.98289943 0.20354867 0.11214562
0.99162555 0.20535575 0.12209768
0.99040508 0.20510302 0.13202463
0.99893761 0.20687003 0.14222664
0.99752092 0.2065766 0.15224364
0.99618196 0.20629938 0.16112745
0.99458647 0.20596896 0.17109817
0.98344481 0.20366164 0.17820796
0.99130702 0.2052898 0.18991157
0.98943532 0.20490219 0.19983208
0.98768997 0.20454074 0.20864202
0.9856348 0.20411514 0.21854296
1.0028313 0.2076764 0.23173226
0.98149908 0.20325865 0.23716111
0.98894423 0.20480053 0.24828628
0.98650753 0.20429589 0.25819787
0.98426354 0.20383118 0.26697949
0.99138641 0.20530625 0.27839214
0.979249 0.20279272 0.28556338
0.97677147 0.20227964 0.29427928
0.98325717 0.20362271 0.30699024
0.98925221 0.20486428 0.32095286
0.97751665 0.20243396 0.3255482
0.97469759 0.20185016 0.33424714
0.98105943 0.20316763 0.34618652
0.9688369 0.20063649 0.35156798
0.97460175 0.20183027 0.36471352
0.97144806 0.20117721 0.37338498
0.9864887 0.204292 0.38923609
0.96491903 0.19982508 0.39064196
0.96112061 0.19903851 0.40028849
0.96669793 0.20019349 0.41269544
0.96268034 0.1993615 0.42237586
0.96799737 0.20046261 0.43496636
0.95531547 0.19783625 0.4394691
0.96090269 0.19899338 0.45107374
0.94912088 0.19655341 0.45325059
0.963377 0.19950581 0.46925703
0.95984423 0.19877416 0.47674698
0.96450204 0.19973871 0.4897348
0.96901029 0.20067233 0.50284159
0.96521789 0.19988701 0.51039165
0.97003895 0.20088539 0.52256048
0.96609896 0.20006943 0.53011799
0.9712761 0.20114157 0.5413546
0.9586454 0.19852588 0.5440464
0.96306759 0.19944164 0.55643857
0.95888382 0.19857523 0.56392354
0.96308249 0.19944474 0.57644933
0.88264543 0.18278706 0.5577867
0.85241783 0.17652717 0.55056518
0.86414045 0.17895484 0.56897837
0.83409196 0.17273208 0.56111866
0.8292653 0.17173252 0.5685305
0.79953641 0.16557598 0.55984467
0.80274945 0.16624141 0.57267535
0.7812565 0.16179043 0.56908882
0.76844174 0.15913659 0.57015163
0.76354033 0.15812153 0.57697803
0.7507605 0.15547499 0.57774234
0.7296508 0.15110335 0.57304233
0.72472626 0.15008354 0.57952291
0.71146494 0.14733729 0.58052504
0.68573552 0.14200893 0.58111978
0.66578227 0.13787681 0.57430303
0.64787251 0.13416794 0.58022428
0.6062519 0.12554865 0.58240557
0.59417844 0.12304837 0.58087099
0.97261214 0.22543944 -0.20881255
0.97435027 0.22584231 -0.20009205
0.97621858 0.22627537 -0.19025455
0.97779882 0.22664158 -0.18150246
0.98890555 0.22921602 -0.17443003
0.98073566 0.22732235 -0.16395746
0.99172056 0.22986852 -0.15668713
0.99301481 0.23016851 -0.14779745
0.98458076 0.22821359 -0.137548
0.98571253 0.22847585 -0.128723
0.98676926 0.22872084 -0.11988819
0.97806704 0.22670379 -0.10995559
0.9886573 0.22915846 -0.10219187
0.97978753 0.22710258 -0.092416681
0.98062342 0.22729629 -0.082547113
0.98120952 0.22743213 -0.07484962
0.99152935 0.22982419 -0.06671124
0.98233259 0.22769246 -0.057259765
0.98278201 0.22779667 -0.048457958
0.98311347 0.2278735 -0.040762134
0.99315941 0.23020199 -0.032270338
0.98365676 0.22799933 -0.023143355
0.98381603 0.22803628 -0.014330988
0.98390043 0.22805586 -0.0055175284
0.9936474 0.23031515 0.0044505284
0.99357176 0.23029757 0.01335134
0.98365718 0.22799951 0.023125639
0.99315995 0.23020214 0.03225245
0.99280328 0.23011941 0.042268448
0.99240613 0.23002741 0.051160257
0.99193341 0.22991782 0.06004817
0.99131191 0.22977376 0.070032701
0.98096633 0.22737578 0.078136466
0.98017097 0.22719142 0.088027254
0.98908222 0.22925696 0.097762622
0.96872604 0.22453859 0.10560454
0.98702174 0.22877938 0.11767794
0.99565023 0.23077933 0.12775543
0.99438161 0.23048525 0.13777412
0.99317247 0.23020498 0.14667644
0.99155474 0.22983001 0.15778854
0.9901756 0.22951038 0.16666478
0.99832034 0.23139824 0.17723247
0.9871912 0.22881861 0.18437847
0.98537862 0.22839852 0.19432692
0.98347449 0.22795714 0.204239
0.98170066 0.22754596 0.21304107
0.97961402 0.22706233 0.22293276
0.98717356 0.22881456 0.23394905
0.98514712 0.22834487 0.24278313
0.98277986 0.22779615 0.25269052
0.99002314 0.22947504 0.26399881
0.97804397 0.22669844 0.27136272
0.97569984 0.22615509 0.28011361
0.98233187 0.22769232 0.29271182
0.98945785 0.229344 0.30327281
0.97753221 0.22657983 0.30918014
0.98415101 0.22811396 0.32095286
0.98138505 0.22747283 0.32975656
0.97818696 0.22673155 0.3396219
0.97526252 0.22605373 0.34837145
0.97226387 0.22535865 0.35709447
0.96801662 0.22437415 0.36905277
0.97394466 0.22574824 0.38127342
0.96118689 0.22279114 0.38740659
0.96731412 0.22421134 0.39866364
0.95487982 0.22132924 0.40350688
0.96038878 0.22260615 0.41593245
0.95681632 0.22177812 0.42451966
0.96207911 0.22299793 0.43712199
0.97559404 0.22613055 0.45506161
0.96333873 0.22328991 0.45849755
0.95990407 0.22249377 0.4660264
0.95691216 0.2218003 0.47246549
0.96211225 0.22300559 0.484364
0.95848542 0.22216493 0.4918825
0.95479435 0.22130939 0.4993895
0.95970207 0.22244701 0.51145798
0.95642048 0.2216863 0.51789474
0.96111721 0.22277498 0.53011799
0.95715046 0.22185555 0.53762734
0.96162874 0.22289354 0.5499897
0.95751435 0.22193989 0.55750251
0.95393926 0.22111118 0.56392354
0.95811635 0.22207937 0.57644933
0.90719074 0.2102755 0.5664708
0.86094874 0.19955716 0.54821908
0.85625547 0.19846934 0.55591047
0.84330952 0.19546857 0.5581407
0.81410927 0.18870038 0.54919779
0.81690103 0.18934745 0.56295669
0.79600328 0.18450361 0.5589608
0.78263789 0.18140569 0.56122184
0.80164838 0.18581209 0.58560544
0.78147656 0.18113649 0.58015859
0.74811524 0.17340377 0.57606834
0.7151382 0.16576013 0.57096493
0.71789426 0.16639891 0.58355737
0.69773781 0.16172686 0.5774135
0.69218689 0.16044024 0.58441097
0.67972291 0.15755126 0.58416981
0.64699185 0.1499646 0.5773319
0.6049841 0.14022775 0.58037096
0.59234768 0.13729876 0.5795458
0.58739829 0.13615157 0.58482993
0.56853741 0.13177985 0.57602018
0.957111 0.24574436 -0.20892169
0.95884037 0.24618839 -0.20029056
0.9700067 0.2490554 -0.19354165
0.99085683 0.25440878 -0.1872936
0.98267114 0.25230706 -0.17775993
1.0032456 0.25758967 -0.1721793
0.99509454 0.25549686 -0.16158026
0.98684144 0.2533778 -0.15114133
1.0072674 0.25862226 -0.14500657
0.99885035 0.25646117 -0.13463144
0.99995023 0.25674361 -0.12562709
1.0010977 0.25703818 -0.11547676
0.98276561 0.25233132 -0.10440572
0.99335444 0.25505006 -0.09537445
0.99412274 0.25524732 -0.086421102
0.98507607 0.25292456 -0.077809699
0.9856962 0.2530838 -0.068931609
0.98624128 0.25322372 -0.060048264
0.99638498 0.25582817 -0.05166192
0.9871062 0.25344577 -0.042268541
0.99710649 0.25601345 -0.033700701
0.9876703 0.25359067 -0.024475938
0.99754018 0.25612479 -0.014614767
0.98794949 0.25366232 -0.0033468828
0.98794544 0.25366127 0.0044505303
0.97818518 0.25115526 0.013220447
0.97805905 0.25112292 0.020922687
0.98752666 0.25355378 0.030028194
0.99687147 0.25595307 0.040437564
0.98676527 0.25335824 0.050040092
0.97663498 0.25075719 0.058350805
0.9760325 0.25060257 0.068255715
0.97541845 0.25044489 0.077046767
0.97473007 0.25026816 0.085831955
0.98351002 0.2525225 0.096646182
0.97302175 0.24982953 0.10446917
0.98172653 0.2520645 0.11435282
0.98072255 0.25180674 0.12319343
0.98924828 0.25399578 0.13331899
0.98793173 0.25365773 0.14334825
0.98668242 0.253337 0.15224364
0.9851886 0.25295344 0.16222821
0.98377979 0.2525917 0.17109817
0.97256893 0.24971323 0.17931215
0.98985428 0.2541514 0.19286136
0.98818648 0.25372317 0.2017722
0.96725273 0.24834825 0.20771454
0.97515768 0.25037795 0.21743608
0.97304112 0.24983446 0.22731832
0.98051071 0.25175238 0.23836836
0.97845858 0.25122538 0.24719328
0.9854483 0.25302008 0.25956199
0.98321688 0.25244713 0.26843059
0.97127545 0.24938114 0.2757408
0.9875406 0.25355726 0.28995186
0.97544849 0.25045258 0.29710889
0.97290003 0.24979828 0.305886
0.96994185 0.24903877 0.31574106
0.96758115 0.24843262 0.32336959
0.96481103 0.24772136 0.33207479
0.97076213 0.24924932 0.34510222
0.95867801 0.24614666 0.35049719
0.96362942 0.24741796 0.36579034
0.96956229 0.24894127 0.37799093
0.9568907 0.24568778 0.3841843
0.95360702 0.24484459 0.39279085
0.94982946 0.24387473 0.4024289
0.9642483 0.24757683 0.41872531
0.95177722 0.24437481 0.42343947
0.94861412 0.24356267 0.43093893
0.9537667 0.24488562 0.44357634
0.94998115 0.24391368 0.45215249
0.94612324 0.24292314 0.46069422
0.95091724 0.24415398 0.47354531
0.94739127 0.24324867 0.48101944
0.95246083 0.24455032 0.49296409
0.95741671 0.24582276 0.50499934
0.95364964 0.24485555 0.51254088
0.95839262 0.2460734 0.52472043
0.94651854 0.24302462 0.52644253
0.95957667 0.24637735 0.54351723
0.95553344 0.24533924 0.55105752
0.95142537 0.24428448 0.5585829
0.96342295 0.24736497 0.57717133
0.95017296 0.24396294 0.58073527
0.86598426 0.2223469 0.55057532
0.85309476 0.21903747 0.55303884
0.84023017 0.21573442 0.5553124
0.81928116 0.21035561 0.55193204
0.81458479 0.20914981 0.55929244
0.80982643 0.20792803 0.56661022
0.79703599 0.20464402 0.56820279
0.78368348 0.20121568 0.57048434
0.77883166 0.19996995 0.57752329
0.7426511 0.19068035 0.56090134
0.74564904 0.19145009 0.57354546
0.74015445 0.19003928 0.58108217
0.71989769 0.18483824 0.57548416
0.69434839 0.17827833 0.57662559
0.68882698 0.17686063 0.58364177
0.67643422 0.17367876 0.58341444
0.63399863 0.16278312 0.55780596
0.63657665 0.16344507 0.57004905
0.60151249 0.15444212 0.58037096
0.59595984 0.15301643 0.58644515
0.58402759 0.14995275 0.58482993
0.98019886 0.27644464 -0.21068554
0.97270036 0.2743299 -0.19873866
0.95541346 0.26945448 -0.18622407
0.96641582 0.27255744 -0.17931224
0.9680621 0.27302176 -0.16945466
0.97912395 0.27614152 -0.16112754
0.98027825 0.27646706 -0.15336375
0.97215039 0.27417475 -0.14195661
0.98284793 0.27719176 -0.13444202
0.98393965 0.27749968 -0.12552547
0.97551346 0.27512324 -0.11437061
0.98600984 0.27808356 -0.10655583
0.98686719 0.27832532 -0.097611673
0.99733245 0.28127682 -0.088381507
0.98844028 0.27876899 -0.078572541
0.98913449 0.27896482 -0.068495348
0.98967218 0.27911642 -0.059524301
0.99018717 0.27926168 -0.049417518
0.99047732 0.27934349 -0.042682935
0.99079812 0.279434 -0.033700701
0.99104345 0.27950314 -0.024715899
0.99121332 0.27955106 -0.015729213
0.98168325 0.27686331 -0.0066758804
0.9913283 0.27958351 0.001114523
0.98165715 0.27685598 0.010004722
0.98153567 0.2768217 0.018904978
0.97171855 0.27405298 0.02753121
0.99064714 0.27939135 0.038192093
0.99990308 0.28200185 0.047630776
0.98018599 0.27644107 0.05670682
0.98927706 0.27900499 0.066235021
0.97900486 0.27610794 0.075590618
0.9686535 0.27318853 0.084725365
0.97748828 0.27568021 0.09443067
0.97654796 0.27541503 0.10440563
0.98519897 0.27785483 0.11436632
0.98407197 0.27753702 0.1244012
0.98298961 0.27723175 0.13331899
0.9818325 0.27690542 0.14222664
0.98060048 0.27655792 0.15112345
0.98863006 0.27882254 0.1626918
0.97773337 0.27574933 0.16999899
0.98555803 0.27795613 0.18170224
0.97453296 0.2748467 0.18879834
0.97270036 0.2743299 0.19873857
0.98020244 0.27644572 0.21066767
0.97839582 0.27593616 0.21954709
0.97627223 0.27533722 0.22952528
0.9743073 0.27478305 0.23836836
0.96266389 0.27149925 0.2458989
0.96056199 0.27090645 0.25461799
0.97671163 0.27546114 0.26954663
0.96513045 0.27219492 0.2757408
0.9717356 0.27405775 0.28830922
0.97882009 0.27605578 0.2988382
0.97627294 0.27533743 0.30770174
0.96446609 0.27200758 0.3135556
0.96179581 0.27125442 0.32228842
0.96783757 0.2729584 0.33523741
0.96498501 0.27215391 0.34399998
0.96168524 0.27122322 0.35383525
0.95829862 0.27026811 0.36361897
0.96421957 0.27193803 0.37580618
0.9520449 0.26850441 0.38094062
0.94839638 0.2674754 0.39064199
0.96334088 0.27169022 0.40565842
0.9505741 0.26808956 0.41162696
0.9559319 0.26960069 0.42415747
0.95233309 0.26858565 0.4328087
0.9579165 0.27016032 0.44442016
0.9453938 0.26662862 0.44893184
0.95030564 0.26801386 0.46172258
0.94639146 0.26690996 0.47032139
0.95105124 0.26822415 0.4832778
0.94746774 0.26721346 0.49081758
0.95188481 0.26845926 0.50392938
0.94815797 0.26740819 0.51145798
0.94436729 0.26633909 0.51897395
0.9490034 0.26764661 0.53118527
0.95350569 0.26891637 0.54351723
0.9500615 0.26794502 0.5499897
0.94599658 0.26679859 0.55750251
0.94186711 0.26563397 0.56499994
0.94599038 0.26679689 0.57751328
0.8798328 0.24813849 0.55607688
0.85001189 0.23972809 0.54919052
0.84595579 0.23858416 0.55591047
0.81698757 0.23041427 0.54730302
0.82040292 0.23137748 0.56018174
0.81566674 0.23004174 0.567599
0.78701937 0.22196236 0.55806202
