# .PCD v0.7 - Point Cloud Data file format
VERSION 0.7
FIELDS x y z
SIZE 4 4 4
TYPE F F F
COUNT 1 1 1
WIDTH 1472
HEIGHT 1
VIEWPOINT 0 0 0 1 0 0 0
POINTS 1472
DATA ascii
1.6519123 -0.49402657 0.40002924
1.5833097 -0.47351 0.39864552
1.5799165 -0.47249529 0.41305178
1.576403 -0.47144452 0.42742661
1.582021 -0.47312459 0.44436753
1.5782455 -0.4719955 0.45876032
1.5840491 -0.47373119 0.47409612
1.580025 -0.47252771 0.48850629
1.5758805 -0.47128823 0.5028792
1.5807536 -0.47274569 0.52022094
1.5854557 -0.47415182 0.53768945
1.5718143 -0.47007224 0.54893696
1.5768194 -0.47156903 0.56467915
1.5816759 -0.47302142 0.58056158
1.5954149 -0.4771302 0.59991479
1.581986 -0.47311422 0.60916591
1.5685257 -0.4690887 0.61820942
1.5818257 -0.4730663 0.63791472
1.5764322 -0.47145322 0.65229833
1.5982575 -0.47798041 0.67609733
1.5836966 -0.47362575 0.68679237
1.5778942 -0.47189048 0.70119119
1.5807537 -0.47274557 0.71953404
1.6009222 -0.47877735 0.74613655
1.5946231 -0.47689348 0.76069003
1.5898192 -0.47545683 0.77156717
1.610091 -0.48151934 0.797086
1.5955948 -0.477184 0.80552626
1.5896485 -0.47540575 0.81823397
1.5921834 -0.47616392 0.83535618
1.5945456 -0.4768703 0.85259515
1.5958452 -0.47725898 0.87172329
1.5894289 -0.47534013 0.88440216
1.5988038 -0.47814375 0.90840787
1.6004834 -0.4786461 0.92598623
1.5936704 -0.47660857 0.93870044
1.6033641 -0.47950763 0.9613511
1.5973016 -0.47769451 0.97228366
1.5983896 -0.47801989 0.99007463
1.5992931 -0.47829008 1.0079683
1.5918812 -0.4760735 1.0206707
1.5924844 -0.47625387 1.0386417
1.6102117 -0.48155546 1.065562
1.6184829 -0.48402905 1.0891873
1.594434 -0.47683686 1.0911034
1.6023585 -0.4792068 1.1148578
1.6100088 -0.48149478 1.1388304
1.6028333 -0.47934884 1.1498046
1.617947 -0.48386884 1.1797112
1.7224617 -0.47121224 0.3999812
1.6536969 -0.45240036 0.39776918
1.5944412 -0.43618974 0.39685699
1.5723221 -0.43013868 0.40642866
1.5875177 -0.43429568 0.42564589
1.5843402 -0.43342653 0.43818644
1.5903634 -0.43507424 0.45338145
1.587467 -0.4342818 0.46416306
1.5840063 -0.43333516 0.47670206
1.5989296 -0.43741772 0.49496409
1.5854846 -0.43373957 0.50646651
1.5909088 -0.43522343 0.52200603
1.5864542 -0.43400481 0.5363794
1.6001664 -0.43775597 0.55707854
1.5954165 -0.43645653 0.57153434
1.5814562 -0.43263748 0.58259833
1.5855525 -0.43375811 0.60031426
1.5998056 -0.43765733 0.6180436
1.5952017 -0.43639782 0.63070458
1.5815294 -0.43265751 0.63966548
1.5857255 -0.4338055 0.65588653
1.5897856 -0.43491611 0.67218256
1.5855081 -0.43374607 0.6829555
1.5981836 -0.43721363 0.70331591
1.592963 -0.4357855 0.71593273
1.5788174 -0.43191558 0.72448921
1.6086023 -0.44006383 0.75342047
1.6038115 -0.43875319 0.76431936
1.5981288 -0.43719864 0.77700782
1.6002246 -0.43777198 0.79576164
1.5943239 -0.43615776 0.80839187
1.6047138 -0.43900007 0.83172858
1.5976518 -0.43706816 0.84621507
1.5990191 -0.43744212 0.86526418
1.6001868 -0.43776166 0.88440216
1.6096249 -0.44034362 0.90840787
1.6019173 -0.43823504 0.92293584
1.6034603 -0.4386571 0.94052887
1.6048532 -0.43903828 0.95817101
1.5977412 -0.4370926 0.97086203
1.5988365 -0.43739223 0.98858982
1.5997466 -0.4376412 1.00642
1.6097852 -0.44038737 1.0277406
1.6010731 -0.43800408 1.0422654
1.5922391 -0.43558735 1.056711
1.6075178 -0.43976712 1.0874701
1.5983031 -0.43724626 1.1019722
1.6209058 -0.44342971 1.1388304
1.6045374 -0.43895179 1.1459413
1.6118432 -0.44095045 1.1700958
1.6019329 -0.43823922 1.1846339
1.7640409 -0.43819007 0.39465031
1.7133026 -0.42558655 0.39946225
1.653174 -0.41065064 0.40110058
1.5931524 -0.39574113 0.40168905
1.5995419 -0.39732835 0.41664851
1.5964041 -0.39654884 0.42923555
1.5838087 -0.39342019 0.43917024
1.5903401 -0.39504257 0.45250359
1.5962714 -0.39651588 0.46775252
1.5927627 -0.39564434 0.48028368
1.5891528 -0.3947477 0.49281549
1.5854588 -0.39383003 0.50528997
1.5822153 -0.39302436 0.51597124
1.5875711 -0.39435473 0.5315091
1.5927976 -0.39565304 0.54713267
1.5978751 -0.39691427 0.56289786
1.593662 -0.39586779 0.57543886
1.5893462 -0.39479575 0.58797497
1.584306 -0.39354369 0.60224354
1.5888815 -0.39468023 0.61820942
1.5926342 -0.39561245 0.63608682
1.5962048 -0.39649937 0.65407848
1.5906044 -0.39510825 0.66840625
1.584883 -0.39368704 0.68268305
1.5886972 -0.39463446 0.69907427
1.5916077 -0.3953574 0.71734029
1.6031866 -0.39823371 0.73979884
1.5968602 -0.39666218 0.75418609
1.5991988 -0.39724308 0.77276188
1.5925932 -0.39560223 0.78711206
1.5867206 -0.39414352 0.79960501
1.5981128 -0.39697331 0.82100385
1.6006414 -0.39760143 0.83806932
1.6039069 -0.39841259 0.85343421
1.6061172 -0.39896166 0.87069905
1.5996256 -0.39734912 0.88329583
1.5930257 -0.39570969 0.89586997
1.6033142 -0.39826536 0.9180783
1.5974483 -0.39680833 0.9288711
1.5905104 -0.39508498 0.94142669
1.6002522 -0.39750475 0.96399301
1.6013943 -0.39778847 0.9816826
1.5940813 -0.39597189 0.99423909
1.6125401 -0.4005571 1.0206707
1.5966903 -0.39661998 1.0280433
1.6136069 -0.4008221 1.0566525
1.5975696 -0.39683843 1.0639037
1.5988938 -0.39716733 1.0801375
1.5989274 -0.39717567 1.0982181
1.6148349 -0.4011271 1.1276103
1.6052235 -0.39873964 1.1420876
1.6126108 -0.40057462 1.1661588
1.8133039 -0.40532145 0.3970429
1.7527003 -0.39177498 0.40019241
1.6826788 -0.37612334 0.40002924
1.6321976 -0.36483946 0.40152591
1.5917003 -0.35578719 0.40287137
1.5981116 -0.35722026 0.41777119
1.5944929 -0.35641137 0.4320454
1.5907528 -0.35557541 0.44628674
1.5967696 -0.35692033 0.46144864
1.6021481 -0.35812256 0.47850749
1.598012 -0.35719803 0.49281549
1.5942973 -0.35636774 0.50528997
1.5806355 -0.35331395 0.51648861
1.5854484 -0.3543897 0.53372401
1.5912569 -0.35568807 0.54752862
1.6055806 -0.35888979 0.56648844
1.5921142 -0.35587969 0.5756923
1.5877728 -0.35490927 0.58814669
1.5925012 -0.3559663 0.60400969
1.5970747 -0.35698858 0.62000918
1.6008292 -0.35782781 0.63789082
1.5953358 -0.35659984 0.65218097
1.5987532 -0.35736367 0.67020792
1.5929847 -0.3560743 0.68447828
1.6139947 -0.36077061 0.7105388
1.5997219 -0.35758021 0.71911448
1.5943105 -0.35637069 0.73162431
1.5976944 -0.35712707 0.74821967
1.6017303 -0.35802919 0.76313472
1.604808 -0.35871714 0.77994436
1.6077414 -0.35937285 0.79681784
1.6105026 -0.35999006 0.81381106
1.6131179 -0.3605746 0.83086503
1.6077762 -0.3593806 0.84166551
1.6101066 -0.35990149 0.85885233
1.612289 -0.36038929 0.87609565
1.6057057 -0.35891783 0.88869935
1.606622 -0.35912263 0.90785253
1.5998179 -0.3576017 0.92038226
1.6088541 -0.35962152 0.94459569
1.6091731 -0.35969281 0.96399301
1.609284 -0.35971761 0.98346758
1.6008471 -0.35783172 0.99782014
1.6099536 -0.35986727 1.0208549
1.6011984 -0.35791034 1.035212
1.60166 -0.35801345 1.0530962
1.610103 -0.35990071 1.0765407
1.6194683 -0.36199409 1.0983545
1.6112459 -0.36015612 1.1109791
1.627075 -0.36369437 1.1405059
1.6105258 -0.35999519 1.1474798
1.6258274 -0.36341548 1.177376
1.7627155 -0.3506259 0.39432871
1.7019058 -0.33853021 0.39662799
1.6507372 -0.328352 0.4001894
1.5996408 -0.31818828 0.40287137
1.5866311 -0.3156006 0.41460618
1.5929652 -0.31686047 0.42948893
1.5991611 -0.31809297 0.44452262
1.5957894 -0.3174223 0.45694548
1.6017387 -0.31860563 0.47214741
1.5986736 -0.31799594 0.48282596
1.6043978 -0.31913462 0.49815711
1.6000731 -0.31827441 0.51241326
1.5956264 -0.31738982 0.5266304
1.5910583 -0.3164812 0.54080743
1.586369 -0.31554839 0.55494326
1.6006669 -0.31839243 0.57392657
1.6049174 -0.31923798 0.59154636
1.5912478 -0.31651887 0.60053837
1.5860472 -0.31548443 0.61467361
1.5898631 -0.31624356 0.63239652
1.5934956 -0.31696603 0.65023386
1.5878696 -0.31584701 0.66438723
1.5918868 -0.31664595 0.68061119
1.6047804 -0.31921074 0.70084524
1.599479 -0.31815621 0.71333283
1.6120075 -0.32064825 0.73390478
1.6072619 -0.31970435 0.74464625
1.6016319 -0.3185845 0.7571519
1.5959214 -0.31744856 0.76958483
1.5989387 -0.31804866 0.78634578
1.6106123 -0.32037073 0.80758303
1.6053938 -0.31933278 0.8183136
1.6157969 -0.32140201 0.84166551
1.6085317 -0.3199569 0.85601002
1.6107264 -0.32039344 0.87321699
1.612772 -0.3208003 0.89047921
1.6136725 -0.32097954 0.90963346
1.6068053 -0.31961352 0.92218417
1.6178815 -0.32181674 0.94281125
1.6107819 -0.32040453 0.95536518
1.603572 -0.31897032 0.96789205
1.6046865 -0.31919199 0.98549366
1.6056134 -0.31937647 1.0031971
1.6136011 -0.32096523 1.0280433
1.6058639 -0.31942618 1.0405614
1.6062526 -0.31950355 1.0584756
1.5994235 -0.3181451 1.0691717
1.6158618 -0.32141495 1.0982181
1.6156998 -0.3213827 1.1163903
1.6234554 -0.32292545 1.1402682
1.6228929 -0.32281357 1.1586243
1.6208993 -0.32241696 1.1788269
1.8111169 -0.31609055 0.39286354
1.7595944 -0.30709842 0.39801747
1.6789067 -0.29301617 0.39738333
1.6088374 -0.28078714 0.39395556
1.6058235 -0.28026107 0.40642866
1.593626 -0.27813235 0.41460618
1.6095121 -0.28090492 0.4320454
1.5967073 -0.27867004 0.44189233
1.612309 -0.28139302 0.45964929
1.5988357 -0.2790415 0.47112662
1.6041609 -0.27997091 0.4881433
1.5999035 -0.27922788 0.50233507
1.6054626 -0.28019819 0.51776356
1.6009502 -0.27941057 0.53196573
1.5963162 -0.2786018 0.54612738
1.600868 -0.27939627 0.56352377
1.6052415 -0.2801595 0.58104217
1.6094351 -0.28089139 0.59868068
1.6048901 -0.28009823 0.61112398
1.6009156 -0.27940455 0.6217736
1.5771701 -0.2752603 0.628622
1.5899818 -0.27749631 0.65004104
1.5934385 -0.27809957 0.66791773
1.588362 -0.27721354 0.68026334
1.6012986 -0.27947137 0.7004559
1.5869601 -0.27696893 0.70883405
1.6175333 -0.28230482 0.73748881
1.602977 -0.27976429 0.74585259
1.6249182 -0.28359377 0.7691651
1.6012996 -0.27947158 0.77313298
1.6220212 -0.28308809 0.79862881
1.6159737 -0.28203261 0.81116372
1.6186147 -0.28249347 0.82818103
1.6132404 -0.28155559 0.83891714
1.6243564 -0.2834956 0.86063707
1.616896 -0.2821936 0.87499362
1.6093125 -0.28087008 0.88928348
1.6188279 -0.28253073 0.9132207
1.6204774 -0.28281862 0.93068039
1.6209464 -0.28290045 0.94999987
1.6212059 -0.28294575 0.96939814
1.6128109 -0.28148061 0.98372263
1.6210916 -0.28292578 1.0084221
1.614555 -0.28178501 1.0191709
1.6235019 -0.28334653 1.0423322
1.615605 -0.28196824 1.0549001
1.6158763 -0.28201556 1.0728517
1.6147889 -0.28182584 1.0926715
1.621632 -0.28302014 1.1181723
1.6362587 -0.28557289 1.1495677
1.6275538 -0.28405368 1.1622314
1.6348016 -0.28531855 1.1864303
1.7961662 -0.27004156 0.40058061
1.7251759 -0.25936863 0.40074426
1.6639428 -0.25016269 0.40201044
1.6128538 -0.2424818 0.40287137
1.6097682 -0.24201784 0.41529918
1.6065818 -0.24153879 0.42773116
1.6033089 -0.24104676 0.44010985
1.6094586 -0.24197128 0.45518458
1.5959693 -0.2399433 0.46659273
1.6013576 -0.24075332 0.48351985
1.6071179 -0.24161944 0.49879068
1.6027523 -0.24096313 0.51295388
1.6082327 -0.24178705 0.52841896
1.5953935 -0.23985675 0.53589934
1.5913053 -0.23924205 0.54818863
1.5964507 -0.24001566 0.56377089
1.5921521 -0.23936936 0.57606751
1.5877508 -0.23870769 0.58835858
1.6017848 -0.24081759 0.60761178
1.588582 -0.2388327 0.61462677
1.5924222 -0.23941003 0.63227677
1.5875959 -0.2386844 0.64456832
1.5911176 -0.23921387 0.66236031
1.595191 -0.23982631 0.67849004
1.5991011 -0.24041413 0.69474906
1.6209819 -0.24370383 0.71911448
1.6237354 -0.24411772 0.73748881
1.6173093 -0.24315165 0.75178957
1.6188703 -0.24338637 0.7720893
1.6129999 -0.24250369 0.78455275
1.6256543 -0.24440627 0.80399847
1.610679 -0.24215476 0.81207991
1.6221392 -0.24387775 0.83353925
1.6157906 -0.24292332 0.84605461
1.6181091 -0.24327189 0.86315787
1.6212041 -0.24373722 0.87857234
1.6145151 -0.24273151 0.89107919
1.625035 -0.24431312 0.9132207
1.6094772 -0.24197406 0.92083192
1.6196241 -0.24349964 0.94319957
1.6134849 -0.2425766 0.95389885
1.6232239 -0.24404079 0.97656965
1.6327306 -0.24547017 0.99941742
1.6167074 -0.24306113 1.0067663
1.6090671 -0.24191248 1.0192062
1.6024362 -0.24091554 1.029834
1.6112148 -0.24223536 1.0530475
1.6197537 -0.24351907 1.0764277
1.6033467 -0.24105239 1.0833619
1.6114894 -0.24227662 1.1069344
1.6262698 -0.2444988 1.1381859
1.6163858 -0.24301274 1.1524937
1.6317407 -0.24532129 1.1824296
1.6054996 -0.24137612 1.184993
1.8239963 -0.23042437 0.39286354
1.7725337 -0.22392312 0.39608437
1.7114689 -0.21620879 0.39626667
1.6505013 -0.20850679 0.39556295
1.6185573 -0.20447138 0.40107778
1.6154683 -0.20408121 0.41353741
1.6127484 -0.20373747 0.42418572
1.6094917 -0.20332614 0.4365716
1.615694 -0.20410964 0.45163274
1.6122296 -0.20367202 0.46404046
1.6181817 -0.20442399 0.47926873
1.6234647 -0.20509127 0.49638668
1.6107318 -0.20348278 0.50412053
1.606306 -0.20292369 0.51826918
1.6206019 -0.20472971 0.53864163
1.6064823 -0.20294592 0.54966134
1.610419 -0.20344326 0.56882459
1.6147668 -0.20399258 0.58635736
1.5910203 -0.20099267 0.59359574
1.6143048 -0.20393418 0.61646628
1.5904131 -0.20091592 0.6233933
1.6033849 -0.20255463 0.64476985
1.6161065 -0.20416181 0.66642147
1.6293237 -0.20583151 0.68654001
1.6157026 -0.20411079 0.69335663
1.6012986 -0.20229112 0.70179826
1.632213 -0.20619647 0.73031729
1.6167955 -0.20424889 0.74050933
1.6201329 -0.20467041 0.7571519
1.6135161 -0.20383452 0.77137357
1.6246293 -0.20523851 0.79426467
1.6088026 -0.20323907 0.8040821
1.6194789 -0.20458774 0.82724321
1.6308026 -0.20601833 0.84884584
1.6330972 -0.20630825 0.86604291
1.6177518 -0.2043696 0.87384886
1.6284943 -0.20572674 0.89586997
1.6303399 -0.20595992 0.9132207
1.6243751 -0.20520633 0.92395645
1.6259229 -0.20540196 0.94142669
1.618752 -0.20449609 0.95389885
1.6285229 -0.20573038 0.97656965
1.621086 -0.20479083 0.98906076
1.6146289 -0.20397508 0.99973381
1.6238269 -0.20513701 1.0227441
1.6149104 -0.20401067 1.0369881
1.631996 -0.20616901 1.0656843
1.6238661 -0.20514208 1.0782281
1.6239033 -0.20514674 1.0962451
1.6155416 -0.20409043 1.1087255
1.6397365 -0.20714702 1.1438768
1.6403947 -0.20723005 1.1604141
1.6396229 -0.20713265 1.1788269
1.8183382 -0.18630347 0.39476255
1.6954089 -0.17370835 0.39738333
1.6242189 -0.16641435 0.39575109
1.6014273 -0.16407916 0.40510327
1.6074753 -0.16469881 0.42166081
1.6037536 -0.16431746 0.43574589
1.6099839 -0.16495582 0.45071191
1.6065094 -0.16459987 0.46307063
1.6024282 -0.16418174 0.47714567
1.6077384 -0.16472581 0.49410805
1.6128752 -0.16525212 0.51119971
1.5989149 -0.16382167 0.52223861
1.6037543 -0.16431758 0.5394178
1.5990105 -0.16383144 0.55346572
1.5941449 -0.16333297 0.56747156
1.5991447 -0.16384533 0.58308715
1.594022 -0.16332033 0.59709299
1.598069 -0.16373508 0.61462677
1.6019323 -0.16413091 0.63227677
1.5871549 -0.16261683 0.6425693
1.5921402 -0.16312765 0.65679425
1.6054471 -0.16449104 0.67674404
1.6002656 -0.16396014 0.68903327
1.6215527 -0.16614114 0.71509707
1.6160672 -0.16557913 0.72753698
1.6096897 -0.16492568 0.74168581
1.6302099 -0.16702805 0.76851594
1.6234763 -0.16633831 0.78278726
1.6166191 -0.16563569 0.79699892
1.6194229 -0.16592304 0.81384194
1.621155 -0.16610037 0.83256644
1.6138657 -0.1653536 0.84675586
1.6240103 -0.16639304 0.87028933
1.6251307 -0.16650772 0.88928348
1.6193058 -0.16591108 0.89995646
1.6210837 -0.16609311 0.91727895
1.6313397 -0.16714388 0.93962413
1.6241465 -0.16640693 0.9521327
1.62543 -0.16653848 0.9696607
1.6190821 -0.16588801 0.98033398
1.6200615 -0.16598833 0.99797213
1.6124426 -0.1652078 1.0103641
1.6131136 -0.16527647 1.0280799
1.6052663 -0.16447252 1.0404177
1.6151086 -0.16548097 1.0619042
1.6235529 -0.16634609 1.0853596
1.6070294 -0.16465314 1.0921748
1.6220638 -0.1661935 1.1232493
1.6297721 -0.16698326 1.1471528
1.6278504 -0.16678645 1.1672128
1.6257037 -0.16656645 1.1873261
1.8116199 -0.14257756 0.396617
1.6791886 -0.13215509 0.39466473
1.6276886 -0.12810192 0.39575109
1.6149619 -0.12710032 0.40576264
1.6026254 -0.12612936 0.4138633
1.5994246 -0.12587747 0.42614031
1.6153685 -0.12713233 0.44364598
1.6114473 -0.12682369 0.45776924
1.6079117 -0.12654546 0.47011262
1.6138399 -0.12701198 0.48527187
1.6196218 -0.12746701 0.50057733
1.5967593 -0.12566766 0.50691915
1.6212933 -0.12759855 0.52841896
1.6178107 -0.12732455 0.53905171
1.6042283 -0.12625554 0.54818863
1.6088065 -0.12661579 0.56551749
1.6132045 -0.12696198 0.58296806
1.6080714 -0.12655798 0.59706706
1.6121347 -0.12687777 0.61467361
1.6067259 -0.12645207 0.62876207
1.6111466 -0.1268001 0.64476985
1.605476 -0.12635367 0.65884846
1.6180702 -0.12734489 0.68061119
1.6220121 -0.12765513 0.69690794
1.6166537 -0.12723349 0.70932531
1.6294191 -0.12823807 0.72982752
1.6320748 -0.1284471 0.74821967
1.6353602 -0.12870578 0.76493895
1.6286433 -0.12817703 0.77922499
1.6307625 -0.12834387 0.79783535
1.6326811 -0.12849484 0.81654185
1.6255155 -0.12793081 0.8308025
1.6270686 -0.12805313 0.8496173
1.6284176 -0.12815934 0.86852229
1.6217664 -0.12763578 0.8809554
1.6237352 -0.12779081 0.89819449
1.6178399 -0.12732679 0.90883541
1.6282037 -0.12814242 0.93109161
1.6296831 -0.12825888 0.94856852
1.613839 -0.12701195 0.95592433
1.6235975 -0.12777996 0.97857225
1.6171778 -0.12727469 0.98921049
1.6180809 -0.12734574 1.0068254
1.6187919 -0.12740177 1.0245397
1.6193451 -0.12744534 1.0422952
1.6197037 -0.12747347 1.0601467
1.6127516 -0.1269263 1.0707576
1.6281694 -0.12813981 1.1016099
1.6103081 -0.12673403 1.1101561
1.6332537 -0.12853993 1.1471528
1.631328 -0.1283883 1.1672128
1.7746054 -0.097662471 0.39196599
1.7030025 -0.093721889 0.39178908
1.6606774 -0.091392599 0.39736292
1.6091282 -0.088555656 0.39807528
1.6157248 -0.088918768 0.41282716
1.6125267 -0.088742703 0.42518514
1.6092417 -0.088561922 0.43749014
1.6154714 -0.088904709 0.45249116
1.6114671 -0.08868441 0.46659273
1.6169076 -0.088983864 0.48351985
1.6131784 -0.088778645 0.49585661
1.6183159 -0.08906135 0.51295388
1.6137847 -0.088811904 0.52707803
1.6185961 -0.089076675 0.54434532
1.6137913 -0.088812388 0.55847067
1.6094816 -0.088575102 0.5708096
1.6138293 -0.088814415 0.58827454
1.6086421 -0.088528968 0.60235655
1.6133335 -0.088787176 0.61820018
1.6178658 -0.089036502 0.63417858
1.6129892 -0.088768221 0.64651829
1.6165318 -0.088963196 0.66438723
1.6106812 -0.088641211 0.67849004
1.6146293 -0.08885847 0.69474906
1.6275787 -0.089571103 0.71509707
1.6311858 -0.089769587 0.73162431
1.6255667 -0.089460477 0.7440629
1.6288892 -0.089643165 0.76071274
1.6131866 -0.088779077 0.77061474
1.6342086 -0.089935951 0.79603624
1.6280847 -0.089599006 0.80852455
1.6307914 -0.089747958 0.82544786
1.6244432 -0.089398555 0.83790916
1.636626 -0.090069048 0.85781282
1.6300457 -0.08970689 0.87028933
1.6233552 -0.089338653 0.8827436
1.6253238 -0.089447014 0.89995646
1.6358092 -0.090024054 0.92218417
1.6277115 -0.089578509 0.93644559
1.6291525 -0.089657784 0.95389885
1.6304052 -0.089726746 0.97145677
1.6304146 -0.089727163 0.99085683
1.6302096 -0.089715958 1.0103306
1.6213441 -0.089228101 1.0245397
1.6218982 -0.089258499 1.0422952
1.6306194 -0.089738496 1.0656114
1.6390973 -0.090205021 1.0890927
1.6307365 -0.089744873 1.1016099
1.6222998 -0.089280613 1.1140343
1.6559743 -0.091133848 1.1531887
1.6471237 -0.090646759 1.1658331
1.8375862 -0.057748463 0.39286354
1.7335229 -0.054478135 0.40041277
1.6424943 -0.051617529 0.39452255
1.6301749 -0.051230397 0.4028714
1.6270562 -0.051132347 0.41529921
1.6335012 -0.051334884 0.4302772
1.6301737 -0.051230278 0.44272956
1.6267431 -0.051122516 0.45518461
1.6333385 -0.051329762 0.46858341
1.6387727 -0.051500529 0.48566613
1.6254611 -0.051082164 0.49524394
1.6115438 -0.050644785 0.50642014
1.6260839 -0.051101718 0.5266304
1.6220126 -0.050973866 0.53905171
1.6361642 -0.051418517 0.55966282
1.6123624 -0.050670538 0.56729162
1.6255153 -0.05108396 0.58990687
1.6203082 -0.050920285 0.6040765
1.6156452 -0.050773717 0.61645138
1.6015873 -0.050331987 0.62512761
1.6246147 -0.051055532 0.64847541
1.628879 -0.051189583 0.66462994
1.6244962 -0.051051896 0.67528188
1.6284896 -0.051177423 0.691594
1.6223953 -0.050985917 0.70578575
1.6161776 -0.050790414 0.71992373
1.637122 -0.051448628 0.74644774
1.631384 -0.051268388 0.75891852
1.6156764 -0.050774682 0.76883781
1.6358738 -0.051409412 0.79603624
1.6378181 -0.051470511 0.8147406
1.6306493 -0.051245205 0.82900912
1.6312945 -0.05126553 0.8496173
1.6433723 -0.051645152 0.86963201
1.6190963 -0.050882272 0.87266147
1.63867 -0.051497336 0.89944887
1.6317656 -0.051280316 0.91192704
1.6334387 -0.051332887 0.92932373
1.6252707 -0.051076233 0.94354969
1.6266372 -0.051119208 0.96100903
1.6278143 -0.051156104 0.97857225
1.6299115 -0.05122203 0.99441683
1.6296637 -0.051214281 1.0138901
1.6207582 -0.050934438 1.0280799
1.6285182 -0.05117828 1.0530475
1.637149 -0.051449545 1.0764277
1.637187 -0.051450796 1.0944732
1.628796 -0.051187046 1.1069344
1.6519536 -0.051914822 1.1438768
1.6513404 -0.05189557 1.1622314
1.6492647 -0.051830366 1.1824296
1.7976263 -0.014118874 0.39235231
1.7458088 -0.013711834 0.39504829
1.7130947 -0.01345488 0.40339258
1.6318043 -0.012816454 0.3993122
1.6379497 -0.012864675 0.41599897
1.6347294 -0.012839403 0.42847994
1.6314062 -0.012813357 0.44096443
1.6376287 -0.012862114 0.45607755
1.644224 -0.012913971 0.4695321
1.6309927 -0.012810081 0.47926876
1.6368623 -0.012856276 0.49458712
1.6330338 -0.012826176 0.50708598
1.6285465 -0.012790891 0.52131784
1.6435235 -0.012908552 0.5399664
1.6298718 -0.012801263 0.54932112
1.6445377 -0.012916541 0.56826842
1.6401455 -0.012881971 0.58082384
1.635668 -0.012846804 0.59331673
1.6404589 -0.012884416 0.60928524
1.6270851 -0.012779393 0.61646628
1.6402832 -0.012883106 0.63789082
1.6346543 -0.012838821 0.65218097
1.6296327 -0.012799423 0.66462994
1.6344824 -0.012837452 0.67911869
1.638448 -0.012868626 0.69550127
1.6239212 -0.012754544 0.70400053
1.6367803 -0.012855634 0.72448921
1.6403201 -0.012883351 0.74106932
1.6536064 -0.012987779 0.76014274
1.6378613 -0.012864101 0.77028877
1.6400886 -0.012881506 0.78888732
1.6331422 -0.012827029 0.80316997
1.6350057 -0.012841693 0.82188267
1.6464751 -0.012931697 0.84347647
1.6479117 -0.012942963 0.86244965
1.6403229 -0.01288336 0.8767978
1.6501642 -0.012960728 0.90066069
1.6519878 -0.012974975 0.9180783
1.6459439 -0.01292753 0.9288711
1.6387951 -0.012871383 0.94142669
1.6488328 -0.012950301 0.96399301
1.6414157 -0.012891949 0.97656965
1.6424745 -0.012900295 0.99423909
1.6444527 -0.012915793 1.0102022
1.6366824 -0.012854878 1.0227441
1.6372741 -0.012859409 1.0405614
1.6460687 -0.012928552 1.0639037
1.6474329 -0.012939222 1.0801375
1.6391472 -0.012874135 1.0926715
1.6473023 -0.01293827 1.1163903
1.6552097 -0.013000261 1.1402682
1.6628274 -0.013060224 1.16436
1.663325 -0.013064099 1.1810077
1.79746 0.028236723 0.39235231
1.745219 0.027416086 0.39693725
1.6833084 0.026443517 0.39833856
1.6307783 0.02561835 0.4028714
1.6272011 0.025562081 0.41708887
1.6336395 0.025663231 0.43204543
1.6307771 0.025618287 0.44272956
1.6273454 0.025564404 0.45518461
1.6334352 0.025659949 0.47035146
1.6297925 0.025602847 0.48282599
1.626063 0.025544137 0.49524394
1.6407584 0.025775163 0.51540983
1.626686 0.025554029 0.5266304
1.6226132 0.025489952 0.53905171
1.6184551 0.025424685 0.55141324
1.6330724 0.02565434 0.57036471
1.6387229 0.025743091 0.58440077
1.6530027 0.025967382 0.60374463
1.6483396 0.025894128 0.6163649
1.6342527 0.025672873 0.62534702
1.638736 0.025743267 0.64146799
1.64379 0.025822658 0.65588653
1.6387404 0.025743444 0.66840625
1.6335835 0.02566232 0.68091553
1.6467427 0.025869088 0.70119119
1.6321656 0.025640085 0.70977324
1.6640584 0.026141003 0.73663145
1.6393526 0.025752915 0.74287254
1.6328082 0.025650097 0.7571519
1.662276 0.026113044 0.78851521
1.6463362 0.025862643 0.79862881
1.6581236 0.026047895 0.8200289
1.6419814 0.025794275 0.8299585
1.6444788 0.025833435 0.84706664
1.6477592 0.025885051 0.86244965
1.6587808 0.026058203 0.88440216
1.6607593 0.026089255 0.90182996
1.6450833 0.025842968 0.90963346
1.6555088 0.02600676 0.93199468
1.6493742 0.025910379 0.94281125
1.6421363 0.025796652 0.95536518
1.6519943 0.025951505 0.97808039
1.6530524 0.025968133 0.99581295
1.6453925 0.02584785 1.0084221
1.6387581 0.02574354 1.0191709
1.6478392 0.025886292 1.0423322
1.6470851 0.02587449 1.062093
1.637755 0.025727801 1.0764277
1.6698385 0.026231876 1.1185038
1.6434981 0.025818041 1.121761
1.6582755 0.026050199 1.1531887
1.6657434 0.026167559 1.177376
1.8370759 0.072178878 0.39286354
1.7140031 0.067343272 0.39402792
1.6398673 0.064430512 0.40346518
1.6464221 0.064688064 0.41846052
1.6436503 0.064579159 0.42923558
1.6499802 0.064827889 0.44436756
1.6460426 0.064673156 0.45876035
1.6424901 0.064533621 0.47133979
1.6478984 0.064746052 0.48850632
1.6340203 0.064200789 0.49995553
1.6391284 0.064401478 0.51721388
1.6440592 0.064595193 0.5345993
1.6500106 0.064829014 0.54850876
1.6363239 0.064291261 0.55786252
1.6603156 0.065233909 0.58025539
1.6370287 0.064318977 0.58617395
1.6512678 0.064878486 0.60556203
1.6466047 0.064695202 0.61814839
1.6325061 0.064141355 0.6271438
1.6369802 0.06431707 0.64324111
1.6327382 0.064150415 0.6539495
1.646192 0.064678982 0.67399442
1.6317883 0.064113155 0.68268305
1.6449046 0.064628437 0.70300168
1.6486585 0.064775959 0.71953404
1.6514454 0.064885452 0.73798203
1.6540356 0.064987198 0.75653327
1.6572645 0.065114036 0.77339131
1.6504576 0.064846583 0.78783518
1.643525 0.064574189 0.80221909
1.6463108 0.064683683 0.81919277
1.6587541 0.06517262 0.83897978
1.652297 0.064918943 0.85164535
1.6457584 0.064661987 0.86423242
1.6567338 0.065093167 0.88622576
1.6587076 0.065170713 0.90362674
1.6527624 0.064937115 0.91447192
1.6457291 0.064660788 0.92708945
1.6559556 0.065062642 0.94956726
1.6486537 0.064775705 0.96220815
1.649866 0.064823389 0.9798677
1.6519818 0.064906538 0.99581295
1.6528467 0.064940453 1.0136471
1.6535531 0.064968221 1.0315235
1.6456257 0.064656727 1.0441437
1.6460181 0.064672165 1.062093
1.6557618 0.065055005 1.0837991
1.6557552 0.065054707 1.1019722
1.6638646 0.065373354 1.1257801
1.6704422 0.065631792 1.1516142
1.6615968 0.065284178 1.16436
1.8246758 0.11479882 0.39278436
1.7534432 0.11031727 0.39149261
1.7017829 0.10706703 0.39366424
1.6282023 0.10243771 0.40107781
1.634768 0.10285089 0.41599897
1.6412079 0.10325602 0.43101531
1.6373917 0.10301599 0.44534928
1.6334507 0.10276797 0.45964932
1.6298962 0.10254434 0.47214743
1.6257219 0.10228178 0.48638093
1.6309618 0.10261139 0.50352192
1.6360261 0.10292998 0.52079141
1.6415027 0.10327455 0.5363794
1.6367688 0.1029767 0.55071193
1.6413431 0.10326453 0.56826842
1.6457355 0.10354086 0.58594662
1.63991 0.10317435 0.60212135
1.643944 0.10342821 0.61995995
1.6384821 0.10308447 0.63431066
1.6435894 0.1034058 0.64870703
1.6663766 0.10483958 0.67245626
1.6335108 0.10277177 0.67378032
1.6375341 0.10302491 0.69012129
1.6505606 0.10384448 0.7105388
1.6534445 0.10402592 0.72897136
1.6577561 0.10429718 0.74388617
1.6520455 0.10393788 0.75653327
1.6634749 0.10465701 0.77942157
1.6467524 0.10360486 0.79143685
1.659488 0.10440601 0.81098652
1.6622028 0.10457695 0.82809699
1.6558366 0.10417629 0.84080458
1.6582559 0.10432858 0.85802257
1.6516614 0.10391367 0.87069905
1.6449854 0.10349364 0.88329583
1.6547403 0.10410738 0.90724611
1.6477703 0.10366887 0.91989422
1.6483715 0.10370672 0.93921018
1.6573935 0.10427427 0.96362519
1.6500102 0.10380983 0.97626311
1.6510686 0.10387629 0.99402338
1.653061 0.10400176 1.010036
1.6453247 0.10351497 1.0226394
1.645915 0.10355216 1.0405482
1.6463462 0.10357928 1.0584966
1.6382226 0.10306811 1.071076
1.6478359 0.10367297 1.0928351
1.6560297 0.10418849 1.1165619
1.6721746 0.10520421 1.1461519
1.6621286 0.10457216 1.1607294
1.6776772 0.10555045 1.1907387
1.698788 0.14713094 0.39366424
1.6472974 0.14267144 0.3950392
1.6442406 0.14240667 0.40766749
1.6507487 0.14297023 0.42271525
1.6479571 0.14272848 0.43355069
1.6446068 0.14243838 0.44618294
1.6411688 0.14214054 0.45876035
1.6472037 0.14266327 0.47409615
1.6531088 0.14317468 0.48952225
1.6392595 0.14197525 0.50107032
1.6633554 0.14406213 0.52439952
1.6587329 0.14366177 0.53894925
1.6356704 0.14166442 0.54535639
1.6591476 0.14369771 0.56936795
1.6635327 0.14407757 0.58719659
1.6496496 0.14287516 0.59652543
1.6350574 0.14161123 0.607481
1.648339 0.14276154 0.62888575
1.6335273 0.14147873 0.63966548
1.6464028 0.14259394 0.66138077
1.6405901 0.1420904 0.67577678
1.6353955 0.1416405 0.68834537
1.6392754 0.14197655 0.70478261
1.6703708 0.14466967 0.73337024
1.6647496 0.14418288 0.74613655
1.6598487 0.14375843 0.75705707
1.6630729 0.14403768 0.77397746
1.6571434 0.14352418 0.78668672
1.6600771 0.14377828 0.80372363
1.6619616 0.14394148 0.82265687
1.6636426 0.14408703 0.84168398
1.6651187 0.14421493 0.86080283
1.6761733 0.1451723 0.88281804
1.6606145 0.1438247 0.89093971
1.6625466 0.14399207 0.90840787
1.6565876 0.14347601 0.91931039
1.6669014 0.14436924 0.94180512
1.6586499 0.14365464 0.95637
1.6513346 0.14302105 0.9690401
1.6685165 0.14450914 0.99883425
1.6597692 0.1437515 1.013411
1.6508952 0.14298296 1.0279107
1.6587359 0.14366204 1.0530227
1.6853737 0.14596902 1.0854992
1.6770574 0.14524888 1.0983994
1.6757399 0.14513467 1.1185849
1.6659511 0.14428698 1.1332204
1.6642336 0.14413814 1.1534517
1.6704391 0.14467566 1.1794924
1.857836 0.20510688 0.39303437
1.7766869 0.19614801 0.39218566
1.6544266 0.18265042 0.39193258
1.64175 0.1812509 0.40224999
1.6386456 0.18090811 0.41486481
1.6450732 0.18161771 0.42994094
1.6412814 0.1811991 0.44436756
1.6373644 0.18076661 0.45876035
1.6338308 0.18037656 0.47133979
1.6392105 0.18097058 0.48850632
1.6349108 0.18049577 0.5028792
1.6589255 0.18314698 0.52623504
1.6548878 0.1827012 0.53894925
1.6601772 0.18328521 0.55481344
1.6553016 0.18274704 0.56936795
1.6503 0.1821948 0.58387905
1.6451727 0.18162879 0.59834576
1.6312673 0.1800936 0.607481
1.6544884 0.1826572 0.63063794
1.6496595 0.18212409 0.64331508
1.6447232 0.18157907 0.65598363
1.6489141 0.18204178 0.67234123
1.6430196 0.18139096 0.68679237
1.6461452 0.18173607 0.70510846
1.6490773 0.18205984 0.72353142
1.6608906 0.18336405 0.74613655
1.6543555 0.18264247 0.76069003
1.6583844 0.1830873 0.77578336
1.6515923 0.18233742 0.79031372
1.6536129 0.18256046 0.80915773
1.6465313 0.18177868 0.82364488
1.6570469 0.18293959 0.84712952
1.6515005 0.18232727 0.85802257
1.6537291 0.18257326 0.87535518
1.6645668 0.18376988 0.89746636
1.6489742 0.18204838 0.90545148
1.6497405 0.18213296 0.92476141
1.6513276 0.18230826 0.9423272
1.6516936 0.18234861 0.96179861
1.6518472 0.18236554 0.9813478
1.6613822 0.18341821 1.0043241
1.6537203 0.18257236 1.0170432
1.6617056 0.18345398 1.0421032
1.6609923 0.18337512 1.0620162
1.643375 0.18143022 1.0711215
1.6589054 0.18314479 1.1020393
1.6657761 0.18390332 1.1277275
1.6723264 0.1846265 1.1536193
1.6704048 0.18441431 1.1739844
1.6593115 0.22287336 0.39422458
1.6470866 0.22123137 0.40281808
1.6536076 0.22210726 0.41791126
1.650393 0.22167543 0.43065351
1.6566658 0.22251794 0.44591919
1.6436827 0.2207742 0.45603284
1.6406894 0.22037205 0.46687749
1.6466305 0.2211701 0.48227757
1.6518903 0.22187653 0.49962905
1.6569746 0.22255954 0.51710969
1.6524391 0.2219502 0.53167951
1.6571935 0.22258887 0.54933006
1.661768 0.22320327 0.56710452
1.6574227 0.22261974 0.57990533
1.6529909 0.22202429 0.5926432
1.6577657 0.22266574 0.60879582
1.6624029 0.22328855 0.62502718
1.6576188 0.22264595 0.63783127
1.662683 0.22332622 0.65238839
1.657703 0.22265728 0.66516465
1.6709775 0.22444029 0.68546373
1.6474423 0.22127916 0.69062924
1.6596444 0.22291805 0.71294302
1.6352457 0.21964093 0.7195341
1.6651593 0.22365887 0.75021386
1.6757922 0.225087 0.77502
1.6600521 0.22297283 0.78549981
1.663007 0.22336973 0.80256677
1.6657858 0.22374304 0.819754
1.6595407 0.22290422 0.83254921
1.6629502 0.22336215 0.84800112
1.6652877 0.22367609 0.86538166
1.6499217 0.2216121 0.87352532
1.6607366 0.22306478 0.89565372
1.6713276 0.22448725 0.91797
1.6633246 0.22341233 0.93265098
1.6648359 0.22361535 0.9503774
1.6661923 0.2237975 0.96815199
1.6577553 0.22266424 0.98278582
1.6491923 0.22151417 0.99734473
1.657416 0.22261876 1.0222589
1.6485114 0.22142273 1.0368134
1.6573489 0.2226097 1.0602074
1.6659459 0.22376442 1.0837684
1.6659745 0.22376822 1.1020693
1.6658422 0.22375046 1.1204042
1.6573048 0.22260384 1.1332204
1.6813377 0.22583173 1.1686331
1.6711663 0.22446565 1.1833926
1.6531776 0.26183757 0.39603603
1.64011 0.25976792 0.40823993
1.6369796 0.25927213 0.42092204
1.6433153 0.26027551 0.43608609
1.649026 0.26118001 0.45320839
1.6445479 0.26047078 0.46959189
1.6404378 0.25981978 0.4841041
1.6456608 0.26064703 0.50146145
1.6512711 0.26153567 0.51710969
1.6561613 0.26231012 0.53471768
1.6514895 0.26157025 0.54933006
1.6560481 0.26229218 0.56710452
1.6697536 0.26446292 0.58828765
1.6466568 0.2608048 0.5944767
1.6606857 0.2630268 0.61403579
1.6560011 0.26228479 0.62687117
1.6604552 0.26299027 0.64321411
1.6463526 0.26075658 0.65240216
1.6512737 0.26153603 0.66700333
1.6644924 0.2636297 0.68728781
1.6501377 0.26135609 0.69630355
1.6539319 0.26195708 0.71294302
1.6575582 0.2625314 0.72971076
1.6618373 0.2632091 0.74472636
1.6651798 0.26373857 0.76165462
1.6593804 0.26282001 0.77452046
1.6794412 0.26599729 0.80194914
1.6724651 0.26489234 0.81675702
1.6653618 0.2637673 0.83150268
1.6766989 0.26556289 0.8533209
1.6702071 0.26453477 0.86627322
1.662677 0.26334208 0.880997
1.6734235 0.26504415 0.90321928
1.6742496 0.26517498 0.92275119
1.6575994 0.26253796 0.93265098
1.6580887 0.26261532 0.95219457
1.6669153 0.26401341 0.97682679
1.6594912 0.26283753 0.98969972
1.6774026 0.26567435 1.0179085
1.6696681 0.26444936 1.0308615
1.6786402 0.26587039 1.0542674
1.6801481 0.26610929 1.0706953
1.6720148 0.26482099 1.0836679
1.6803581 0.26614249 1.1074587
1.6637111 0.26350588 1.1149126
1.6798471 0.26606154 1.1444759
1.6805708 0.26617628 1.16122
1.6786075 0.26586527 1.1817329
1.636977 0.29896513 0.3937335
1.653079 0.30190578 0.4111965
1.6503961 0.30141577 0.42218596
1.6567018 0.30256739 0.43748376
1.6533635 0.30195776 0.45034504
1.6404541 0.29960009 0.46048898
1.6464053 0.30068693 0.47595873
1.6611333 0.30337682 0.49618414
1.6568105 0.3025873 0.51090097
1.6623207 0.30359361 0.52670741
1.6676801 0.30457243 0.54265839
1.6536157 0.30200389 0.55429989
1.6581097 0.30282453 0.57216221
1.6809967 0.30700448 0.59674001
1.6585867 0.30291173 0.60119396
1.6725085 0.30545428 0.62089652
1.6585763 0.30290976 0.63037324
1.6537983 0.30203721 0.64321411
1.6672343 0.30449101 0.66333628
1.6629277 0.30370447 0.67441446
1.6760371 0.30609867 0.69484043
1.6616826 0.30347708 0.70399749
1.6563523 0.30250362 0.71686029
1.6689558 0.3048054 0.73768574
1.6641704 0.30393142 0.74877381
1.6674689 0.30453378 0.76577169
1.6616616 0.30347323 0.77870703
1.6735747 0.30564892 0.80007905
1.6675091 0.30454117 0.81306082
1.6622385 0.30357856 0.82413769
1.6648153 0.30404919 0.84145349
1.6672137 0.30448723 0.85888648
1.6685126 0.30472445 0.87824154
1.6522139 0.30174774 0.88833386
1.6618359 0.30350512 0.9124614
1.6539395 0.30206287 0.92716861
1.6716347 0.30529463 0.95652092
1.6558741 0.30241621 0.96448201
1.6740661 0.30573863 0.99243468
1.6654828 0.30417114 1.0072472
1.6735927 0.3056522 1.0323586
1.6730317 0.30554974 1.0524278
1.6745511 0.30582726 1.0688539
1.6818819 0.30716616 1.0944507
1.6888996 0.30844772 1.1202581
1.6710271 0.30518365 1.1296599
1.6718735 0.3053382 1.1463454
1.6713372 0.30524027 1.1649293
1.7000378 0.35206088 0.39284134
1.6684524 0.34551987 0.39922735
1.6558986 0.34292009 0.40988508
1.662288 0.34424326 0.4252004
1.6690102 0.34563538 0.43879488
1.6651971 0.34484574 0.45365188
1.6706961 0.34598455 0.47113612
1.6671205 0.34524396 0.48416492
1.6629198 0.34437415 0.49900335
1.667963 0.34541848 0.51670665
1.6547067 0.34267321 0.52670741
1.6594657 0.34365878 0.54449254
1.664046 0.34460732 0.56240237
1.6869843 0.34935763 0.58688432
1.6634225 0.34447822 0.59528166
1.6766977 0.34722736 0.61686158
1.6727083 0.34640118 0.6280551
1.6771226 0.34731534 0.64461756
1.6631215 0.34441593 0.65406787
1.6672876 0.34527871 0.67069721
1.6622299 0.34423122 0.6836639
1.675931 0.34706858 0.70235229
1.6796547 0.34783968 0.71928233
1.6742339 0.34671706 0.73234397
1.6687031 0.34557176 0.7453928
1.6801437 0.34794098 0.76840991
1.674356 0.34674239 0.78147399
1.6764846 0.34718317 0.80060154
1.6607457 0.34392387 0.81119651
1.6801403 0.34794021 0.83914596
1.6729057 0.34644198 0.85408694
1.6839132 0.34872162 0.87620163
1.6860111 0.34915608 0.89389956
1.6879264 0.34955269 0.91171104
1.6714556 0.34614176 0.9219662
1.6720884 0.34627289 0.94165564
1.6725113 0.34636045 0.96142614
1.6981959 0.35167938 0.9962188
1.6822528 0.34837765 1.0043697
1.6831008 0.34855336 1.0225861
1.6921688 0.3504312 1.0460224
1.6770849 0.3473075 1.0520759
1.6940733 0.35082555 1.0810351
1.6859502 0.34914339 1.0941986
1.6859344 0.34914017 1.1127564
1.6857578 0.34910357 1.1313474
1.676026 0.34708822 1.1463274
1.6904312 0.35007143 1.1781309
0.79462636 0.16455913 1.0156226
1.6697559 0.3870286 0.39965412
1.666738 0.38632908 0.41271541
1.6636158 0.38560542 0.42578244
1.669838 0.38704756 0.44128802
1.666503 0.38627461 0.45437858
1.6818702 0.38983652 0.47269428
1.6788204 0.38912961 0.48398373
1.6658087 0.38611367 0.49436617
1.6802114 0.38945207 0.51499164
1.6664597 0.38626465 0.52707857
1.6619154 0.38521132 0.54198647
1.6850197 0.39056656 0.56618583
1.6622939 0.385299 0.57299513
1.6764003 0.38856873 0.59253401
1.6712992 0.38738629 0.60752845
1.6857128 0.39072725 0.62554336
1.662744 0.38540336 0.63178033
1.6755221 0.38836506 0.65375698
1.6706045 0.3872253 0.66688591
1.665601 0.38606551 0.67994606
1.669513 0.38697234 0.69676268
1.6732837 0.38784632 0.71365023
1.6768878 0.38868165 0.73066717
1.6721931 0.38759351 0.74191761
1.6755443 0.38837022 0.75902534
1.6779058 0.38891762 0.77812284
1.671227 0.38736957 0.79312372
1.6740825 0.38803136 0.81048054
1.6846776 0.39048731 0.83413482
1.6784309 0.38903934 0.84730029
1.6729926 0.38777882 0.8585586
1.67523 0.38829744 0.87620163
1.6763585 0.38855898 0.89579225
1.6686795 0.38677907 0.91077477
1.6789964 0.38917047 0.93333656
1.6880491 0.39126873 0.95801824
1.6798404 0.38936603 0.97310311
1.680992 0.38963294 0.9912377
1.690398 0.3918131 1.0144639
1.691166 0.39199108 1.0328119
1.683443 0.39020097 1.0460224
1.6850382 0.39057082 1.0625443
1.7018607 0.39447004 1.0916336
1.6937002 0.39257854 1.104926
1.6854223 0.39065981 1.1181844
1.6945506 0.39277571 1.1404498
1.7022394 0.39455783 1.1647768
1.7096443 0.39627415 1.1893204
0.64264709 0.14895755 0.84244657
1.7309124 0.44442269 0.39411968
1.6905982 0.43407181 0.39693728
1.6871789 0.43319389 0.41215378
1.6836307 0.43228284 0.42733887
1.6705694 0.42892924 0.4400194
1.6761507 0.43036231 0.45761028
1.6820581 0.43187901 0.47345608
1.6779923 0.43083522 0.48859271
1.6929377 0.43467245 0.50736719
1.6793069 0.4311727 0.51972914
1.7026098 0.43715587 0.54370391
1.6794935 0.43122062 0.55294669
1.6943693 0.43504015 0.57048452
1.6809105 0.43158445 0.58066744
1.6857336 0.43282273 0.59713203
1.6721256 0.42932883 0.60710162
1.6767046 0.43050459 0.6236403
1.6818061 0.43181434 0.63840765
1.6763461 0.4304125 0.65353572
1.6707582 0.42897776 0.66861403
1.6650434 0.42751053 0.68364143
1.6771387 0.43061599 0.70616937
1.6711061 0.42906711 0.7212528
1.6664981 0.42788392 0.7325294
1.6787906 0.43104005 0.7536357
1.682027 0.431871 0.77089053
1.67627 0.43039292 0.78414327
1.6880119 0.43340772 0.80571294
1.6741031 0.42983657 0.81284624
1.6767688 0.43052095 0.83036
1.6705859 0.42893356 0.84353942
1.6816276 0.43176848 0.86562371
1.666549 0.42789692 0.87431026
1.686789 0.43309379 0.8993178
1.6886528 0.43357229 0.91726053
1.6732903 0.4296279 0.92580748
1.6833901 0.43222106 0.94856822
1.6932667 0.43475693 0.97151148
1.695507 0.43533212 0.98784709
1.6965419 0.43559784 1.006181
1.6890596 0.43367672 1.019511
1.6897854 0.43386304 1.0379249
1.6975092 0.43584621 1.063485
1.6896034 0.43381637 1.076821
1.6897839 0.43386269 1.0954423
1.7142955 0.44015622 1.130245
1.7233517 0.44248134 1.152679
1.7147666 0.4402771 1.1662467
1.7141489 0.44011849 1.1852802
1.6786397 0.47342536 0.40266234
1.6667037 0.47005907 0.41175565
1.672979 0.47182879 0.4273389
1.6977712 0.47882089 0.44799891
1.6758132 0.47262815 0.45636919
1.6724064 0.47166744 0.4696663
1.6874535 0.47591111 0.48827127
1.6843417 0.47503343 0.49973592
1.6806157 0.47398254 0.51309955
1.6768003 0.4729065 0.52640271
1.6912616 0.47698507 0.54563642
1.6872071 0.47584161 0.55902302
1.6927998 0.47741887 0.57358497
1.6794031 0.47364065 0.58384049
1.6841722 0.47498563 0.60037732
1.6797056 0.473726 0.61373657
1.6842064 0.47499523 0.63041896
1.6878736 0.4760296 0.6491369
1.6830481 0.47466859 0.66252416
1.6781359 0.47328326 0.67584229
1.6723957 0.4716644 0.69103211
1.666528 0.47000948 0.70616937
1.6701674 0.47103584 0.72323239
1.6728809 0.47180116 0.7422756
1.6577649 0.467538 0.75340778
1.6689417 0.47069013 0.77658451
1.6798544 0.47376794 0.80002069
1.682651 0.47455657 0.81754547
1.685274 0.47529632 0.83519149
1.6790941 0.47355336 0.84852219
1.6909678 0.47690219 0.86878747
1.7017155 0.47993326 0.89119488
1.695124 0.47807437 0.90465426
1.6884185 0.47618324 0.91809165
1.6986163 0.47905922 0.94085342
1.6926532 0.47737753 0.95238429
1.6940246 0.47776419 0.97062963
1.7036349 0.48047459 0.99381709
1.7046292 0.48075515 1.0122815
1.7054681 0.48099172 1.0307888
1.6967458 0.47853178 1.0462129
1.7125949 0.48300159 1.0770924
1.6882297 0.47612995 1.0801764
1.7116969 0.48274833 1.116713
1.7196729 0.48499781 1.1410092
1.7205263 0.48523849 1.1581161
1.7119552 0.48282117 1.1717478
1.7033039 0.48038137 1.1852802
0.95335251 0.26887313 0.85727829
0.93980259 0.26505166 0.85820663
0.93255883 0.26300868 0.86669511
0.91903061 0.25919336 0.86735314
0.93386108 0.26337597 0.89495057
0.93332642 0.26322523 0.9102276
0.96044469 0.27087331 0.95319128
1.0766288 0.30364066 1.0873238
0.77568525 0.21876583 1.0200264
1.1005237 0.3385652 0.97689366
0.94853872 0.29180855 0.85511523
0.9269982 0.28518182 0.85055602
0.91095841 0.28024733 0.85440981
0.89673632 0.27587202 0.85595471
0.8895629 0.27366522 0.86410946
0.88323778 0.27171937 0.8711828
0.88375098 0.27187723 0.88513666
0.88412648 0.27199274 0.89913309
0.88529283 0.27235153 0.91218483
0.90563601 0.27860993 0.947523
0.99818701 0.30708233 1.0627432
0.95480728 0.31854773 0.85397327
0.94052219 0.31378186 0.8561886
0.93339884 0.3114053 0.8648082
0.95354611 0.31812698 0.90113539
0.92502689 0.30861223 0.88965368
0.90464574 0.30181259 0.8834734
0.88439405 0.2950561 0.87703419
0.85744435 0.28606501 0.8633979
0.85115832 0.28396779 0.87028253
0.83897108 0.27990183 0.86912745
0.82594347 0.27555549 0.86878443
0.81872028 0.27314565 0.87634951
0.83122581 0.27731785 0.9054051
0.82927614 0.27666733 0.92122537
0.89278245 0.29785466 1.0092682
1.0489134 0.37763199 0.92718649
0.9479062 0.34126714 0.85288358
0.92661184 0.3336007 0.84858763
0.95589906 0.34414476 0.88900024
0.96869248 0.34875065 0.91891664
0.94718158 0.34100628 0.91441882
0.92581934 0.3333154 0.90959293
0.92422658 0.33274195 0.9260605
0.89527327 0.32231814 0.91487527
0.86848468 0.31267363 0.90114897
0.8486138 0.30551967 0.89409864
0.82136852 0.29571077 0.88062978
0.81410676 0.29309639 0.88821435
0.80119532 0.28844795 0.88757181
0.7938773 0.28581336 0.89496899
0.78649884 0.28315693 0.90229803
0.77906042 0.28047892 0.90955836
0.7715627 0.27777958 0.91674936
0.82508653 0.29704934 0.99994689
1.1761916 0.45503411 1.032675
0.95282018 0.36861825 0.85155982
0.93874168 0.3631717 0.85397327
0.9458732 0.36593065 0.87579596
0.97466129 0.37706795 0.91649061
0.96623045 0.3738063 0.92669708
0.93106449 0.3602016 0.90877593
0.9236328 0.35732648 0.91745311
0.92291683 0.35704952 0.93292016
0.90182883 0.3488912 0.92767435
0.88089746 0.34079343 0.92210597
0.86105055 0.33311525 0.91521907
0.81417364 0.31497997 0.88062978
0.80046755 0.30967742 0.8810513
0.79326648 0.30689159 0.8885076
0.77961469 0.30161011 0.88861257
0.74702978 0.28900397 0.86650056
0.75159377 0.29076964 0.88913435
0.72572058 0.28076002 0.87372965
0.69314253 0.26815653 0.85120243
0.69226092 0.26781547 0.86524552
0.67565948 0.26139289 0.86721283
1.0535771 0.43640587 0.92759103
0.95441753 0.3953326 0.85346311
0.94128466 0.38989282 0.85490745
0.94929689 0.39321154 0.87562555
0.9840768 0.40761787 0.92387253
0.95581234 0.39591038 0.91327858
0.95621353 0.39607653 0.9278357
0.95552176 0.39579001 0.9435721
0.92079586 0.38140604 0.92534554
0.90658492 0.37551969 0.92714
0.90573543 0.37516782 0.94259876
0.86508304 0.35832903 0.91615045
0.85111672 0.35254398 0.91723108
0.83719951 0.34677932 0.91811824
0.81046861 0.33570701 0.90445644
0.7776491 0.32211274 0.8831225
0.78313065 0.32438326 0.90503144
0.76954776 0.31875703 0.90503603
0.73123717 0.30288827 0.8751862
0.72415334 0.29995403 0.88205981
0.7039876 0.29160112 0.8746258
0.67287797 0.27871507 0.8508544
0.63969797 0.26497149 0.82884055
0.95161444 0.42070428 0.84441566
0.93778759 0.41459149 0.847094
0.95899063 0.42396525 0.8817541
0.99360639 0.43926868 0.92988676
0.96545833 0.4268246 0.9196254
0.96492523 0.42658886 0.93543637
0.95063215 0.42027 0.93790805
0.94311017 0.41694456 0.94694263
0.90210515 0.39881644 0.92176557
0.89377767 0.39513487 0.93141282
0.8731792 0.38602841 0.92598063
0.86017793 0.38028058 0.92621845
0.82599998 0.36517072 0.90706915
0.82512528 0.36478397 0.92206347
0.81773442 0.36151654 0.92990112
0.77170867 0.34116873 0.89496905
0.77075195 0.34074581 0.90963387
0.70804989 0.31302547 0.85040015
0.71952868 0.31810021 0.87948322
0.68832994 0.3043074 0.85627037
0.66951394 0.29598892 0.84766841
0.65088856 0.28775471 0.83877373
0.59732056 0.2640726 0.78350103
0.53457469 0.23633294 0.72337866
0.96054476 0.45199794 0.85008913
0.94143862 0.44300729 0.84441566
0.94255227 0.44353133 0.85870552
0.97039288 0.45663211 0.89990258
0.96325022 0.45327106 0.90922719
0.93466729 0.43982095 0.89991915
0.9478367 0.44601801 0.92880207
0.93861312 0.44167775 0.94017345
0.91120046 0.42877832 0.92885023
0.89063698 0.41910189 0.92391527
0.88891572 0.4182919 0.94045776
0.86201215 0.40563202 0.92806131
0.84731495 0.39871609 0.93031329
0.80175799 0.37727863 0.89579296
0.79465431 0.37393588 0.90349132
0.78124011 0.36762357 0.90388978
0.75549549 0.3555091 0.88951659
0.73617357 0.34641689 0.88206792
0.68415564 0.32193914 0.83975363
0.64672875 0.30432737 0.80964607
0.65134168 0.30649805 0.83175302
0.63807452 0.300255 0.83114851
0.59593922 0.28042763 0.79190707
0.96610755 0.48273653 0.85907012
0.93850887 0.46894622 0.84958255
0.96635371 0.48285952 0.89050943
0.97992319 0.48963979 0.91918623
0.96501499 0.48219055 0.92338407
0.94428045 0.4718301 0.91962546
0.9370656 0.468225 0.92880213
0.90409571 0.45175093 0.91001761
0.92242247 0.46090826 0.94694269
0.88793862 0.44367766 0.92968553
0.91302413 0.45621222 0.97280902
0.85402542 0.42673224 0.92598069
0.83949971 0.41947412 0.92826807
0.81330734 0.40638655 0.91513997
0.79898208 0.39922863 0.91686648
0.77764446 0.38856682 0.91207731
0.7625975 0.38104826 0.91419214
0.74850321 0.37400579 0.9151299
0.69096667 0.34525639 0.86542654
0.62131184 0.31045184 0.80074424
0.93956566 0.49747431 0.92619419
0.92398119 0.48922276 0.93108529
0.91021699 0.48193499 0.93345797
0.87699819 0.46434653 0.91529042
0.86990583 0.46059132 0.92391527
0.85635662 0.45341742 0.92556262
0.84194726 0.44578806 0.92806131
0.8347578 0.44198143 0.93633956
0.80174083 0.42449981 0.91712135
0.75767738 0.40116945 0.88197964
0.74217987 0.39296389 0.88495672
0.73961765 0.39160731 0.901393
0.62880647 0.33293581 0.82574582
0.88148481 0.49365515 0.94004744
0.848952 0.47543588 0.9213258
0.82933909 0.46445209 0.91590446
0.82144684 0.46003219 0.92520022
0.82054067 0.45952475 0.94045204
0.73750257 0.41302121 0.86579645
0.673011 0.37690419 0.85293573
0.81451744 0.48170418 0.90588212
0.79535109 0.47036925 0.9001497
0.79381949 0.46946344 0.91621763
0.79724932 0.47149181 0.94047272
0.75167751 0.44454074 0.90827554
0.63720965 0.37684464 0.84044749
0.78423291 0.48909193 0.91420341
0.77743375 0.4848516 0.92223412
0.75194466 0.46895516 0.90970349
0.75518835 0.47097814 0.93379343
0.70517308 0.43978575 0.89315134
0.57164055 0.35650733 0.79229385
0.71423769 0.46916637 0.89852512
0.73619145 0.48358732 0.94247836
0.69935524 0.4593904 0.9151299
0.54191905 0.3559742 0.77440697
0.72232682 0.49923068 0.93134993
0.71476358 0.49400339 0.93993282
0.68586409 0.47402978 0.91787046
0.65572917 0.45320225 0.89700997
0.56993186 0.39390406 0.8022576
