# .PCD v0.7 - Point Cloud Data file format
VERSION 0.7
FIELDS x y z
SIZE 4 4 4
TYPE F F F
COUNT 1 1 1
WIDTH 1407
HEIGHT 1
VIEWPOINT 0 0 0 1 0 0 0
POINTS 1407
DATA ascii
1.0856345 -0.29699597 -0.52037603
1.0811832 -0.29577819 -0.50641704
1.0854046 -0.29693305 -0.49661613
1.0806854 -0.29564202 -0.48281983
1.0669261 -0.29187796 -0.46526977
1.079245 -0.295248 -0.46060708
1.0651788 -0.2913999 -0.44337374
1.0688703 -0.29240981 -0.43371999
1.0634679 -0.29093182 -0.42046988
1.0669665 -0.29188895 -0.41083249
1.079455 -0.29530546 -0.40456349
1.0642083 -0.29113436 -0.38936046
1.0670481 -0.2919113 -0.38091484
1.0698195 -0.29266945 -0.37246633
1.0629842 -0.29079953 -0.3620778
1.0656229 -0.29152143 -0.35364267
1.0681934 -0.29222468 -0.34520623
1.0522472 -0.28786224 -0.33092463
1.0635622 -0.29095766 -0.32661775
1.0566651 -0.28907081 -0.31543142
1.0589601 -0.28969872 -0.30704775
1.0615042 -0.29039466 -0.29745546
1.0636616 -0.2909849 -0.2890532
1.0748098 -0.29403469 -0.28430179
1.0675106 -0.29203781 -0.27337718
1.060387 -0.29008907 -0.26139557
1.0531439 -0.28810751 -0.24956384
1.04553 -0.28602466 -0.23907526
1.0475025 -0.28656426 -0.22960705
1.0491649 -0.28701898 -0.2212985
1.068455 -0.26540557 -0.98912263
1.0684934 -0.2654151 -0.97405154
1.0693778 -0.2656348 -0.95784622
1.0616909 -0.26372531 -0.9364087
1.0621535 -0.26384023 -0.92039031
1.0614758 -0.26367188 -0.90561944
1.0681483 -0.2653293 -0.89725119
1.0681312 -0.26532507 -0.88136172
1.0679268 -0.26527432 -0.8655414
1.0598564 -0.26326966 -0.84367865
1.0660846 -0.26481673 -0.83530575
1.0722365 -0.2663449 -0.82690334
1.070526 -0.26591995 -0.81250268
1.0686513 -0.26545432 -0.79819691
1.0666409 -0.26495495 -0.78394908
1.0732397 -0.26659402 -0.77432823
1.0717585 -0.26622614 -0.75898445
1.0620539 -0.26381552 -0.73813468
1.0682648 -0.26535836 -0.72855687
1.0736266 -0.26669022 -0.7201404
1.0707643 -0.2659792 -0.70627129
1.0677475 -0.26522979 -0.69250882
1.0728539 -0.26649827 -0.68407816
1.0778865 -0.26774836 -0.67562693
1.0578781 -0.26277825 -0.65172189
1.0549846 -0.26205948 -0.63712835
1.0603402 -0.26338986 -0.62761796
1.0656153 -0.26470014 -0.61805975
1.0538121 -0.26176828 -0.59879649
1.0582138 -0.26286167 -0.59049737
1.0711329 -0.26607078 -0.5868395
1.0582385 -0.26286778 -0.56915015
1.0710677 -0.26605457 -0.56535733
1.0671391 -0.26507866 -0.55122358
1.0804803 -0.26839271 -0.54601043
1.0675625 -0.26518387 -0.52762467
1.0632036 -0.26410109 -0.51375943
1.0669755 -0.26503807 -0.50538898
1.0717435 -0.26622242 -0.49456185
1.0575984 -0.26270875 -0.47808972
1.0789483 -0.26801214 -0.47764015
1.0551337 -0.26209652 -0.45869201
1.0674685 -0.26516053 -0.45420343
1.0618088 -0.26375464 -0.44203588
1.0831015 -0.26904377 -0.44102895
1.0587327 -0.26299056 -0.42287236
1.0618391 -0.26376215 -0.41452059
1.0466735 -0.25999501 -0.39922079
1.0500147 -0.26082495 -0.3897942
1.0437205 -0.25926149 -0.37819457
1.0464895 -0.2599493 -0.36998117
1.0400003 -0.25833738 -0.35855436
1.0422555 -0.25889754 -0.35153309
1.0448272 -0.25953642 -0.34333196
1.0476952 -0.26024884 -0.33392408
1.041187 -0.25863215 -0.32161918
1.05286 -0.26153174 -0.31620687
1.0461572 -0.25986677 -0.3040134
1.0393289 -0.2581706 -0.29196474
1.041762 -0.258775 -0.28260824
1.0441158 -0.25935966 -0.27323025
1.0461079 -0.25985453 -0.26501679
1.0388683 -0.25805616 -0.25329769
1.0409739 -0.25857919 -0.24394679
1.0335186 -0.25672734 -0.23244482
1.0449474 -0.25956625 -0.22519003
1.0370729 -0.25761026 -0.21498033
1.0584821 -0.23659873 -1.0069939
1.0670177 -0.23850667 -0.99749064
1.0598923 -0.23691398 -0.97575611
1.0598317 -0.23690039 -0.96079916
1.0595942 -0.23684734 -0.94591945
1.0656134 -0.23819277 -0.93879306
1.0586572 -0.23663786 -0.91632283
1.0589106 -0.23669451 -0.90043545
1.0665388 -0.2383996 -0.8909325
1.0588504 -0.23668107 -0.86886013
1.0576375 -0.2364099 -0.85434973
1.0716758 -0.23954782 -0.85219002
1.0788925 -0.241161 -0.84257478
1.0695333 -0.239069 -0.82209766
1.0677701 -0.23867486 -0.80777556
1.0737652 -0.2400149 -0.79938799
1.072587 -0.23975159 -0.78394908
1.0712284 -0.23944788 -0.76859248
1.0696905 -0.23910411 -0.75332034
1.0590972 -0.23673625 -0.73373646
1.0645401 -0.23795281 -0.72541898
1.0706775 -0.23932476 -0.71587241
1.0520754 -0.23516665 -0.69009709
1.0661774 -0.23831885 -0.68598098
1.0546439 -0.2357408 -0.66712272
1.0595899 -0.23684634 -0.65884209
1.0560815 -0.23606212 -0.6454196
1.0524461 -0.23524953 -0.63207179
1.0564609 -0.23614691 -0.62500006
1.0525936 -0.23528253 -0.61179161
1.057127 -0.2362958 -0.60352862
1.0444661 -0.23346579 -0.5856486
1.0488048 -0.23443556 -0.57745004
1.0536826 -0.23552591 -0.56804979
1.0671562 -0.23853761 -0.56318498
1.0626073 -0.23752087 -0.5503177
1.0585055 -0.23660401 -0.53636229
1.0542477 -0.23565221 -0.52252251
1.0581151 -0.23651671 -0.51424921
1.0530628 -0.23538738 -0.50174844
1.0489342 -0.23446453 -0.48699439
1.0520222 -0.23515478 -0.47994933
1.0560696 -0.23605952 -0.47052398
1.0510533 -0.23493817 -0.4571555
1.0549065 -0.23579952 -0.44773969
1.0405824 -0.23259771 -0.43079767
1.0623719 -0.23746821 -0.42880651
1.0477612 -0.2342023 -0.41212323
1.0420901 -0.23293468 -0.3992365
1.0550358 -0.2358284 -0.39215365
1.0491323 -0.23450881 -0.37937686
1.0427046 -0.23307201 -0.36789212
1.0454125 -0.23367734 -0.35973242
1.047688 -0.23418598 -0.3527137
1.040994 -0.23268972 -0.3414481
1.0621394 -0.23741625 -0.33925438
1.0463041 -0.23387666 -0.32395896
1.039657 -0.2323909 -0.31178185
1.0419526 -0.23290397 -0.30362898
1.0535893 -0.23550509 -0.29813901
1.0557828 -0.2359954 -0.28987741
1.0387257 -0.2321827 -0.27774084
1.0407629 -0.23263802 -0.26961488
1.0427439 -0.23308085 -0.26145458
1.0446596 -0.23350911 -0.25329769
1.0367438 -0.23173971 -0.24404731
1.0483129 -0.23432569 -0.23692141
1.0311943 -0.23049922 -0.22340144
1.042623 -0.23305385 -0.21615519
1.0490451 -0.20866796 -1.0083958
1.0637625 -0.21159542 -1.0069939
1.0567878 -0.21020815 -0.98519635
1.0505884 -0.20897496 -0.96238959
1.0577732 -0.21040413 -0.95417291
1.0574851 -0.21034679 -0.93935061
1.0486183 -0.20858309 -0.91923493
1.0629654 -0.21143693 -0.91749609
1.0697978 -0.21279591 -0.90920335
1.0614202 -0.21112952 -0.88815063
1.068033 -0.2124449 -0.87987077
1.0592474 -0.21069735 -0.85907024
1.0579207 -0.21043348 -0.84464282
1.0633199 -0.21150745 -0.83756506
1.0539545 -0.20964451 -0.81714696
1.0609082 -0.2110277 -0.80773824
1.0598717 -0.21082149 -0.792355
1.065768 -0.21199436 -0.78408992
1.0484285 -0.2085454 -0.75723612
1.0548697 -0.20982654 -0.74787891
1.0531294 -0.20948045 -0.73282754
1.049674 -0.20879309 -0.72020119
1.0468645 -0.20823427 -0.70647943
1.0438992 -0.20764442 -0.69286239
1.0490634 -0.20867161 -0.68470573
1.0458544 -0.20803337 -0.67120087
1.0508564 -0.20902826 -0.66302961
1.0474062 -0.208342 -0.64964128
1.0522463 -0.20930474 -0.64145857
1.03944 -0.20675741 -0.62427223
1.0440797 -0.2076803 -0.61617094
1.0316174 -0.20520142 -0.59812874
1.0617491 -0.21119498 -0.60471934
1.0490544 -0.20866984 -0.58680636
1.0534134 -0.20953694 -0.5786314
1.0490512 -0.20866925 -0.56572849
1.0526602 -0.20938712 -0.55871588
1.0568092 -0.21021238 -0.55051368
1.0609057 -0.21102729 -0.54226059
1.0478948 -0.20843923 -0.52399391
1.070026 -0.21284139 -0.52329987
1.0472836 -0.20831764 -0.50219601
1.0515419 -0.20916468 -0.49285871
1.0567522 -0.21020108 -0.48113436
1.0428498 -0.2074357 -0.46371841
1.0458041 -0.20802331 -0.45674938
1.0491982 -0.20869851 -0.44858479
1.0434498 -0.20755506 -0.43661606
1.0557945 -0.21001053 -0.43219626
1.0402954 -0.2069276 -0.41781148
1.0342381 -0.20572272 -0.40611559
1.0647904 -0.21179995 -0.40861014
1.0402 -0.20690861 -0.38996494
1.0242265 -0.2037313 -0.37623614
1.0366635 -0.20620519 -0.37041605
1.0397944 -0.20682798 -0.36117822
1.0428461 -0.20743497 -0.35191289
1.0361198 -0.20609702 -0.34070501
1.0292811 -0.20473669 -0.32964104
1.0411019 -0.20708804 -0.32453269
1.0340984 -0.20569496 -0.31357649
1.0364192 -0.20615654 -0.30550733
1.0383581 -0.20654224 -0.29858458
1.0311018 -0.20509885 -0.28786024
1.0427091 -0.2074077 -0.28238231
1.035293 -0.20593257 -0.27177221
1.0275015 -0.20438273 -0.26242784
1.0392429 -0.20671822 -0.25562078
1.031837 -0.20524515 -0.24410415
1.043715 -0.20760779 -0.23591925
1.0262668 -0.20413713 -0.22361627
1.0279136 -0.20446472 -0.21561077
1.0525945 -0.18370712 -1.0095526
1.0529372 -0.1837669 -0.99456161
1.0531331 -0.18380114 -0.97960585
1.068835 -0.1865415 -0.97693074
1.0550587 -0.1841372 -0.94754672
1.0557294 -0.1842542 -0.93160391
1.0477307 -0.18285823 -0.91039735
1.0555172 -0.18421718 -0.90108138
1.0632231 -0.18556207 -0.89169687
1.0479014 -0.18288803 -0.86333919
1.0552833 -0.18417636 -0.85402352
1.0548289 -0.18409707 -0.83847755
1.0541878 -0.18398516 -0.82300514
1.0594716 -0.1849073 -0.81598365
1.0655855 -0.18597443 -0.80773824
1.0636854 -0.18564279 -0.79354274
1.0616479 -0.18528719 -0.77940512
1.0594471 -0.18490304 -0.76536465
1.0498348 -0.18322547 -0.74449664
1.056195 -0.18433546 -0.7351684
1.0543019 -0.18400501 -0.72020119
1.0596946 -0.18494628 -0.71199876
1.0575132 -0.18456553 -0.69713801
1.0468493 -0.1827044 -0.67699754
1.044275 -0.18225507 -0.66239911
1.0583291 -0.18470795 -0.65834826
1.0386163 -0.18126754 -0.63349688
1.0348634 -0.18061252 -0.62035233
1.0309842 -0.17993547 -0.60728478
1.0361655 -0.18083981 -0.59812874
1.0320292 -0.18011788 -0.58521223
1.0450428 -0.18238911 -0.58199644
1.0320399 -0.18011978 -0.56440276
1.0449681 -0.18237609 -0.56105304
1.0398252 -0.18147853 -0.54948092
1.0351509 -0.18066272 -0.53686458
1.0391636 -0.18136305 -0.5288161
1.0525147 -0.18369323 -0.52399391
1.048097 -0.18292218 -0.51032555
1.0346061 -0.18056768 -0.49252972
1.0567112 -0.18442556 -0.49167952
1.0524162 -0.18367597 -0.47705692
1.0554695 -0.18420887 -0.4700546
1.0408763 -0.18166196 -0.45395553
1.0351763 -0.18066716 -0.44200629
1.0384746 -0.18124279 -0.43396038
1.0412502 -0.18172723 -0.4270516
1.0448818 -0.18236101 -0.41781148
1.0484338 -0.18298095 -0.40853956
1.0334514 -0.18036616 -0.39223236
1.0367839 -0.18094775 -0.38306266
1.0303495 -0.17982471 -0.37167597
1.0331182 -0.18030801 -0.36366957
1.0358207 -0.18077968 -0.35566029
1.0291132 -0.17960902 -0.34448028
1.0320354 -0.18011902 -0.33535081
1.0439298 -0.18219487 -0.33032665
1.0372998 -0.1810378 -0.31817397
1.0399954 -0.18150823 -0.30897301
1.0331336 -0.18031071 -0.29702353
1.0451491 -0.18240772 -0.29050118
1.0476065 -0.18283658 -0.28123173
1.040439 -0.18158568 -0.26946867
1.0522821 -0.18365259 -0.26262927
1.035327 -0.18069343 -0.24869226
1.0371697 -0.18101506 -0.24065083
1.0389476 -0.18132533 -0.23261376
1.0312696 -0.17998536 -0.22133291
1.0427885 -0.18199565 -0.21417211
1.0483516 -0.15761256 -1.0038512
1.0497348 -0.15782052 -0.98774958
1.0436226 -0.1569016 -0.96495265
1.0445541 -0.15704164 -0.94902307
1.0452905 -0.15715232 -0.93315107
1.0523142 -0.15820828 -0.92504328
1.0452176 -0.15714136 -0.90273285
1.0453928 -0.1571677 -0.88704693
1.0530078 -0.15831256 -0.87778801
1.0528575 -0.15829 -0.86216897
1.0447793 -0.15707545 -0.84039479
1.0519918 -0.15815984 -0.83114302
1.0582299 -0.15909775 -0.82300514
1.0556558 -0.15871067 -0.80993932
1.0459008 -0.1572441 -0.78978854
1.0518271 -0.1581351 -0.78169882
1.0577056 -0.15901892 -0.77354497
1.0554523 -0.1586801 -0.75956643
1.0449624 -0.15710302 -0.73991364
1.0513077 -0.15805699 -0.73066413
1.0493747 -0.15776639 -0.71576697
1.0555116 -0.15868898 -0.70647943
1.0532745 -0.15835272 -0.69169164
1.0425229 -0.15673627 -0.67162454
1.0482792 -0.15760167 -0.66239911
1.0448186 -0.15708141 -0.64906043
1.0496947 -0.15781446 -0.64096463
1.0453222 -0.15715708 -0.62889057
1.0329611 -0.15529872 -0.61071551
1.0375477 -0.15598829 -0.60271245
1.0334513 -0.15537241 -0.58977783
1.0292306 -0.15473786 -0.57692349
1.0335519 -0.15538755 -0.56896853
1.0291016 -0.15471846 -0.55624819
1.0326798 -0.15525642 -0.54942518
1.0280071 -0.15455395 -0.53685594
1.0408564 -0.15648577 -0.53341383
1.0365603 -0.15583983 -0.51976591
1.0410062 -0.15650827 -0.5105989
1.0453728 -0.15716469 -0.50139296
1.0311904 -0.15503255 -0.48488295
1.0273476 -0.1544548 -0.46936217
1.0303633 -0.15490818 -0.46255261
1.0338298 -0.1554293 -0.45457399
1.0281298 -0.15457243 -0.44266969
1.0405741 -0.15644327 -0.4385559
1.0346948 -0.15555936 -0.426741
1.0282538 -0.15459096 -0.41616797
1.0313698 -0.15505946 -0.40820703
1.0256133 -0.15419403 -0.39552674
1.0289875 -0.15470132 -0.38646105
1.0225763 -0.15373746 -0.37510347
1.0347036 -0.1555607 -0.37052569
1.0374682 -0.15597633 -0.36253449
1.0397923 -0.15632577 -0.35566026
1.0236676 -0.1539015 -0.34134862
1.0265744 -0.15433849 -0.33230215
1.0290507 -0.15471084 -0.32437479
1.0412771 -0.15654899 -0.31817394
1.043983 -0.15695579 -0.30897298
1.0275803 -0.1544898 -0.2942985
1.0491564 -0.1577336 -0.29050118
1.0420631 -0.15666719 -0.27867505
1.0540103 -0.15846337 -0.27194086
1.037111 -0.15592261 -0.25785416
1.0392967 -0.15625127 -0.24869226
1.0411463 -0.15652935 -0.24065083
1.0434306 -0.15687276 -0.2303123
1.0356989 -0.15571035 -0.21904849
1.0320016 -0.13037208 -0.99577886
1.0322877 -0.13040823 -0.98095644
1.0334634 -0.13055673 -0.96504307
1.0197698 -0.12882677 -0.93572068
1.0268368 -0.12971959 -0.92783582
1.0263901 -0.12966311 -0.91329676
1.0407743 -0.13148034 -0.9119221
1.0325704 -0.13044396 -0.89088881
1.0326511 -0.13045409 -0.87533623
1.031618 -0.13032359 -0.86097622
1.0313363 -0.130288 -0.8455593
1.0308667 -0.13022871 -0.83021337
1.0371189 -0.1310185 -0.82226431
1.0363472 -0.13092102 -0.806997
1.0353909 -0.13080023 -0.79180634
1.0342509 -0.13065623 -0.77669442
1.0409359 -0.13150071 -0.76756769
1.0386751 -0.13121508 -0.75368214
1.0289567 -0.12998743 -0.73297447
1.0352633 -0.13078408 -0.72389597
1.0332905 -0.13053487 -0.70913428
1.0311415 -0.1302634 -0.69446284
1.0288178 -0.12996988 -0.67988366
1.0255942 -0.12956263 -0.66653574
1.0306195 -0.13019748 -0.6586138
1.0362823 -0.13091286 -0.6495235
1.0418663 -0.13161828 -0.64038378
1.0388557 -0.13123797 -0.62606359
1.0179014 -0.12859081 -0.60286081
1.0224439 -0.12916467 -0.59500009
1.0269164 -0.12972969 -0.58712256
1.0226725 -0.12919354 -0.57432562
1.0263799 -0.12966189 -0.56756681
1.0219104 -0.12909725 -0.55491698
1.0260892 -0.12962514 -0.54702669
1.0301987 -0.13014436 -0.53912258
1.0165777 -0.12842363 -0.52208912
1.0204988 -0.12891895 -0.51425886
1.0159999 -0.12835059 -0.50086951
1.0292476 -0.13002419 -0.49622884
1.0239985 -0.12936106 -0.48403782
1.029176 -0.13001511 -0.47275037
1.0241663 -0.12938228 -0.45961246
1.00991 -0.12758124 -0.44261152
1.022836 -0.12921423 -0.43761891
1.0169559 -0.12847134 -0.425906
1.0297991 -0.13009387 -0.42070103
1.0241754 -0.12938339 -0.40795177
1.0184101 -0.12865514 -0.39533374
1.0213786 -0.12903011 -0.3874751
1.015379 -0.12827215 -0.37503573
1.0092424 -0.12749693 -0.36273167
1.021718 -0.12907304 -0.35711697
1.0149925 -0.12822331 -0.34604782
1.0175872 -0.12855117 -0.33821696
1.0110279 -0.12772252 -0.32620487
1.0327634 -0.13046835 -0.32323039
1.0260223 -0.12961675 -0.31125203
1.0286779 -0.12995224 -0.3022154
1.0213891 -0.12903143 -0.29157352
1.0334435 -0.13055424 -0.28521931
1.0358734 -0.13086121 -0.2761184
1.0382247 -0.13115828 -0.26699644
1.0501308 -0.13266237 -0.26024169
1.0424218 -0.13168852 -0.24982938
1.0252018 -0.12951307 -0.23619434
1.017517 -0.12854226 -0.22502469
1.0291352 -0.13000999 -0.21812391
1.0304546 -0.10557836 -1.0003082
1.0390992 -0.106464 -0.99123067
1.0258384 -0.10510534 -0.96161777
1.0268128 -0.10520518 -0.94582635
1.0275917 -0.10528496 -0.93009162
1.0207257 -0.10458151 -0.90778953
1.0275837 -0.10528419 -0.89993727
1.0258777 -0.10510934 -0.88663793
1.0325905 -0.10579715 -0.87872869
1.0239449 -0.10491133 -0.85798061
1.0304395 -0.10557679 -0.85008705
1.0291216 -0.10544173 -0.83587724
1.0276629 -0.10529227 -0.82171941
1.0269181 -0.105216 -0.80651659
1.0251219 -0.10503194 -0.7925235
1.0319629 -0.1057329 -0.78350073
1.030735 -0.10560705 -0.76846123
1.0293252 -0.10546266 -0.75350338
1.0358272 -0.10612874 -0.7444452
1.0259652 -0.10511835 -0.72384083
1.0224762 -0.1047609 -0.71138424
1.036079 -0.10615461 -0.70913428
1.0339242 -0.10593383 -0.69446284
1.0315943 -0.10569508 -0.67988366
1.0374572 -0.10629581 -0.67080837
1.0355337 -0.1060987 -0.65521985
1.0327173 -0.1058101 -0.64085805
1.0297313 -0.10550418 -0.62659597
1.0259168 -0.10511341 -0.61355174
1.0219544 -0.10470747 -0.60062104
1.026492 -0.10517233 -0.59275031
1.022296 -0.10474243 -0.57994819
1.0353771 -0.10608267 -0.57692349
1.0222499 -0.10473772 -0.55940604
1.0182889 -0.10433187 -0.54571295
1.0318063 -0.10571682 -0.54138672
1.0358932 -0.10613552 -0.53344202
1.0226986 -0.10478365 -0.51537162
1.0176524 -0.10426661 -0.50310248
1.0219811 -0.10471016 -0.49415627
1.026232 -0.10514572 -0.48517239
1.0304048 -0.10557321 -0.47615159
1.0168513 -0.10418451 -0.45777622
1.0294048 -0.10547078 -0.45398432
1.023687 -0.10488495 -0.44211319
1.0265436 -0.10517761 -0.43536866
1.030284 -0.1055609 -0.42634702
1.0247142 -0.10499019 -0.41356707
1.0278224 -0.10530866 -0.40569863
1.0313051 -0.10566542 -0.39666688
1.0347093 -0.10601432 -0.38760495
1.0278666 -0.10531319 -0.37735856
1.0311033 -0.1056448 -0.36832753
1.0248592 -0.10500503 -0.35600236
1.0279106 -0.10531769 -0.34699851
1.0308838 -0.1056223 -0.33796823
1.0239428 -0.10491116 -0.32700869
1.0263941 -0.10516233 -0.31914866
1.0386546 -0.10641853 -0.31300434
1.041664 -0.10672683 -0.30272996
1.024776 -0.10499649 -0.28932679
1.0464495 -0.10721721 -0.28556594
1.0296429 -0.10549517 -0.27130428
1.0413179 -0.10669135 -0.26584563
1.0339233 -0.10593374 -0.25432396
1.0360918 -0.10615592 -0.24524449
1.0284786 -0.1053759 -0.23393935
1.0304704 -0.10557999 -0.22490841
1.0323836 -0.10577597 -0.21586034
1.0265558 -0.080791622 -0.99224782
1.0279101 -0.080898225 -0.9763484
1.0207388 -0.080333889 -0.95479774
1.005941 -0.079169214 -0.9266687
1.0277616 -0.080886513 -0.93234301
1.0273761 -0.080856144 -0.91780216
1.0268453 -0.080814429 -0.9033038
1.0336838 -0.081352599 -0.89542156
1.0167412 -0.080019213 -0.86915731
1.0242639 -0.080611236 -0.86022419
1.0240091 -0.080591179 -0.84487307
1.0235659 -0.080556341 -0.82959241
1.0385528 -0.081735797 -0.82681769
1.0378437 -0.081679977 -0.81154716
1.0360891 -0.081541933 -0.79747754
1.0350256 -0.081458226 -0.7823596
1.0337787 -0.081360146 -0.76732147
1.0323495 -0.081247613 -0.75236517
1.0380402 -0.081695452 -0.7444452
1.036317 -0.081559852 -0.72958559
1.034415 -0.081410155 -0.71481329
1.0240768 -0.080596492 -0.69452918
1.0300801 -0.081069008 -0.68553847
1.0276499 -0.080877766 -0.67103994
1.0334486 -0.081334107 -0.66201884
1.021578 -0.080399953 -0.64343953
1.017277 -0.080061398 -0.63145679
1.0220487 -0.080436908 -0.62365562
1.0182153 -0.080135219 -0.61066854
1.0148883 -0.079873405 -0.59667575
1.0027517 -0.078918271 -0.57780701
1.0164278 -0.079994582 -0.57391262
1.0039223 -0.07901036 -0.55533546
0.99994373 -0.078697234 -0.54177403
1.004619 -0.079065204 -0.53300041
1.0086424 -0.079381883 -0.52529895
1.0131739 -0.079738468 -0.51644981
1.0176283 -0.080089092 -0.50756127
1.0130401 -0.079727918 -0.49426013
1.0167773 -0.080022067 -0.48647761
1.0209707 -0.080352128 -0.4775587
0.99886155 -0.078612059 -0.45397779
1.0113959 -0.079598546 -0.45038018
1.0147986 -0.07986635 -0.44261152
1.0084968 -0.079370439 -0.43201232
1.0025544 -0.078902759 -0.42042702
1.0057292 -0.079152621 -0.41272706
1.0088382 -0.079397239 -0.40502062
1.0118953 -0.079637863 -0.39727291
1.0051587 -0.079107709 -0.38703746
1.0080724 -0.079337008 -0.37933612
1.0015733 -0.078825511 -0.36815435
1.0235181 -0.080552585 -0.36609027
1.0172449 -0.08005888 -0.35384065
1.0104623 -0.079525121 -0.34284368
1.0134064 -0.079756804 -0.33398554
1.0162733 -0.079982437 -0.32510194
1.0285869 -0.080951519 -0.31914866
1.0309891 -0.081140615 -0.31125203
1.0343124 -0.081402138 -0.29995263
1.0266525 -0.080799296 -0.29044133
1.0294431 -0.08101891 -0.28032622
1.0318427 -0.081207767 -0.27130428
1.0341636 -0.081390455 -0.26226172
1.0366827 -0.0815887 -0.25205588
1.0194185 -0.080229953 -0.23843016
1.0311822 -0.081155762 -0.23168327
1.023649 -0.080562934 -0.21943653
1.0129247 -0.055744585 -1.0078572
1.0288123 -0.056618925 -1.0059519
1.0303333 -0.056702584 -0.98999894
1.0243899 -0.056375504 -0.96723676
1.0254543 -0.056434125 -0.95145094
1.0189383 -0.056075547 -0.92898887
1.0269941 -0.056518856 -0.92004824
1.0349717 -0.056957904 -0.91103756
1.0277563 -0.056560788 -0.88888568
1.0430762 -0.057403866 -0.88633913
1.0277501 -0.056560494 -0.85798061
1.0342689 -0.056919225 -0.85008705
1.0174131 -0.055991568 -0.82330763
1.0158534 -0.055905741 -0.80926907
1.0141253 -0.055810612 -0.79532063
1.0193012 -0.056095492 -0.78865618
1.0252911 -0.056425136 -0.78082931
1.0240552 -0.056357097 -0.76585555
1.0226372 -0.056279048 -0.75096333
1.0291417 -0.056637034 -0.74199712
1.0274136 -0.056541935 -0.72720301
1.0165262 -0.055942759 -0.7079159
1.0211308 -0.056196228 -0.70123756
1.0272019 -0.056530286 -0.69228643
1.0256063 -0.056442488 -0.67664325
1.031463 -0.0567648 -0.66765398
1.0288084 -0.056618739 -0.65325922
1.02528 -0.056424577 -0.6400916
1.0216223 -0.056223236 -0.62699836
1.0263674 -0.056484394 -0.61917639
1.0138793 -0.055797122 -0.60111207
1.010442 -0.055607967 -0.58720922
0.99816078 -0.054932114 -0.56846946
1.0117985 -0.055682626 -0.56459129
0.9991504 -0.054986503 -0.54614544
1.0032806 -0.055213835 -0.53849751
0.99909294 -0.054983404 -0.52506202
1.0036299 -0.055233058 -0.51631021
1.0080906 -0.055478573 -0.50751907
1.0124743 -0.055719793 -0.49868932
1.0072578 -0.055432737 -0.48657876
1.0024283 -0.05516699 -0.47349137
0.99744809 -0.054892838 -0.46052578
1.0014229 -0.055111591 -0.45179081
1.0053213 -0.055326138 -0.44302142
1.0091432 -0.055536482 -0.43421829
0.99447227 -0.054729108 -0.4176479
0.99807346 -0.054927234 -0.40894055
1.0015987 -0.055121306 -0.4002021
1.0046172 -0.055287395 -0.39253968
1.0075842 -0.055450685 -0.38483682
1.0011293 -0.055095442 -0.3736372
1.0035496 -0.055228628 -0.36706698
1.0161182 -0.05592034 -0.36163065
1.0286679 -0.056610979 -0.35600236
1.0127997 -0.055737771 -0.34063157
1.0252221 -0.056421377 -0.33486763
1.0189353 -0.056075346 -0.32175526
1.0217 -0.056227516 -0.31283778
1.024387 -0.056375366 -0.30389649
1.0177131 -0.056008141 -0.29107288
1.029835 -0.056675266 -0.2848292
1.0422301 -0.057357352 -0.27724805
1.0349339 -0.056955829 -0.26564601
1.0374858 -0.057096258 -0.25546661
1.0299557 -0.056681886 -0.24408685
1.0320433 -0.056796774 -0.23507601
1.0245423 -0.056383952 -0.22278662
1.0362202 -0.05702664 -0.21586034
1.0254638 -0.032226469 -1.0104382
1.0177178 -0.031983048 -0.98976129
1.0252506 -0.032219708 -0.98194861
1.0264961 -0.032258868 -0.96610808
1.0202047 -0.032061189 -0.94353312
1.0061998 -0.031621102 -0.91441894
1.0141373 -0.031870488 -0.90559912
1.014483 -0.031881336 -0.89011693
1.0070642 -0.031648226 -0.86817056
1.0145983 -0.031884946 -0.85934496
1.0134422 -0.031848617 -0.84517497
1.012144 -0.031807818 -0.83105528
1.0184499 -0.032005973 -0.82330763
1.0168885 -0.031956952 -0.80926907
1.0151588 -0.031902622 -0.79532063
1.0220571 -0.032119405 -0.78642714
1.0200669 -0.032056879 -0.77255166
1.0267663 -0.032267343 -0.7636162
1.017241 -0.031968042 -0.74283159
1.0236814 -0.03217046 -0.73392195
1.013694 -0.031856552 -0.71344918
1.0191033 -0.032026544 -0.70569313
1.0169518 -0.031958926 -0.69114953
1.0070453 -0.031647641 -0.67004353
1.0281243 -0.032310057 -0.67440075
1.016435 -0.031942684 -0.65569776
1.0129739 -0.031833995 -0.64255005
1.0185398 -0.032008875 -0.63368148
1.0240281 -0.032181315 -0.62476462
1.0208598 -0.032081835 -0.61066854
1.000278 -0.031434916 -0.58656263
0.99668914 -0.031322204 -0.57282591
1.0016476 -0.031478014 -0.56410217
1.0065297 -0.031631436 -0.55533546
0.99257326 -0.031192806 -0.53918946
0.99723834 -0.031339463 -0.53050292
1.0018277 -0.031483676 -0.52177602
1.0063405 -0.031625535 -0.51300931
1.0018319 -0.031483769 -0.49974161
0.99716902 -0.031337291 -0.48659202
1.0013753 -0.031469464 -0.47786736
0.99644661 -0.031314552 -0.46488014
1.0014558 -0.031471968 -0.45397779
0.9957521 -0.03129277 -0.44226521
0.99910223 -0.031398032 -0.43463653
1.001924 -0.031486694 -0.42808494
0.99639392 -0.031312916 -0.41547403
1.009239 -0.031716589 -0.41052511
1.0039195 -0.031549398 -0.39692605
1.0166706 -0.03195009 -0.39173982
1.019634 -0.032043286 -0.38395262
1.0139606 -0.031864949 -0.37049749
1.0171536 -0.031965323 -0.36163065
1.0202692 -0.032063253 -0.35273626
1.0138319 -0.031860925 -0.34063157
1.0164049 -0.031941809 -0.33286759
1.0196192 -0.032042783 -0.32287714
1.0223968 -0.032130044 -0.3139627
1.0158474 -0.031924259 -0.30105633
1.0184346 -0.03200556 -0.29217565
1.0116156 -0.031791341 -0.27950531
1.0333296 -0.032473665 -0.27581787
1.0263064 -0.032253012 -0.26316333
1.0285627 -0.032323912 -0.2541928
1.0310053 -0.032400623 -0.24408683
1.0330949 -0.032466337 -0.235076
1.0158188 -0.031923369 -0.22066484
1.0274904 -0.032290146 -0.2138239
1.0111314 -0.0079415413 -1.0111628
1.0116893 -0.0079458933 -0.99640429
1.0120984 -0.0079491129 -0.98167884
1.019556 -0.0080077043 -0.97393072
1.0269712 -0.0080658793 -0.96610808
1.0123032 -0.007950725 -0.93785876
1.0130541 -0.0079565672 -0.92225707
1.0190682 -0.0080038337 -0.91560674
1.0185484 -0.0079997219 -0.90116334
1.0178521 -0.0079943584 -0.88679951
1.0246012 -0.0080473479 -0.87899244
1.0169401 -0.0079871481 -0.85712832
1.0243809 -0.0080455616 -0.848221
1.0153193 -0.0079743946 -0.8277458
1.0225039 -0.0080307815 -0.8188538
1.0130275 -0.0079564555 -0.79863125
1.0120513 -0.0079487674 -0.78363818
1.018851 -0.0080021741 -0.77477634
1.017561 -0.0079919826 -0.75987232
1.0160888 -0.0079804203 -0.74505019
1.0217416 -0.0080248853 -0.73727858
1.0183978 -0.007998541 -0.7247771
1.0157171 -0.0079775611 -0.71123487
1.0218849 -0.0080260197 -0.70234382
1.0196848 -0.0080087353 -0.68780732
1.0249008 -0.0080496846 -0.68000996
1.01332 -0.0079587288 -0.66122568
1.0260359 -0.0080586262 -0.65998894
1.0225885 -0.008031507 -0.64679843
1.0190111 -0.0080034342 -0.63368148
1.0152826 -0.0079741692 -0.62067503
1.0206602 -0.0080163693 -0.61179125
0.99945897 -0.0078498954 -0.58874458
0.99589843 -0.0078218821 -0.57500005
0.98347151 -0.0077243103 -0.55643868
0.98828971 -0.0077621001 -0.54783493
0.99243921 -0.0077947043 -0.54028106
0.98772126 -0.0077576907 -0.52796441
0.98286456 -0.0077195447 -0.51576889
0.99566847 -0.0078201275 -0.51281887
0.99955064 -0.0078506153 -0.50520974
0.98546576 -0.0077399309 -0.4886688
0.99868971 -0.0078438222 -0.48441431
0.99384391 -0.0078057651 -0.47139511
0.99791962 -0.0078378031 -0.46270406
0.99281096 -0.0077976901 -0.44985071
0.99621296 -0.0078243641 -0.44226521
0.99039435 -0.0077786478 -0.43064904
1.0033194 -0.0078802146 -0.425897
0.99730408 -0.0078329779 -0.41439503
1.0004427 -0.0078575956 -0.40675884
0.99422395 -0.0078087505 -0.39542085
0.99721766 -0.0078322645 -0.38780877
1.0099149 -0.007931984 -0.38263437
1.0132153 -0.0079578524 -0.37380648
1.0160369 -0.0079800859 -0.36606756
1.0097556 -0.0079307342 -0.35387957
1.013184 -0.0079576755 -0.34394029
1.00665 -0.0079063568 -0.3319537
1.0098574 -0.0079315109 -0.3220636
1.0126295 -0.0079533262 -0.3132385
1.0156584 -0.0079771094 -0.30327293
1.0182662 -0.0079975538 -0.29439795
1.0114716 -0.0079442086 -0.28171274
1.0138915 -0.0079632234 -0.2728751
1.0259124 -0.0080576967 -0.26653111
1.018779 -0.0080016097 -0.25401804
1.020957 -0.0080187172 -0.24511769
1.023312 -0.0080371946 -0.23509143
1.0155594 -0.0079763392 -0.22399841
1.0177114 -0.0079932082 -0.21400836
0.99516827 0.015633408 -1.0128157
1.0094198 0.015857311 -0.99860913
1.0098611 0.015864255 -0.98388463
1.02455 0.016094984 -0.98307586
1.0102308 0.015870035 -0.95461094
1.0101613 0.01586893 -0.94006509
1.0173172 0.015981374 -0.93231457
1.0243975 0.016092597 -0.92452741
1.0154921 0.015952643 -0.90450066
1.0148585 0.015942719 -0.89011693
1.0140495 0.015929962 -0.87581378
1.0207143 0.016034717 -0.86803538
1.0205759 0.01603251 -0.85268277
1.0270488 0.016134195 -0.84487307
1.0266043 0.016127281 -0.82959241
1.0259719 0.016117265 -0.81438434
1.0251529 0.01610445 -0.79925096
1.0241486 0.016088653 -0.78419441
1.0229602 0.016070057 -0.76921666
1.021589 0.016048478 -0.75431985
1.0200363 0.01602404 -0.73950601
1.0183036 0.015996858 -0.7247771
1.0163921 0.015966818 -0.71013528
1.0225496 0.016063554 -0.70123756
1.020334 0.016028745 -0.6867035
1.0095993 0.015860092 -0.66675156
1.0153787 0.0159509 -0.65791482
1.0210805 0.016040426 -0.64902794
1.0175321 0.015984753 -0.63590318
1.0059912 0.015803404 -0.61654836
1.0027621 0.015752651 -0.60259461
0.99871856 0.015689142 -0.58984321
0.99454963 0.015623664 -0.57717144
0.99892223 0.015692329 -0.56956828
0.99452269 0.015623306 -0.55702829
0.99874169 0.015689556 -0.5494259
1.002912 0.015755061 -0.54177403
0.98877925 0.015533003 -0.52580822
0.9927603 0.015595527 -0.51825052
1.0055916 0.01579711 -0.51520467
1.0005579 0.015718045 -0.50302774
0.99593645 0.015645444 -0.48986295
0.9911623 0.015570432 -0.47681746
0.99528503 0.015635192 -0.46814883
0.99933195 0.015698818 -0.45944452
0.99467218 0.015625594 -0.44551435
1.0067184 0.015814839 -0.44302142
0.9917028 0.015578922 -0.42741424
0.99539435 0.015636917 -0.41874278
1.0082603 0.015839007 -0.41383609
1.0021152 0.015742505 -0.40238959
1.0055881 0.015797073 -0.39362821
0.98947316 0.015543901 -0.37987009
1.0114812 0.015889639 -0.37822405
1.005347 0.015793286 -0.36596161
1.0179272 0.015990876 -0.36051148
1.01158 0.015891187 -0.34835798
1.0050991 0.01578935 -0.33634299
1.0175049 0.015984258 -0.33064824
1.0111595 0.015884569 -0.31765407
1.0043277 0.015777249 -0.30590361
1.0267968 0.016130228 -0.30054644
1.0197597 0.016019661 -0.28884852
1.0122968 0.015902417 -0.27839226
1.0246449 0.01609643 -0.27100509
1.0269705 0.016132968 -0.26205206
1.0195084 0.016015723 -0.25069153
1.0219221 0.016053692 -0.24066047
1.0239831 0.016085997 -0.23173237
1.016433 0.015967442 -0.21956494
1.0092714 0.039654437 -1.012274
1.0180598 0.039999727 -1.0034213
1.0124103 0.039777756 -0.98058301
1.0188015 0.04002884 -0.97393072
1.0116551 0.039748043 -0.95240444
1.011554 0.039744139 -0.93785876
1.0113065 0.03973436 -0.92335284
1.0108812 0.039717671 -0.90892351
1.0103106 0.039695289 -0.89453715
1.0020305 0.039369963 -0.87366176
1.0001459 0.039295904 -0.86056036
1.0143166 0.039852671 -0.85934496
1.0131608 0.039807282 -0.84517497
1.012761 0.039791517 -0.82995898
1.0043876 0.039462525 -0.80854708
1.0113997 0.039738107 -0.79974467
1.0025467 0.039390225 -0.77861971
1.009298 0.039655495 -0.76983452
1.0079725 0.039603371 -0.75499868
1.0064659 0.03954421 -0.7402451
1.0128824 0.039796308 -0.73142719
1.0110679 0.039725021 -0.71677309
1.0165135 0.039938942 -0.70901716
1.0054054 0.039502483 -0.68992728
1.0189301 0.040033888 -0.68780732
1.0074896 0.039584439 -0.66895288
1.01257 0.039784025 -0.66122568
1.0084686 0.039622884 -0.64916945
1.0218316 0.040147912 -0.64679843
1.0019592 0.039367117 -0.62203544
0.99880821 0.039243288 -0.60806423
1.0040724 0.039450116 -0.59931821
0.99200773 0.03897617 -0.58043212
0.97969157 0.038492206 -0.5618031
0.99326593 0.039025579 -0.55812162
0.98933965 0.038871322 -0.54460639
0.98467886 0.038688157 -0.53226924
0.97105128 0.038152728 -0.51536751
0.99268609 0.03900278 -0.51715851
0.9965986 0.039156526 -0.50956637
1.0004618 0.03930828 -0.50192714
0.98579931 0.038732141 -0.48651761
0.99847376 0.039230198 -0.48333332
1.0026503 0.03939423 -0.47459498
0.99718106 0.039179385 -0.46270406
0.9920761 0.038978782 -0.44985071
0.98634279 0.038753536 -0.43820775
0.99882483 0.039243963 -0.43463653
0.99245644 0.038993713 -0.42415756
0.99566019 0.039119627 -0.41656989
1.008507 0.039624419 -0.41163513
1.012058 0.039763864 -0.40281191
1.0062151 0.039534353 -0.3903437
1.0189285 0.040033869 -0.38507408
1.0034906 0.039427273 -0.36925882
1.0070677 0.039567821 -0.35937303
1.0196038 0.040060334 -0.35384065
1.0222708 0.040165178 -0.34604782
1.0157564 0.039909206 -0.33398554
1.0281498 0.040396202 -0.32814026
1.0217729 0.040145595 -0.31506941
1.0149066 0.039875794 -0.30327293
1.0178301 0.039990682 -0.29329586
1.0203489 0.040089626 -0.28439569
1.0327437 0.040576655 -0.27693644
1.0254452 0.040289864 -0.26540285
1.0277205 0.040379271 -0.25643727
1.0204657 0.040094271 -0.24401273
1.0225545 0.040176257 -0.23509143
1.0150533 0.039881572 -0.22288159
1.0169582 0.039956406 -0.21400836
0.98303324 0.061847303 -1.0089204
0.99070191 0.062329773 -1.0013614
1.004294 0.063184887 -1.0018986
0.9976393 0.062766194 -0.98019195
1.0050883 0.063234866 -0.97252178
1.0052302 0.063243806 -0.95792097
1.0052249 0.063243449 -0.94335741
1.0123765 0.063693404 -0.93564796
1.0047102 0.063211083 -0.91441894
1.0116415 0.063647151 -0.9067142
1.0025786 0.063076936 -0.88682443
1.001783 0.063026838 -0.87255859
1.0008138 0.062965922 -0.85837466
1.0073335 0.063376151 -0.85068375
1.0070168 0.063356183 -0.83546585
0.99787611 0.062781148 -0.81510848
1.0049372 0.063225321 -0.8063522
0.99623293 0.062677704 -0.78516966
1.0030334 0.063105568 -0.77642894
0.98590475 0.062027887 -0.7494961
1.0012169 0.062991247 -0.74571896
0.99961203 0.062890306 -0.73104066
0.99704164 0.062728569 -0.71754652
0.98618633 0.062045619 -0.69834572
0.9914735 0.062378239 -0.69078892
0.99671477 0.062708035 -0.68317443
1.0026269 0.063080028 -0.67443335
0.98345929 0.061874073 -0.64913744
1.0058393 0.06328211 -0.65136969
0.99461609 0.062575944 -0.63184088
1.0000813 0.062919833 -0.62312013
0.99694914 0.06272275 -0.60914552
0.99235195 0.062433518 -0.59744424
0.97968334 0.061636485 -0.57967347
0.97605699 0.061408345 -0.56607574
0.972269 0.061170045 -0.55258596
0.98517483 0.06198198 -0.54998982
0.9811669 0.061729822 -0.53656393
0.97700089 0.061467711 -0.52325046
0.98152077 0.061752055 -0.51468784
0.97708338 0.061472893 -0.50152665
0.98141414 0.061745405 -0.49296418
0.98461318 0.061946601 -0.48651761
0.98828793 0.062177807 -0.47897896
0.98289597 0.061838627 -0.46710968
0.96881801 0.060952868 -0.45008487
0.98227251 0.061799403 -0.44465888
0.99523842 0.062615097 -0.44009072
0.98986799 0.062277284 -0.42741424
0.9839046 0.061902042 -0.41593257
0.98748958 0.062127586 -0.40731367
0.9909994 0.062348451 -0.39866376
0.98514009 0.061979823 -0.3863388
0.99779242 0.062775813 -0.38127354
1.001075 0.062982343 -0.37253451
1.0042815 0.063184105 -0.36376715
1.0074114 0.063380949 -0.35497206
1.0104647 0.063573085 -0.34614995
1.0039694 0.063164376 -0.33414915
1.0068414 0.063345127 -0.32535791
1.0096366 0.06352099 -0.31654191
1.0028046 0.063091092 -0.30479896
1.0245719 0.064460658 -0.3016575
1.0079609 0.063415572 -0.2872166
1.0200469 0.064175919 -0.28104362
1.0131006 0.063738897 -0.26844844
1.0057296 0.063275114 -0.25710768
1.0082023 0.063430741 -0.24719338
1.0103168 0.063563749 -0.23836847
1.0028651 0.063094959 -0.2262312
1.0047973 0.063216493 -0.21745375
0.97801739 0.084705532 -1.0121298
0.99267036 0.085974663 -1.0117381
0.99330193 0.086029321 -0.9970206
0.99375075 0.086068183 -0.98237038
1.0012034 0.086713642 -0.97471654
0.99417245 0.086104751 -0.9532088
0.99414653 0.086102456 -0.93870074
1.0022697 0.086806029 -0.92995709
1.0019398 0.086777449 -0.91552526
1.007888 0.087292612 -0.90892351
1.0073192 0.087243371 -0.89453715
1.0065753 0.087178968 -0.88023061
1.0056882 0.087102108 -0.86597031
1.0122391 0.087669455 -0.85824603
1.0110861 0.087569557 -0.84405953
1.0174704 0.088122539 -0.83629453
1.0074031 0.087250613 -0.81702286
1.0057993 0.087111704 -0.80304396
0.99618393 0.08627896 -0.7829901
1.0021181 0.086792871 -0.77532339
1.0000434 0.086613163 -0.7615847
0.98984909 0.085730299 -0.74192256
0.99545783 0.086216047 -0.73432314
1.0002248 0.086628899 -0.72776783
0.99762732 0.086403921 -0.71426469
0.99563819 0.086231664 -0.6997633
1.0016841 0.086755291 -0.69101566
0.99939412 0.086556956 -0.67662346
1.0135463 0.087782636 -0.67336321
0.99429566 0.086115398 -0.64812052
0.99989253 0.086600102 -0.63938659
0.98783582 0.085555859 -0.62109619
0.9925372 0.085963048 -0.61349833
0.98864728 0.085626192 -0.60070354
0.98463124 0.08527834 -0.58798712
0.98046988 0.08491797 -0.57538486
0.97618449 0.084546782 -0.56286371
0.98850483 0.085613854 -0.56136292
0.98403341 0.085226573 -0.54892129
0.97944027 0.084828794 -0.53656393
0.98348892 0.085179418 -0.52905017
0.97867244 0.084762245 -0.51683217
0.99142319 0.08586663 -0.51391333
0.98642141 0.085433364 -0.50177062
0.9807561 0.084942698 -0.49081767
0.98445719 0.085263282 -0.48329514
0.97014356 0.084023595 -0.46707761
0.99169534 0.085890144 -0.46814883
0.98618418 0.08541283 -0.45633918
0.99059618 0.085794985 -0.44660792
1.0035645 0.086918116 -0.44193166
0.98905259 0.085661262 -0.4252494
0.99271208 0.085978232 -0.41656989
1.0055209 0.087087564 -0.41163513
1.0002406 0.086630277 -0.3980127
1.0032358 0.086889677 -0.3903437
1.0065912 0.087180249 -0.38154128
1.0098701 0.087464266 -0.37270981
0.99431133 0.086116724 -0.35711202
1.0067873 0.087197267 -0.35167572
1.019244 0.088276081 -0.34604782
1.0036457 0.086925171 -0.32975668
1.0159694 0.087992482 -0.32398084
1.0092263 0.087408505 -0.31212485
1.0026786 0.086841419 -0.29932299
0.99566895 0.086234286 -0.28776199
1.0080383 0.08730565 -0.28060037
1.0104394 0.087513581 -0.27176005
1.0130465 0.087739363 -0.26179889
1.0152841 0.087933138 -0.25291544
0.99806428 0.0864418 -0.23936488
0.99064708 0.085799351 -0.22728133
1.0023166 0.086810008 -0.22073849
0.98557097 0.1088081 -1.0024523
0.99315912 0.1096459 -0.99484307
1.000672 0.1104753 -0.98719329
0.99384391 0.10972142 -0.96557522
0.99393255 0.10973126 -0.95102948
0.99488193 0.10983607 -0.93543893
0.98831612 0.10911116 -0.91314071
0.98881966 0.10916676 -0.89772946
0.99656874 0.11002224 -0.88901389
0.98832017 0.10911163 -0.86816931
0.99487287 0.10983505 -0.86056036
0.99379641 0.10971623 -0.84642249
1.0001843 0.11042141 -0.83877212
0.99794286 0.11017399 -0.8258158
0.99646401 0.11001074 -0.81182337
0.99568886 0.10992511 -0.79681879
0.99472982 0.10981919 -0.78189015
0.99358839 0.10969321 -0.76703948
0.99226552 0.10954715 -0.75226885
0.99875289 0.11026342 -0.74352854
1.0043606 0.11088248 -0.73584312
1.001053 0.11051734 -0.72338027
1.0065202 0.11112086 -0.7156601
1.0119163 0.11171664 -0.7079159
1.0098083 0.11148389 -0.6933676
1.0075256 0.11123188 -0.67891073
1.0050696 0.11096077 -0.66454709
1.0107955 0.1115929 -0.65569776
0.9912433 0.10943431 -0.6307621
0.99667662 0.11003415 -0.62203544
0.99288774 0.1096159 -0.60914552
0.98960239 0.10925318 -0.59527355
0.98615283 0.1088723 -0.58150601
0.98254049 0.10847352 -0.56784481
0.96950412 0.1070343 -0.55045927
0.97424167 0.1075573 -0.5419265
0.97016501 0.10710725 -0.52859038
0.97471297 0.10760936 -0.52005267
0.97974509 0.10816491 -0.51039177
0.97418821 0.10755143 -0.49938962
0.97848266 0.10802555 -0.49081767
0.97376919 0.10750514 -0.4778246
0.97736317 0.1079019 -0.47033864
0.99040926 0.10934222 -0.46597606
0.9773044 0.10789546 -0.44680506
0.99022734 0.10932213 -0.44226521
0.98490626 0.1087347 -0.42957705
0.98905432 0.10919266 -0.4198198
1.0018494 0.1106052 -0.41492701
0.98696226 0.10896166 -0.39866376
0.99038267 0.10933929 -0.38998351
0.98484612 0.10872807 -0.37663826
0.97875404 0.10805549 -0.36450592
0.99122959 0.10943278 -0.35928854
1.0040748 0.11085089 -0.35276905
0.99768424 0.11014544 -0.3407259
1.0009581 0.1105068 -0.33086416
0.99432009 0.10977396 -0.31902528
0.99738801 0.11011269 -0.30918026
1.0000317 0.11040457 -0.30041188
1.0025995 0.11068802 -0.29162061
1.004781 0.11092882 -0.28391883
1.0075055 0.1112297 -0.27397209
0.99060833 0.10936414 -0.26006639
1.0027379 0.11070333 -0.25270826
0.99522924 0.10987438 -0.24154989
0.98785555 0.1090603 -0.22945014
0.99951208 0.11034714 -0.22293286
0.95651537 0.1284762 -0.98639357
0.97899574 0.13149562 -0.99210691
0.98153186 0.1318363 -0.97535348
0.98280841 0.13200775 -0.95971954
0.97570235 0.13105327 -0.93831229
0.98276681 0.13200215 -0.93077648
0.97523427 0.13099039 -0.90959305
0.98941064 0.13289452 -0.90879351
0.97507232 0.13096866 -0.88004619
0.98914862 0.13285935 -0.87910944
0.98172605 0.1318624 -0.85727841
0.98155278 0.13183911 -0.84212387
0.98788995 0.13269027 -0.83454585
0.98653632 0.13250844 -0.82054096
0.97731942 0.13127048 -0.8003217
0.98248988 0.13196494 -0.7938506
0.98847574 0.132769 -0.7862494
0.98656052 0.13251169 -0.77248883
0.98450834 0.13223605 -0.7587865
0.98229367 0.13193859 -0.74517864
0.97994381 0.13162296 -0.73163211
0.99345756 0.1334381 -0.72995639
0.99012148 0.13298999 -0.71754652
0.98743528 0.1326292 -0.70411718
0.9845919 0.13224722 -0.69078892
0.9816168 0.13184766 -0.67752838
0.97848707 0.1314273 -0.66437167
0.99175674 0.13320963 -0.66232443
0.98842835 0.13276254 -0.64921749
0.99331826 0.13341935 -0.64157468
0.98069471 0.13172384 -0.62432903
0.98538548 0.13235386 -0.61676395
0.97310603 0.13070449 -0.59873277
0.98675376 0.1325376 -0.59527355
0.96621305 0.12977865 -0.57139289
0.97111815 0.13043755 -0.56286371
0.9586758 0.1287663 -0.54448122
0.96334845 0.12939394 -0.53601944
0.9592275 0.12884036 -0.52276444
0.96371233 0.12944278 -0.51429862
0.96812373 0.13003534 -0.50579363
0.9724614 0.13061789 -0.49725017
0.96679634 0.12985697 -0.48635566
0.96154153 0.12915123 -0.47450796
0.96560889 0.12969753 -0.46602359
0.96911156 0.13016802 -0.45856214
0.96306467 0.12935582 -0.44796598
0.97689563 0.13121352 -0.44142708
0.97112811 0.13043886 -0.42987898
0.97480911 0.13093325 -0.42131191
0.97841585 0.13141775 -0.41271278
0.99112517 0.1331248 -0.40785867
0.98540556 0.13235652 -0.39542085
0.99802899 0.1340521 -0.3903437
0.98323071 0.1320644 -0.3733851
0.99572849 0.13374311 -0.36815435
0.99887466 0.13416566 -0.35937303
1.0019448 0.134578 -0.35056436
1.0045656 0.13493 -0.34284368
1.0169084 0.13658787 -0.33710688
1.0106964 0.13575347 -0.32398084
1.0039885 0.13485257 -0.31212485
1.0066499 0.13520996 -0.30327293
1.0095496 0.13559945 -0.29329586
1.0120478 0.13593499 -0.28439569
1.0051953 0.13501464 -0.27176005
0.99791211 0.13403638 -0.26039526
1.0001262 0.13433374 -0.25159883
1.0025239 0.13465579 -0.2416888
0.98525739 0.13233663 -0.22837454
0.98743379 0.1326289 -0.2185954
0.96162403 0.15230632 -1.0060228
0.97025841 0.15367392 -0.99748826
0.98581052 0.15613711 -0.99594116
0.97921205 0.155092 -0.97426397
0.97232825 0.15400174 -0.95276505
0.97846645 0.15497395 -0.94630152
0.97838873 0.15496165 -0.93184894
0.96364361 0.15262619 -0.90387839
0.97773665 0.15485832 -0.90313339
0.98451155 0.15593138 -0.89555699
0.97738415 0.15480247 -0.8735882
0.97741526 0.15480748 -0.85836703
0.97725898 0.15478267 -0.84321237
0.98359704 0.1557865 -0.83562398
0.98986322 0.15677898 -0.82800424
0.98076171 0.15533741 -0.80769843
0.9791081 0.15507554 -0.7938506
0.98507339 0.15602036 -0.7862494
0.98400313 0.15585084 -0.77139384
0.98192996 0.15552248 -0.75771117
0.98051602 0.15529852 -0.74301457
0.9789241 0.15504642 -0.72840118
0.98516494 0.15603487 -0.71972436
0.9913308 0.15701143 -0.71099269
0.98120296 0.15540729 -0.69078892
0.97896153 0.15505232 -0.67645621
0.98475468 0.15596984 -0.66778105
0.98976791 0.1567639 -0.66013974
0.98573071 0.15612443 -0.64812052
0.98226017 0.15557475 -0.63510752
0.9702974 0.1536801 -0.61685109
0.97491598 0.15441154 -0.60934043
0.97948825 0.15513572 -0.60177702
0.9670276 0.15316212 -0.58395112
0.96288729 0.15250644 -0.57139289
0.95800668 0.1517334 -0.56000006
0.96219736 0.15239716 -0.55258596
0.95771343 0.15168694 -0.54025549
0.96175539 0.15232715 -0.53284419
0.95705003 0.15158182 -0.5206517
0.96094429 0.15219864 -0.51324612
0.96479136 0.15280798 -0.50579363
0.95923996 0.15192875 -0.49484971
0.9629398 0.1525147 -0.48742798
0.97545975 0.15449765 -0.48436412
0.9790802 0.15507108 -0.47681746
0.96478534 0.152807 -0.46069431
0.9682278 0.15335223 -0.45323074
0.97209734 0.15396509 -0.44465888
0.96685684 0.15313509 -0.43201566
0.97054362 0.15371901 -0.4234567
0.992365 0.15717518 -0.42262003
0.97769511 0.1548517 -0.40624276
0.98115933 0.1554004 -0.39758906
0.99417591 0.157462 -0.39143315
0.99751192 0.15799043 -0.38263437
0.99190068 0.15710166 -0.36925882
0.98574615 0.15612687 -0.35711202
0.99849606 0.15814628 -0.35056436
0.98276043 0.155654 -0.33534151
1.0043869 0.15907924 -0.33286759
0.99814677 0.15809093 -0.31985959
1.0008657 0.15852152 -0.31102848
1.0038359 0.15899204 -0.30105633
0.99689829 0.15789317 -0.28941929
0.99965417 0.15832971 -0.27950531
0.99248213 0.15719374 -0.26808468
0.99503595 0.15759821 -0.25819799
1.0068122 0.15946342 -0.25179476
0.99959165 0.15831979 -0.2394814
1.0016178 0.15864067 -0.23064058
0.98450375 0.15593015 -0.21642128
0.96636862 0.17649034 -0.99748826
0.96688557 0.17658472 -0.98287851
0.9742319 0.17792645 -0.97535348
0.96035385 0.17539179 -0.94686753
0.97454369 0.1779834 -0.94630152
0.97646385 0.17833403 -0.92968559
0.96894884 0.17696154 -0.90852773
0.96847105 0.17687428 -0.89424789
0.96782035 0.17675546 -0.88004619
0.96794945 0.176779 -0.86482555
0.96789134 0.17676842 -0.84967011
0.96764731 0.17672382 -0.83458209
0.96721858 0.17664553 -0.81956357
0.97335351 0.17776595 -0.81202346
0.9794178 0.17887352 -0.80445325
0.97773993 0.17856704 -0.79059362
0.97589809 0.17823072 -0.77682477
0.97309393 0.17771854 -0.7642017
0.9717803 0.17747866 -0.7494961
0.97817737 0.17864697 -0.74084699
0.97578675 0.17821039 -0.72731096
0.98121536 0.17920183 -0.71972436
0.96979851 0.17711671 -0.70158428
0.97504616 0.17807506 -0.69402754
0.97212404 0.17754145 -0.68077457
0.98535854 0.17995851 -0.67881036
0.97476572 0.17802389 -0.65896845
0.98038548 0.17905025 -0.65029633
0.96800429 0.17678906 -0.63294017
0.96441108 0.17613281 -0.62007123
0.97739977 0.17850496 -0.61783946
0.98200697 0.1793464 -0.6102435
0.9697029 0.17709926 -0.59229386
0.96564806 0.17635867 -0.57967347
0.9535597 0.17415094 -0.56106621
0.9577511 0.17491645 -0.55363983
0.96187711 0.17567 -0.54619813
0.95789963 0.17494357 -0.53284419
0.95376676 0.17418876 -0.51960284
0.94894046 0.17330733 -0.5075199
0.96146131 0.17559406 -0.50473636
0.97400373 0.17788476 -0.50177062
0.96893162 0.17695835 -0.48975211
0.97258627 0.17762586 -0.48220831
0.97668886 0.17837512 -0.47356227
0.96288574 0.17585421 -0.45642778
0.97619951 0.17828572 -0.45094213
0.96205115 0.17570177 -0.43415025
0.96574152 0.17637578 -0.42559949
0.98747724 0.18034539 -0.42481101
0.98243916 0.1794253 -0.41112036
0.97680199 0.17839575 -0.39866376
0.98060179 0.17908973 -0.38890505
0.98390299 0.1796926 -0.38019145
0.98753047 0.18035513 -0.37034532
0.99067211 0.18092884 -0.36157095
0.98445106 0.17979269 -0.34947214
0.98777568 0.18039991 -0.33963954
0.99999952 0.18263234 -0.33398554
1.0031797 0.18321316 -0.32398084
0.98712039 0.18028022 -0.30918026
0.99005616 0.1808164 -0.29932299
1.0020412 0.18300523 -0.29329586
0.98586881 0.18005167 -0.27792796
0.99771929 0.18221591 -0.27176005
0.99076694 0.18094619 -0.25930557
0.99295521 0.18134584 -0.25050673
0.98549998 0.17998426 -0.23936486
0.98776615 0.18039815 -0.22950956
0.98009002 0.17899622 -0.21859539
0.95767123 0.19832423 -1.001765
0.96619511 0.20008945 -0.99319243
0.96768361 0.2003977 -0.97751176
0.96795839 0.20045465 -0.96295089
0.96907663 0.20068622 -0.94737297
0.97000289 0.20087802 -0.93184894
0.97073811 0.20103028 -0.91638106
0.9712835 0.20114321 -0.90097159
0.97163999 0.20121706 -0.88562268
0.97917074 0.20277658 -0.87693
0.97828048 0.20259222 -0.86274195
0.96888292 0.20064603 -0.84321237
0.98266786 0.20350079 -0.8420518
0.97383004 0.20167057 -0.82163495
0.98081404 0.20311685 -0.81292522
0.98006648 0.20296209 -0.79791981
0.97746283 0.20242281 -0.78516966
0.97556919 0.20203073 -0.77139384
0.96572572 0.19999225 -0.75164944
0.96349078 0.19952942 -0.73808771
0.97685307 0.20229663 -0.73650128
0.97441566 0.20179187 -0.72297591
0.97182113 0.20125453 -0.70954937
0.96834493 0.20053469 -0.69727606
0.98158193 0.2032759 -0.69539613
0.97057086 0.20099564 -0.67645621
0.97560614 0.20203836 -0.66885954
0.98057318 0.20306705 -0.66124123
0.96906942 0.20068471 -0.64267415
0.97384113 0.20167287 -0.63510752
0.96198088 0.19921674 -0.61685109
0.95758688 0.19830678 -0.60514605
0.95371264 0.1975044 -0.59247285
0.95811981 0.19841707 -0.58501023
0.95401847 0.19756779 -0.57246447
0.94131529 0.19493708 -0.55500007
0.9454329 0.19578978 -0.54765218
0.94151741 0.19497895 -0.53434819
0.94604772 0.19591713 -0.52593732
0.95050603 0.19684035 -0.51748639
0.94621104 0.19595093 -0.50436884
0.95920497 0.19864184 -0.500467
0.95468646 0.19770613 -0.48742798
0.94122243 0.19491783 -0.47011435
0.95403743 0.19757167 -0.46602359
0.9757238 0.2020627 -0.46597606
0.97124976 0.2011362 -0.4520157
0.95671487 0.19812614 -0.43628281
0.96938235 0.20074949 -0.43173781
0.96402514 0.19964004 -0.4191651
0.97661299 0.20224687 -0.41439503
0.96196657 0.19921371 -0.39816347
