# .PCD v0.7 - Point Cloud Data file format
VERSION 0.7
FIELDS x y z
SIZE 4 4 4
TYPE F F F
COUNT 1 1 1
WIDTH 1262
HEIGHT 1
VIEWPOINT 0 0 0 1 0 0 0
POINTS 1262
DATA ascii
1.7810791 -0.48724809 -0.40304655
1.783999 -0.48804691 -0.38891909
1.7773541 -0.48622903 -0.37281814
1.7800512 -0.48696682 -0.35872105
1.7830029 -0.48777434 -0.34260294
1.7854714 -0.48844972 -0.32849428
1.7881685 -0.48918757 -0.31232828
1.7812042 -0.48728231 -0.29456329
1.7836158 -0.48794201 -0.27843717
1.7951655 -0.49110171 -0.26570657
1.7875091 -0.48900709 -0.25016618
1.7893015 -0.48949754 -0.23599221
1.7909855 -0.48995817 -0.22183685
1.7831975 -0.48782766 -0.20452543
1.7942483 -0.49085087 -0.19141054
1.7957911 -0.49127287 -0.17517035
1.7971973 -0.49165756 -0.1589168
1.7888491 -0.48937374 -0.14188832
1.7898409 -0.48964506 -0.1277393
1.7907305 -0.48988843 -0.11355042
1.7818818 -0.48746771 -0.098852992
1.8018297 -0.49292481 -0.085644022
1.7926936 -0.49042541 -0.073023401
1.7931162 -0.4905411 -0.060857635
1.7935119 -0.49064928 -0.046677213
1.7938035 -0.49072909 -0.032461617
1.7843449 -0.48814148 -0.018178323
1.7940768 -0.49080384 -1.4124501e-07
1.7940245 -0.49078959 0.014186106
1.8035119 -0.49338502 0.028556699
1.8032931 -0.49332511 0.040793695
1.8222233 -0.4985038 0.055640414
1.8121209 -0.49574023 0.069709778
1.8211913 -0.49822158 0.084483683
1.8108828 -0.49540144 0.098391458
1.8099856 -0.49515605 0.11477111
1.7994659 -0.49227816 0.12839322
1.7984664 -0.49200481 0.14265089
1.806808 -0.49428672 0.15976635
1.8053944 -0.4939 0.1761068
1.7942483 -0.49085087 0.19141027
1.8021549 -0.49301374 0.20874622
1.8005668 -0.49257934 0.22299029
1.7986212 -0.49204701 0.23927186
1.7965387 -0.4914774 0.25553522
1.8038636 -0.49348131 0.27322477
1.8014952 -0.49283329 0.28953427
1.8091507 -0.49492767 0.30334854
1.8163708 -0.49690285 0.31934986
1.8044714 -0.49364749 0.33195597
1.801971 -0.49296352 0.34624735
1.7993715 -0.49225238 0.36048594
1.8061168 -0.49409774 0.37670839
1.8131435 -0.49601993 0.39099202
1.7442169 -0.47716382 0.39054045
1.7825824 -0.44279584 -0.40091404
1.7764103 -0.44126263 -0.38282308
1.7891014 -0.44441506 -0.36879718
1.782624 -0.44280604 -0.35081998
1.7950754 -0.44589898 -0.336568
1.7978575 -0.4465901 -0.32041433
1.8005027 -0.44724712 -0.30423626
1.8030107 -0.44787017 -0.28803506
1.7861754 -0.44368824 -0.26892027
1.8076148 -0.44901386 -0.25556803
1.7998333 -0.44708085 -0.24003874
1.7921624 -0.44517541 -0.22264893
1.7939799 -0.44562697 -0.2065258
1.7956606 -0.44604433 -0.19038695
1.7973866 -0.44647318 -0.17222963
1.7986118 -0.44677746 -0.15806699
1.7995774 -0.44701731 -0.14593405
1.8006053 -0.4472726 -0.13178729
1.8015304 -0.44750243 -0.11760047
1.8120385 -0.4501127 -0.10399531
1.8030633 -0.44788325 -0.089239463
1.803508 -0.4479937 -0.079121359
1.8041095 -0.44814312 -0.062901683
1.7948716 -0.44584846 -0.046426259
1.8049002 -0.44833952 -0.030449189
1.8050549 -0.44837791 -0.018276585
1.7954327 -0.44598782 -0.0040362095
1.8051152 -0.44839293 0.010128305
1.8049874 -0.44836122 0.024346508
1.8047124 -0.44829285 0.040575549
1.8140604 -0.45061493 0.055051632
1.8135252 -0.45048195 0.07136108
1.8128517 -0.4503147 0.087665103
1.8120402 -0.45011318 0.10396245
1.8110907 -0.44987726 0.12025187
1.8101457 -0.44964254 0.13451393
1.799423 -0.44697899 0.1479402
1.798273 -0.4466933 0.16210955
1.7970207 -0.44638228 0.17623709
1.7956606 -0.44604433 0.19038668
1.8040602 -0.44813085 0.20358092
1.8025008 -0.44774354 0.21775274
1.8104627 -0.44972128 0.23318464
1.8086841 -0.44927958 0.24740592
1.8067958 -0.44881043 0.26164529
1.8050951 -0.44838801 0.27382442
1.8030157 -0.44787148 0.28800234
1.8100851 -0.44962749 0.30582172
1.797863 -0.44659159 0.3203817
1.8046296 -0.44827232 0.3383255
1.792532 -0.44526729 0.35066503
1.8085312 -0.44924155 0.37067145
1.7958212 -0.44608435 0.38488275
1.7925198 -0.40067557 -0.40091404
1.7863133 -0.39928833 -0.38282308
1.7795497 -0.39777645 -0.36684719
1.7826061 -0.39845964 -0.35092071
1.7855269 -0.39911255 -0.33496749
1.7883115 -0.39973494 -0.31898874
1.7909601 -0.40032694 -0.30298573
1.7931632 -0.40081939 -0.28898016
1.7952666 -0.40128961 -0.27492565
1.7972609 -0.4017354 -0.26088724
1.7994143 -0.40221676 -0.24480638
1.8014305 -0.40266746 -0.22870691
1.7933902 -0.4008702 -0.21343571
1.7854362 -0.39909226 -0.19632432
1.8064644 -0.40379262 -0.18231201
1.7885081 -0.39977896 -0.16436529
1.7995671 -0.40225089 -0.14917274
1.7908919 -0.40031171 -0.13437408
1.8015804 -0.40270096 -0.12099592
1.8024286 -0.40289056 -0.10691264
1.7933265 -0.4008559 -0.094309896
1.8036399 -0.40316129 -0.0827282
1.794452 -0.40110755 -0.068226866
1.8047199 -0.40340263 -0.052462064
1.8050981 -0.40348727 -0.036322467
1.8150971 -0.40572232 -0.020289188
1.8054364 -0.40356284 -0.0060703806
1.8054192 -0.40355897 0.010073854
1.8052647 -0.40352446 0.026217323
1.8049726 -0.40345913 0.042358793
1.8045433 -0.40336329 0.058497038
1.8138056 -0.4054336 0.073023126
1.8132093 -0.40530032 0.087196313
1.812506 -0.40514308 0.10139684
1.8214388 -0.40713978 0.11618032
1.8011854 -0.40261263 0.12702003
1.8001852 -0.40238911 0.14112522
1.7990823 -0.40214247 0.15518998
1.7978721 -0.40187198 0.16927786
1.8062708 -0.40374941 0.18431467
1.8048431 -0.40343034 0.198458
1.8035367 -0.4031381 0.21055785
1.8212924 -0.40710706 0.22706233
1.8192892 -0.40665933 0.24333948
1.8077536 -0.40408084 0.25621292
1.8154507 -0.40580133 0.27177912
1.813067 -0.40526846 0.28800234
1.8105452 -0.40470484 0.3042036
1.8085634 -0.40426174 0.3163394
1.8061506 -0.40372244 0.33049685
1.8032671 -0.40307799 0.34663466
1.8002464 -0.40240279 0.36274606
1.8162066 -0.40597025 0.38285998
1.7810183 -0.35426655 -0.40257779
1.783978 -0.35485527 -0.3887161
1.7772336 -0.35351369 -0.37278497
1.789592 -0.35597202 -0.36089388
1.7926128 -0.35657284 -0.34495723
1.7858436 -0.35522631 -0.32722554
1.7985809 -0.35775998 -0.31099018
1.8011739 -0.3582758 -0.29497546
1.7939332 -0.35683557 -0.27743861
1.7959564 -0.35723785 -0.26348013
1.788161 -0.35568729 -0.24812585
1.8094213 -0.35991627 -0.2367589
1.8014063 -0.35832202 -0.22145189
1.7932644 -0.35670251 -0.20631565
1.7847974 -0.35501838 -0.19328827
1.7961454 -0.35727555 -0.17837009
1.8073732 -0.35950887 -0.1632646
1.7987685 -0.35779732 -0.14836641
1.7901875 -0.35609043 -0.13163689
1.8010342 -0.358248 -0.11633594
1.8019613 -0.35843241 -0.10030682
1.8027513 -0.35858947 -0.084270053
1.8032535 -0.35868943 -0.072238192
1.8038032 -0.3587988 -0.056190997
1.8042154 -0.35888082 -0.040139522
1.8142973 -0.36088622 -0.024215886
1.7850025 -0.35505909 -0.0099425251
1.8046407 -0.35896528 0.0040141204
1.804558 -0.35894889 0.018047677
1.7945635 -0.35696095 0.031937771
1.8138821 -0.3608036 0.046393707
1.8135455 -0.36073667 0.058497041
1.8130538 -0.3606388 0.072630525
1.8222549 -0.36246896 0.087196313
1.8215479 -0.36232841 0.10139684
1.8109475 -0.36021984 0.11493775
1.8199556 -0.36201167 0.12770663
1.8091657 -0.35986543 0.14112522
1.8080573 -0.35964507 0.15518998
1.8068409 -0.35940307 0.16927786
1.8055222 -0.35914063 0.18332373
1.8138467 -0.36079657 0.198458
1.8222787 -0.36247373 0.21168987
1.8203975 -0.36209953 0.22789554
1.8183777 -0.36169794 0.24408385
1.8162194 -0.36126843 0.26025355
1.8336232 -0.36473039 0.27730414
1.8218 -0.36237863 0.29004493
1.8195775 -0.36193654 0.3042036
1.8272538 -0.36346343 0.31802207
1.8055056 -0.35913745 0.32873893
1.8126359 -0.36055574 0.34460273
1.8003714 -0.35811612 0.35681272
1.807263 -0.35948697 0.37278572
1.8040037 -0.35883865 0.38885164
1.8089758 -0.31571683 -0.40290132
1.8027302 -0.31462678 -0.3848035
1.7963121 -0.31350663 -0.36684716
1.8086882 -0.31566647 -0.35482636
1.8019814 -0.31449619 -0.336979
1.8048098 -0.3149896 -0.32100341
1.8071744 -0.3154023 -0.30698866
1.8091149 -0.31574103 -0.29497546
1.8210167 -0.31781825 -0.2824707
1.8133416 -0.3164787 -0.2668964
1.8058057 -0.31516358 -0.24947436
1.8076277 -0.31548148 -0.235486
1.8095832 -0.31582284 -0.21946427
1.811401 -0.31614006 -0.20342582
1.8032804 -0.31472278 -0.18635906
1.8146224 -0.31670231 -0.17130367
1.8062097 -0.31523407 -0.15438338
1.8073194 -0.31542772 -0.14036265
1.8081858 -0.31557894 -0.12835205
1.8090975 -0.31573802 -0.11434879
1.8197422 -0.3175959 -0.10085196
1.820447 -0.31771892 -0.086760037
1.8209674 -0.31780964 -0.074663363
1.8214765 -0.31789851 -0.060530439
1.8120303 -0.31624991 -0.046175297
1.8221747 -0.31802046 -0.032287087
1.8125136 -0.31633425 -0.018080056
1.832299 -0.31978732 -0.0040580207
1.8125743 -0.31634486 0.010019406
1.8124459 -0.31632251 0.024084724
1.8220611 -0.31800056 0.038323682
1.8316225 -0.31966937 0.050700985
1.8311871 -0.31959331 0.06491293
1.8306462 -0.3194989 0.079088651
1.8299971 -0.31938559 0.093292184
1.8194082 -0.31753749 0.10688014
1.8185501 -0.31738782 0.12099566
1.8177311 -0.31724495 0.13307527
1.8068585 -0.31534737 0.14634944
1.8253309 -0.31857121 0.16210955
1.814253 -0.31663787 0.17528959
1.8128799 -0.31639826 0.18936311
1.8214127 -0.31788743 0.20249225
1.8198383 -0.31761259 0.21658829
1.8179072 -0.31727564 0.23270099
1.8255999 -0.31861827 0.25013357
1.823663 -0.31828007 0.26429296
1.8213215 -0.31787154 0.28043771
1.8188415 -0.31743869 0.29656112
1.8356476 -0.32037172 0.31600592
1.8231635 -0.31819299 0.33049688
1.8202529 -0.31768498 0.34663469
1.8268697 -0.31883982 0.36467561
1.8140161 -0.31659648 0.3788299
1.8062528 -0.2715579 -0.40075824
1.8092229 -0.2720044 -0.38681543
1.8024037 -0.27097932 -0.37082449
1.7954433 -0.26993278 -0.35499334
1.8178806 -0.27330604 -0.34280208
1.811033 -0.27227655 -0.32499963
1.8137686 -0.27268782 -0.30900562
1.8059678 -0.27151516 -0.29539782
1.8084481 -0.27188799 -0.27944961
1.8105078 -0.27219763 -0.26546147
1.8225282 -0.27400479 -0.25082284
1.8246233 -0.27431989 -0.23473021
1.8167591 -0.27313757 -0.21744432
1.8185664 -0.27340925 -0.20140386
1.8200326 -0.27362967 -0.18737188
1.8115505 -0.27235448 -0.17236012
1.7930933 -0.26957953 -0.15666156
1.8040836 -0.27123183 -0.14358027
1.805114 -0.2713868 -0.12966169
1.8061643 -0.27154464 -0.11372732
1.7970971 -0.27018154 -0.099216521
1.7977931 -0.27028614 -0.085353106
1.8180686 -0.27333438 -0.074259773
1.7988725 -0.27044845 -0.057580449
1.8091412 -0.27199221 -0.043912761
1.7995635 -0.27055228 -0.027793417
1.8195121 -0.27355146 -0.012042815
1.8195468 -0.27355659 0.0040141246
1.8194427 -0.27354091 0.02007076
1.8192739 -0.27351564 0.032112297
1.8189789 -0.27347124 0.046142932
1.8185771 -0.27341086 0.060202982
1.8278685 -0.27480769 0.076663315
1.8272371 -0.2747128 0.09075895
1.8263843 -0.27458453 0.10688014
1.8155254 -0.27295196 0.12232837
1.8144007 -0.27278298 0.138345
1.8131378 -0.27259308 0.15435112
1.8217654 -0.27389026 0.16927786
1.8202353 -0.27366018 0.18534778
1.8283966 -0.27488714 0.20249225
1.8265795 -0.27461398 0.21861942
1.8246233 -0.27431989 0.23472995
1.8225282 -0.27400485 0.2508226
1.8208659 -0.27375486 0.26287964
1.8383875 -0.27638921 0.27989343
1.8264508 -0.27459463 0.29253232
1.8339462 -0.27572152 0.30825037
1.8315625 -0.27536324 0.32241848
1.8290775 -0.27498958 0.33653545
1.8365774 -0.27611706 0.35048839
1.8338745 -0.27571067 0.36467561
1.8213823 -0.27383253 0.37680489
1.8184807 -0.27339634 0.39087385
1.8103971 -0.22870633 -0.40872422
1.8130124 -0.22903672 -0.39677235
1.7965399 -0.22695574 -0.37872869
1.8090861 -0.22854063 -0.36684716
1.8118093 -0.22888474 -0.35292891
1.8050389 -0.22802947 -0.33516726
1.8176442 -0.22962175 -0.32100341
1.8298107 -0.23115884 -0.30863914
1.8226142 -0.23024963 -0.29096821
1.8250639 -0.23055916 -0.27492562
1.8175502 -0.22961001 -0.25747037
1.81971 -0.22988276 -0.24147359
1.8214842 -0.23010693 -0.2274773
1.8135283 -0.22910194 -0.21030408
1.8251456 -0.23056947 -0.19540071
1.8168933 -0.22952704 -0.17837007
1.8282509 -0.23096184 -0.1632646
1.819705 -0.22988223 -0.14638174
1.8107219 -0.22874735 -0.13364378
1.8116825 -0.22886866 -0.11968786
1.8224401 -0.23022777 -0.10633472
1.8132846 -0.22907114 -0.091787733
1.8138418 -0.22914147 -0.079823606
1.8242356 -0.23045456 -0.068226859
1.8246989 -0.2305131 -0.054200817
1.8151379 -0.22930527 -0.039921366
1.8153871 -0.22933662 -0.025966089
1.815531 -0.22935492 -0.011977363
1.825491 -0.23061317 -1.2710268e-07
1.8254216 -0.23060441 0.016056698
1.8152934 -0.22932494 0.031937778
1.8248655 -0.2305342 0.048165459
1.8342941 -0.23172522 0.064563945
1.8237536 -0.23039365 0.080259547
1.8229892 -0.23029709 0.096298032
1.8222075 -0.23019832 0.11030971
1.8211832 -0.230069 0.12633345
1.82002 -0.22992201 0.14234756
1.8187184 -0.22975762 0.15835087
1.8273418 -0.23084696 0.1732966
1.8259773 -0.23067458 0.18733948
1.8245031 -0.23048843 0.20140359
1.8325424 -0.23150404 0.21861942
1.8305798 -0.23125596 0.23472995
1.8186474 -0.22974856 0.24947411
1.8360553 -0.23194773 0.26833108
1.8437786 -0.23292346 0.28394857
1.8317757 -0.23140712 0.29656112
1.8294783 -0.23111679 0.31063449
1.8274221 -0.23085709 0.32269683
1.8346801 -0.23177405 0.33856902
1.84181 -0.23267479 0.35453939
1.8293368 -0.23109904 0.36676967
1.8265083 -0.23074159 0.3808223
1.809036 -0.18535027 -0.39068416
1.8216891 -0.18664667 -0.37882885
1.8147601 -0.18593678 -0.36286813
1.8174605 -0.18621348 -0.34894389
1.8294768 -0.18744449 -0.33879071
1.8222029 -0.18669938 -0.32298574
1.8246005 -0.18694489 -0.30900562
1.817075 -0.1861739 -0.29338956
1.8192482 -0.18639658 -0.27944961
1.8213203 -0.18660884 -0.26546147
1.8230095 -0.18678187 -0.25347295
1.8248796 -0.18697356 -0.23948866
1.8266475 -0.1871547 -0.2254584
1.8184223 -0.18631195 -0.21030408
1.8199686 -0.18647037 -0.1963243
1.8311057 -0.18761151 -0.18534803
1.8324587 -0.18775009 -0.17130366
1.8337078 -0.18787812 -0.15721714
1.8250837 -0.18699448 -0.14036264
1.8360202 -0.18811511 -0.1270525
1.8271232 -0.18720335 -0.11034202
1.8379464 -0.18831235 -0.094822437
1.8286753 -0.18736243 -0.0802598
1.8293023 -0.18742675 -0.064215198
1.8197374 -0.18644685 -0.051894892
1.830024 -0.18750066 -0.038148891
1.8302606 -0.18752491 -0.024084982
1.8204424 -0.18651891 -0.0099971453
1.82046 -0.1865207 0.0059725568
1.8203387 -0.18650842 0.021941803
1.8200788 -0.18648171 0.037909381
1.8197374 -0.18644685 0.051894646
1.8092766 -0.18537492 0.067485005
1.8284968 -0.18734419 0.084269792
1.8276956 -0.18726206 0.10030656
1.8169527 -0.18616134 0.1136952
1.8259587 -0.18708415 0.12835179
1.8050954 -0.18494661 0.14080033
1.813884 -0.18584706 0.15551727
1.8128326 -0.18573923 0.16744785
1.8115094 -0.18560369 0.18134186
1.8199686 -0.1864704 0.19632407
1.8283088 -0.18732502 0.21141472
1.8167739 -0.18614317 0.22423947
1.8248837 -0.186974 0.23945642
1.8328636 -0.18779154 0.25484285
1.8308768 -0.18758805 0.26888788
1.8287785 -0.18737312 0.28294939
1.8363988 -0.18815376 0.29855886
1.8340747 -0.18791582 0.31266192
1.8316492 -0.18766727 0.32671458
1.8294828 -0.18744524 0.33875838
1.8268532 -0.18717588 0.3528071
1.8338778 -0.18789557 0.36876473
1.8407593 -0.18860057 0.38488278
1.7380507 -0.17807731 0.3893176
1.811613 -0.14257702 -0.39664897
1.804827 -0.14204296 -0.38068795
1.8076689 -0.14226666 -0.36686888
1.8299842 -0.14402287 -0.35681295
1.8130435 -0.14268957 -0.33913577
1.8257406 -0.1436889 -0.32499963
1.8281641 -0.14387958 -0.31099018
1.8304754 -0.14406155 -0.29699457
1.8228322 -0.14346002 -0.2814284
1.8344923 -0.14437769 -0.27091166
1.8266251 -0.14375846 -0.2554878
1.8285189 -0.14390759 -0.24147357
1.8204081 -0.14326923 -0.22624768
1.832211 -0.14419816 -0.21144705
1.8337688 -0.14432077 -0.19739127
1.8354162 -0.14445029 -0.18133183
1.8269947 -0.14378755 -0.16436528
1.828355 -0.14389466 -0.14836639
1.8294299 -0.1439793 -0.13437407
1.8305292 -0.14406574 -0.118355
1.8414428 -0.1449247 -0.10288304
1.8323096 -0.14420593 -0.086291045
1.8427944 -0.14503109 -0.074663348
1.8333457 -0.14428741 -0.060203236
1.8337502 -0.14431924 -0.04617529
1.8340821 -0.14434546 -0.030121764
1.8342392 -0.14435774 -0.018080046
1.8442926 -0.14514899 -0.0040361937
1.8342886 -0.14436167 0.012042563
1.834114 -0.14434791 0.028098585
1.8238804 -0.14354259 0.041900873
1.8433747 -0.14507669 0.058497053
1.8228736 -0.14346337 0.073824026
1.8321191 -0.14419091 0.090268366
1.831264 -0.14412361 0.10630242
1.8501637 -0.145611 0.12365802
1.8191947 -0.14317371 0.13759315
1.8278625 -0.143856 0.15435113
1.8266327 -0.14375909 0.16836286
1.8350174 -0.14441909 0.1853478
1.843466 -0.14508386 0.20045912
1.8421185 -0.14497794 0.21255751
1.8404448 -0.14484616 0.22667687
1.8386676 -0.14470632 0.24075077
1.8466544 -0.14533491 0.25621295
1.8446525 -0.14517738 0.27033353
1.852082 -0.14576198 0.28800237
1.8301539 -0.14403631 0.29898104
1.8376546 -0.14462657 0.31465679
1.8450167 -0.14520593 0.33049688
1.8330185 -0.14426167 0.34078032
1.8401623 -0.14482392 0.35669139
1.8373902 -0.14460579 0.37079152
1.8540336 -0.14591566 0.3889319
1.7210342 -0.13544837 0.39063433
1.8042866 -0.099295832 -0.39647207
1.8166057 -0.099973775 -0.38671586
1.8097156 -0.099594571 -0.37082392
1.8222904 -0.1002867 -0.35888734
1.8053472 -0.099354245 -0.34124801
1.8078991 -0.099494673 -0.32741624
1.8106833 -0.099647917 -0.31160322
1.8225323 -0.10029993 -0.30135673
1.8346379 -0.1009662 -0.28898013
1.8272092 -0.10055743 -0.27146748
1.829505 -0.10068379 -0.2554878
1.8311355 -0.1007735 -0.2434902
1.8232783 -0.10034107 -0.22624768
1.8251803 -0.10044567 -0.21030408
1.8267322 -0.10053109 -0.1963243
1.827976 -0.10059951 -0.18434615
1.8293266 -0.10067385 -0.17037769
1.8206249 -0.10019504 -0.1555175
1.8217564 -0.10025733 -0.14160603
1.8327445 -0.10086202 -0.12835203
1.8238268 -0.10037129 -0.11171895
1.8146539 -0.099866442 -0.097249955
1.8153434 -0.099904351 -0.083354056
1.835723 -0.10102593 -0.074259765
1.8263202 -0.10050851 -0.057896815
1.8367376 -0.10108179 -0.042162187
1.8370349 -0.10109818 -0.026107972
1.8272078 -0.10055733 -0.0099971406
1.8372154 -0.10110813 0.0040141344
1.8371315 -0.10110354 0.018047692
1.8269567 -0.1005435 0.031937785
1.8266604 -0.10052723 0.045892168
1.8263214 -0.10050851 0.057864655
1.8358034 -0.10103036 0.072237939
1.8351042 -0.10099185 0.088279635
1.834265 -0.10094578 0.10431461
1.8332863 -0.1008919 0.12034164
1.8323165 -0.10083855 0.13434179
1.8212852 -0.10023148 0.14755982
1.8201084 -0.10016663 0.16146751
1.8188227 -0.10009588 0.1753976
1.8273655 -0.10056604 0.19032003
1.8357825 -0.10102923 0.2054152
1.8344009 -0.1009533 0.21744406
1.842598 -0.10140432 0.232701
1.8407679 -0.10130359 0.2468012
1.8388348 -0.1011972 0.26085481
1.8466651 -0.10162814 0.27640349
1.8250887 -0.10044076 0.28541657
1.8422353 -0.10138442 0.30461442
1.829674 -0.10069307 0.31898847
1.8370152 -0.10109707 0.33474535
1.8347883 -0.10097452 0.34677953
1.8320878 -0.10082593 0.3608166
1.8292866 -0.10067173 0.37480062
1.8263724 -0.10051139 0.38879475
1.8141323 -0.05701134 -0.40653855
1.8176092 -0.057120658 -0.39068416
1.8307376 -0.057533242 -0.37681508
1.8233604 -0.057301439 -0.36286813
1.8260736 -0.057386734 -0.34894389
1.8286865 -0.05746875 -0.33496746
1.8413854 -0.057867866 -0.32070372
1.8437767 -0.057942968 -0.30664319
1.8266337 -0.057404261 -0.28742647
1.838958 -0.057791572 -0.27293485
1.8412685 -0.057864115 -0.25686881
1.823617 -0.057309434 -0.23819414
1.8355471 -0.057684407 -0.2234713
1.8374263 -0.057743419 -0.20743692
1.8290172 -0.057479192 -0.19233249
1.8306253 -0.057529736 -0.1763563
1.8420508 -0.057888795 -0.16123824
1.8334227 -0.057617597 -0.14436485
1.8246415 -0.057341628 -0.12765446
1.8255614 -0.057370536 -0.11372732
1.8362459 -0.057706349 -0.10232692
1.8269906 -0.057415541 -0.087800093
1.8275257 -0.05743229 -0.075834773
1.8281176 -0.057450827 -0.059876036
1.818529 -0.057149526 -0.045673378
1.8288183 -0.057472881 -0.03193802
1.8290086 -0.057478845 -0.017981781
1.8390876 -0.057795644 -0.0040143714
1.8390746 -0.057795227 0.0080283722
1.8389598 -0.057791591 0.022061711
1.8387375 -0.05778468 0.03612588
1.8383524 -0.057772521 0.052178234
1.8478898 -0.058072332 0.066564582
1.8473272 -0.05805463 0.080695748
1.8366764 -0.057719953 0.094277568
1.84588 -0.058009036 0.10891087
1.844996 -0.05798132 0.12299321
1.8341837 -0.057641573 0.13434179
1.843066 -0.057920642 0.14917248
1.85165 -0.058190536 0.16615163
1.8401833 -0.057830106 0.18133159
1.8389577 -0.057791602 0.19337754
1.8374299 -0.057743561 0.2074046
1.855638 -0.058315828 0.22384572
1.8439636 -0.057948902 0.23672645
1.8520048 -0.058201626 0.25217113
1.8503156 -0.058148518 0.26429296
1.8578219 -0.058384497 0.28193739
1.8552921 -0.058304925 0.29814699
1.8529654 -0.05823179 0.31229565
1.8508826 -0.058166284 0.32442251
1.8483498 -0.058086716 0.33856902
1.8555326 -0.058312498 0.35453939
1.8527694 -0.058225594 0.36872059
1.8694804 -0.058750831 0.38689923
1.7564656 -0.055199169 0.38959119
1.835819 -0.014418756 -0.40492022
1.8290796 -0.014365768 -0.38879499
1.8417884 -0.014465666 -0.37683728
1.8344055 -0.014407732 -0.36283416
1.8375018 -0.014431992 -0.34681183
1.8503003 -0.014532426 -0.3325319
1.8429329 -0.01447467 -0.31668368
1.8449662 -0.014490526 -0.30461466
1.8472357 -0.014508468 -0.29053378
1.829623 -0.014370127 -0.27344754
1.8514569 -0.014541551 -0.26228982
1.8434964 -0.014479026 -0.24680144
1.84558 -0.014495478 -0.2307042
1.8472857 -0.01450889 -0.21662079
1.8389475 -0.014443326 -0.20140384
1.8503784 -0.01453315 -0.18838468
1.8418087 -0.014465798 -0.17329685
1.8429033 -0.014474382 -0.16123824
1.8540474 -0.014561882 -0.14797282
1.8451507 -0.014491967 -0.13307552
1.8462416 -0.014500611 -0.11696818
1.8370957 -0.014428907 -0.10232691
1.8478124 -0.014512951 -0.088759646
1.8483539 -0.014517243 -0.076663554
1.8588787 -0.014599916 -0.062901661
1.8393127 -0.014446256 -0.048165701
1.8495862 -0.014526902 -0.036322445
1.8498095 -0.014528631 -0.022214131
1.8499329 -0.014529645 -0.0060703596
1.8599248 -0.014608086 0.0081156399
1.8598089 -0.014607252 0.022301516
1.8595841 -0.014605524 0.036518551
1.8592515 -0.014602783 0.050701004
1.8588096 -0.014599446 0.064912945
1.8582605 -0.014595036 0.079088666
1.857703 -0.014590627 0.09124954
1.8569512 -0.014584786 0.10544846
1.8560929 -0.014578052 0.11960883
1.8451507 -0.014491984 0.13307528
1.843919 -0.014482448 0.14917248
1.852507 -0.014549862 0.16615163
1.8410349 -0.01445986 0.18133159
1.8495421 -0.014526618 0.19642439
1.8579221 -0.014592422 0.21168989
1.8661799 -0.014657213 0.22706234
1.8643898 -0.014643207 0.2413221
1.8523076 -0.014548377 0.25621295
1.8500011 -0.014530258 0.27236792
1.857434 -0.014588553 0.29004496
1.8551679 -0.014570791 0.30420363
1.8527882 -0.014552076 0.31837696
1.8601482 -0.014609894 0.33426797
1.8575386 -0.014589331 0.3484785
1.8454022 -0.014494024 0.35872078
1.8426125 -0.01447215 0.37278572
1.839709 -0.014449323 0.38686103
1.8245611 0.028662529 -0.40872422
1.8280579 0.028717423 -0.3927846
1.8122303 0.02846881 -0.37082392
1.8342359 0.028814457 -0.36283416
1.8369555 0.028857194 -0.34880006
1.8395622 0.0288982 -0.33477771
1.8420672 0.028937539 -0.32070372
1.8345959 0.028820235 -0.30500337
1.8371874 0.028860945 -0.28898013
1.8393426 0.028894739 -0.27492562
1.8413856 0.028926866 -0.26088721
1.8336802 0.028805807 -0.24349019
1.8357348 0.028838113 -0.22747727
1.8473519 0.029020561 -0.2145894
1.8489347 0.029045416 -0.20049164
1.8404646 0.028912317 -0.18534803
1.8418245 0.028933715 -0.17130366
1.84308 0.028953383 -0.15721714
1.8440695 0.02896894 -0.14514944
1.8451228 0.028985508 -0.13107875
1.8460708 0.029000469 -0.11696818
1.8369259 0.02885676 -0.10232691
1.8376542 0.028868204 -0.088279866
1.8481827 0.029033607 -0.076663554
1.8487136 0.02904189 -0.062563471
1.8391426 0.028891567 -0.048165698
1.8394928 0.028897049 -0.032112539
1.8496825 0.029057147 -0.018178295
1.8397686 0.028901398 -0.0040143658
1.8397336 0.028900862 0.012042574
1.8395584 0.028898178 0.028098596
1.859235 0.029207168 0.044632401
1.8487813 0.029042955 0.060530193
1.8581729 0.029190475 0.077077731
1.8474435 0.029021973 0.092790641
1.8466821 0.02900999 0.10688016
1.8458112 0.028996341 0.12099568
1.8446853 0.028978636 0.13710059
1.8334544 0.028802088 0.152367
1.8220983 0.028623868 0.16744787
1.8506169 0.029071797 0.18431468
1.849154 0.029048787 0.19845802
1.85752 0.029180275 0.21370029
1.8558323 0.02915369 0.22789556
1.8540404 0.029125556 0.24204513
1.8620406 0.029251201 0.25758308
1.8597221 0.029214783 0.27382445
1.847383 0.029021066 0.28850216
1.8546606 0.029135328 0.30624336
1.8519177 0.029092232 0.32241848
1.8490341 0.029046932 0.33856902
1.8463984 0.029005505 0.35266352
1.8530555 0.029110111 0.37072626
1.8595371 0.029211974 0.3889319
1.8260133 0.071744286 -0.39677235
1.8294034 0.071877442 -0.3808102
1.8322525 0.071989439 -0.36683547
1.8451964 0.072497986 -0.35269597
1.8485701 0.072630487 -0.33453399
1.8412199 0.072341762 -0.31870997
1.8436005 0.072435282 -0.30461466
1.8560593 0.072924808 -0.2900452
1.8585176 0.073021367 -0.27382469
1.8608346 0.073112443 -0.25758332
1.8531002 0.072808519 -0.24003871
1.8449565 0.072488561 -0.22467925
1.8565469 0.072943941 -0.21169011
1.8382335 0.072224334 -0.19540069
1.8496165 0.072671607 -0.18231198
1.8507692 0.07271684 -0.17019312
1.8521827 0.07277251 -0.15402336
1.8534553 0.072822399 -0.1378419
1.8545866 0.072866924 -0.12164993
1.8456005 0.072513826 -0.10488177
1.8564256 0.072939165 -0.089239433
1.8469005 0.072564907 -0.078695945
1.8475163 0.072589107 -0.062563471
1.8479915 0.072607815 -0.046426229
1.8583169 0.073013544 -0.030449159
1.8585117 0.073021114 -0.01421882
1.858566 0.07302326 -1.1037732e-07
1.8584952 0.073020518 0.016231246
1.8582829 0.073012114 0.032461364
1.857929 0.072998226 0.048689011
1.8674201 0.073371165 0.065261945
1.856797 0.072953753 0.08113195
1.8560189 0.072923176 0.097344764
1.8750467 0.073670797 0.11477114
1.8641487 0.073242538 0.12839326
1.8629582 0.073195808 0.14466849
1.8518425 0.072759025 0.15806675
1.8507692 0.072716825 0.17019291
1.8494183 0.072663769 0.1843147
1.8678268 0.073387131 0.200592
1.8662437 0.073324904 0.21484309
1.8645481 0.073258266 0.22911426
1.8627478 0.073187575 0.24333951
1.871016 0.07351242 0.2568945
1.868999 0.073433205 0.27120093
1.8570001 0.072961673 0.28394857
1.8646429 0.073262021 0.29973289
1.8619581 0.073156573 0.31600592
1.8693343 0.073446371 0.331956
1.8565456 0.072943904 0.34643576
1.8534539 0.07282237 0.36263627
1.8600109 0.073079981 0.38081345
1.7559779 0.068992533 0.38959122
1.6428943 0.064549483 0.39093649
1.822948 0.11469021 -0.40075824
1.8352888 0.11546662 -0.39087409
1.848403 0.11629172 -0.37680551
1.8222237 0.11464467 -0.35490486
1.8350585 0.11545201 -0.34078056
1.8379565 0.11563434 -0.3247222
1.850558 0.11642732 -0.31028962
1.8531899 0.11659284 -0.29409692
1.8455057 0.11610945 -0.27843714
1.8475761 0.11623956 -0.26429319
1.849534 0.11636283 -0.25016615
1.8417407 0.11587252 -0.23273343
1.8436974 0.11599566 -0.21662077
1.8351532 0.11545803 -0.20342579
1.846784 0.11618973 -0.18838467
1.8483543 0.11628861 -0.1722296
1.8597291 0.11700428 -0.15690047
1.8411207 0.11583341 -0.13912931
1.8522205 0.11653192 -0.12369066
1.8430265 0.11595345 -0.11094167
1.8537855 0.11663026 -0.09734498
1.8445024 0.1160462 -0.08272817
1.8549762 0.11670525 -0.071012154
1.8555241 0.11673969 -0.054789934
1.835932 0.11550707 -0.040139496
1.8461635 0.11615074 -0.02624985
1.8463099 0.11615998 -0.012108242
1.8463494 0.11616242 -1.0695538e-07
1.8562758 0.11678702 0.01418614
1.8660923 0.11740458 0.028556732
1.8458654 0.1161319 0.042358823
1.8554014 0.116732 0.058813266
1.8548985 0.11670034 0.073023155
1.8542886 0.11666196 0.087196343
1.8535693 0.11661666 0.10139687
1.8427826 0.11593806 0.11493778
1.8419923 0.11588835 0.12702006
1.8409693 0.11582392 0.14112525
1.8497868 0.11637872 0.15602887
1.8485422 0.1163004 0.17019291
1.8469896 0.11620264 0.18634969
1.8651382 0.11734448 0.20466962
1.8632847 0.1172279 0.2209702
1.8516465 0.11649571 0.23395209
1.8594291 0.11698531 0.25147119
1.8472896 0.11622159 0.26629603
1.8448999 0.11607127 0.28243819
1.8623991 0.11717217 0.29973289
1.8600634 0.11702523 0.3139568
1.8674424 0.11748949 0.32993141
1.8648767 0.11732814 0.34419298
1.8719972 0.11777613 0.3603538
1.8696034 0.11762539 0.3726224
1.8667126 0.11744354 0.38689923
1.6409177 0.10323773 0.39093649
1.839638 0.15932998 -0.40304649
1.8235683 0.15793821 -0.38282302
1.8365965 0.15906641 -0.36879712
1.829947 0.15849055 -0.35081992
1.8325654 0.15871741 -0.33676833
1.8546973 0.16063417 -0.32618088
1.8571275 0.1608447 -0.3119401
1.8597689 0.16107352 -0.29566127
1.8622684 0.16128995 -0.27935991
1.8739128 0.16229846 -0.2685332
1.856427 0.16078408 -0.2494552
1.858525 0.16096576 -0.23318487
1.8604813 0.16113515 -0.2168968
1.8622963 0.16129239 -0.2005922
1.8639693 0.16143729 -0.18427233
1.8651309 0.16153784 -0.17202315
1.8663838 0.16164632 -0.15773951
1.8675306 0.16174574 -0.14341398
1.8586268 0.16097458 -0.12842603
1.8696173 0.16192639 -0.11274073
1.8704214 0.16199613 -0.098391704
1.8511183 0.16032428 -0.085185997
1.8716228 0.16210008 -0.071775727
1.8721755 0.16214794 -0.05537907
1.862625 0.16132081 -0.038770862
1.8628912 0.16134399 -0.022454273
1.8630157 0.1613546 -0.0061359736
1.8729705 0.16221678 0.0082029151
1.8529296 0.16048115 0.022301527
1.8527057 0.16046172 0.036518563
1.8722923 0.16215819 0.051246189
1.881804 0.16298181 0.065959945
1.8712943 0.1620717 0.079939097
1.8806837 0.16288477 0.092721328
1.8699758 0.16195744 0.10658234
1.8691115 0.16188256 0.12089497
1.8681364 0.16179805 0.13523328
1.8569592 0.16083013 0.15078518
1.8656832 0.16158567 0.1658792
1.8641701 0.16145466 0.1822148
1.872422 0.16216926 0.19959255
1.8706152 0.16201274 0.21598588
1.8782964 0.16267817 0.23566535
1.8764511 0.16251837 0.25003791
1.874492 0.16234861 0.26442876
1.8721217 0.16214333 0.28083777
1.8699332 0.16195379 0.29516175
1.8771238 0.16257648 0.31316927
1.8645164 0.16148458 0.3278738
1.8713927 0.16208021 0.34600455
1.8687029 0.16184728 0.3603538
1.8854487 0.16329762 0.37857231
1.8532486 0.16050866 0.3869192
1.8015637 0.15603223 0.39054051
1.7309091 0.14991298 0.38714269
1.8547955 0.20477131 -0.40731153
1.8481092 0.20403323 -0.39097679
1.8510194 0.20435449 -0.37678421
1.8635852 0.20574167 -0.36444527
1.8565228 0.20496209 -0.34830156
1.8587488 0.20520772 -0.33606943
1.861248 0.20548369 -0.32176414
1.8636333 0.20574702 -0.30747277
1.8659151 0.20599897 -0.29313076
1.8585529 0.2051862 -0.27528116
1.8608699 0.20544203 -0.25895342
1.8531877 0.20459379 -0.24132232
1.8648303 0.20587923 -0.22830309
1.8568625 0.20499952 -0.21080074
1.8586202 0.20519359 -0.19449028
1.8701314 0.20646442 -0.1791127
1.8518083 0.20444162 -0.16096541
1.8628862 0.20566459 -0.1475032
1.8540356 0.20468743 -0.13249579
1.8649079 0.20588768 -0.11886495
1.8558304 0.20488548 -0.10399527
1.8665905 0.20607352 -0.088166922
1.8672059 0.20614147 -0.073808558
1.8578401 0.20510745 -0.057107121
1.8581717 0.20514411 -0.044872571
1.868396 0.20627278 -0.030776562
1.868592 0.20629454 -0.014371702
1.8686466 0.20630056 -1.0276164e-07
1.8685753 0.20629257 0.016405784
1.8683619 0.20626909 0.03281042
1.8680062 0.20622987 0.04921256
1.8675082 0.20617479 0.065610953
1.8768871 0.20721024 0.080364302
1.8663964 0.20605206 0.092230737
1.8755647 0.20706427 0.10714927
1.8746979 0.20696853 0.12153801
1.8638059 0.20576607 0.13523328
1.8627264 0.2056468 0.14953099
1.8617136 0.2055351 0.16179329
1.8703259 0.20648585 0.17704359
1.8590407 0.20523994 0.19037746
1.8674207 0.20616512 0.20575829
1.8954222 0.20925657 0.22357504
1.8741989 0.20691352 0.23359218
1.8822238 0.20779948 0.24930492
1.8799896 0.20755284 0.26582053
1.8972732 0.20946084 0.28527203
1.8652749 0.20592825 0.29722539
1.8724291 0.20671801 0.31524083
1.8696234 0.20640843 0.33166793
1.8572795 0.20504563 0.34419301
1.8643711 0.20582841 0.36035383
1.8611745 0.20547542 0.37670845
1.6864328 0.18618384 0.38584965
1.8494563 0.24841318 -0.40731153
1.8432075 0.24757376 -0.38896456
1.8465015 0.24801627 -0.37272048
1.8391485 0.24702854 -0.35862127
1.8616743 0.25005421 -0.34603754
1.8548338 0.24913545 -0.32790667
1.8478224 0.24819358 -0.30992275
1.8504326 0.24854423 -0.29364106
1.8627055 0.25019267 -0.27880439
1.8647635 0.25046906 -0.26442897
1.8568832 0.24941052 -0.24875484
1.8587136 0.24965645 -0.23442522
1.8604317 0.2498873 -0.22011465
1.8618196 0.25007355 -0.20782419
1.8633398 0.25027788 -0.19345768
1.8649421 0.25049305 -0.1770438
1.8565271 0.24936272 -0.1597666
1.8578382 0.24953891 -0.14341398
1.8590078 0.24969603 -0.12705043
1.8599141 0.24981761 -0.11274073
1.8706113 0.25125444 -0.098915055
1.8613124 0.25000548 -0.086101964
1.8718128 0.25141591 -0.072157502
1.8623984 0.25015134 -0.057412505
1.8628242 0.25020862 -0.041012086
1.873018 0.25157779 -0.024739437
1.8632398 0.25026441 -0.010270264
1.8632631 0.25026751 0.0041014208
1.8631779 0.25025618 0.018440055
1.8629837 0.25023007 0.032810424
1.8626815 0.25018942 0.047146074
1.8623357 0.25014299 0.059445675
1.8618311 0.25007522 0.073808357
1.871119 0.25132275 0.088602744
1.8604968 0.24989599 0.10248718
1.8794518 0.25244194 0.11804422
1.8687582 0.25100571 0.12976645
1.8479559 0.24821155 0.14265093
1.8665761 0.25071251 0.15854546
1.8653203 0.25054371 0.17293796
1.873821 0.25168562 0.18827845
1.862268 0.25013393 0.20369235
1.8604355 0.24988775 0.22008169
1.8682942 0.25094336 0.23770534
1.8664386 0.25069401 0.25210878
1.8739986 0.25170943 0.26994631
1.8617938 0.25007007 0.28493676
1.8791603 0.25240263 0.30240595
1.8667001 0.25072917 0.31727913
1.8834019 0.25297239 0.33719742
1.8706707 0.25126252 0.35193476
1.8772825 0.25215062 0.37031114
1.8647099 0.25046179 0.38278633
1.8229755 0.24485621 0.38885167
1.7425303 0.23405114 0.38575637
1.6912425 0.22716221 0.38806719
1.8561983 0.29399297 -0.39305893
1.8687949 0.29598793 -0.3806532
1.8619106 0.29489765 -0.36431369
1.8548954 0.29378656 -0.34806994
1.8671885 0.29573354 -0.33548346
1.8693171 0.29607078 -0.32310331
1.8619535 0.29490444 -0.3070184
1.8739724 0.29680803 -0.29416341
1.8761387 0.2971513 -0.27965072
1.8586264 0.29437742 -0.26239285
1.8602827 0.2946398 -0.25007099
1.8621166 0.29493028 -0.23566556
1.8638376 0.29520285 -0.22127928
1.8558545 0.29393858 -0.20372534
1.867368 0.295762 -0.18831165
1.8590835 0.29444993 -0.17090145
1.8703296 0.29623103 -0.15528667
1.8617463 0.29487163 -0.13802552
1.8725898 0.29658908 -0.12426604
1.8636111 0.29516685 -0.10922423
1.8644816 0.29530489 -0.092754476
1.8749092 0.29695648 -0.08082284
1.8656633 0.29549199 -0.063916177
1.866143 0.29556799 -0.047430024
1.8664807 0.29562151 -0.030940261
1.8666408 0.29564691 -0.018571323
1.8766034 0.29722476 -0.0041452516
1.87658 0.297221 0.010346163
1.8665435 0.29563147 0.026784226
1.8761159 0.29714763 0.043503668
1.8657974 0.29551327 0.059761882
1.8751609 0.29699636 0.074593551
1.8744466 0.29688329 0.091158345
1.8834505 0.29830927 0.10828312
1.8725898 0.29658908 0.12426585
1.8715993 0.29643214 0.13872252
1.8703325 0.29623157 0.15525341
1.8590865 0.29445034 0.17086843
1.8673713 0.29576254 0.18827845
1.8754967 0.2970494 0.20584783
1.874126 0.29683238 0.21827143
1.8724232 0.29656273 0.23277034
1.8902028 0.29937866 0.24981131
1.8784776 0.2975215 0.26306361
1.8862145 0.29874703 0.27900735
1.8840528 0.29840466 0.29359806
1.8723626 0.29655311 0.3044906
1.8797541 0.2977238 0.32060143
1.8870053 0.29887226 0.33687738
1.8746992 0.29692325 0.34962764
1.8720045 0.29649636 0.36412716
1.8784778 0.29752162 0.38262534
1.8175343 0.28786907 0.3848379
1.7658994 0.27969095 0.39021999
1.6950521 0.26846978 0.39028472
1.8491809 0.33772048 -0.39099225
1.8520606 0.33824632 -0.37664387
1.8544459 0.33868197 -0.36431369
1.8571315 0.33917245 -0.34989229
1.8597026 0.33964202 -0.33548346
1.8621712 0.34009293 -0.32102209
1.8645258 0.34052286 -0.306575
1.8570538 0.33915827 -0.29055575
1.8783495 0.34304765 -0.28110722
1.880404 0.34342286 -0.26653588
1.8726003 0.34199765 -0.25061038
1.8744261 0.34233093 -0.23608451
1.8761468 0.34264517 -0.2215116
1.8777542 0.34293872 -0.20695907
1.8692597 0.34138739 -0.19344875
1.8804538 0.34343189 -0.17985399
1.8719478 0.34187835 -0.1644085
1.8829366 0.3438853 -0.15064156
1.8741994 0.34228963 -0.13532992
1.8750305 0.34244132 -0.12285761
1.8758998 0.34260011 -0.10828332
1.8864831 0.34453309 -0.09422677
1.8870493 0.34463632 -0.081673607
1.877847 0.34295577 -0.06459254
1.8783299 0.34304392 -0.047931924
1.8787026 0.34311205 -0.029167777
1.8788815 0.34314471 -0.012500927
1.8789171 0.34315121 0.0041668755
1.8788313 0.34313548 0.018734317
1.8884714 0.34489614 0.033508524
1.8881117 0.34483039 0.050259642
1.8876796 0.34475154 0.064897031
1.8773077 0.3428573 0.079149731
1.8766592 0.34273881 0.09370251
1.9053642 0.34798133 0.10998391
1.8947976 0.34605145 0.12202606
1.8840144 0.34408218 0.13600484
1.8729689 0.34206486 0.15191714
1.8715935 0.34181356 0.16852623
1.8702714 0.34157228 0.1830653
1.878628 0.34309834 0.19859485
1.8770797 0.34281564 0.21318771
1.8949614 0.34608132 0.23010705
1.8926455 0.34565839 0.24902391
1.8904357 0.34525487 0.26580384
1.8883865 0.34488055 0.280453
1.8956282 0.34620312 0.29872587
1.883284 0.34394869 0.3139123
1.8708239 0.34167305 0.32890254
1.8776076 0.34291187 0.34727597
1.8652766 0.34066007 0.35999131
1.8721718 0.34191927 0.37638274
1.8500156 0.33787277 0.38689014
1.7705065 0.32335195 0.38255742
1.7099459 0.31229153 0.38335139
1.6782434 0.30650154 0.38994327
1.8573132 0.38463113 -0.40748775
1.8598851 0.38516369 -0.3950651
1.8531795 0.38377503 -0.37860554
1.8559594 0.38435075 -0.36412734
1.8778853 0.38889143 -0.35328439
1.8904781 0.39149925 -0.3382616
1.8929551 0.39201221 -0.32349339
1.875976 0.38849607 -0.30558965
1.8782086 0.38895825 -0.29093561
1.8900194 0.39140424 -0.27772227
1.8726375 0.3878046 -0.26026237
1.8742654 0.38814172 -0.24774046
1.8760612 0.38851362 -0.2331349
1.8777514 0.38886356 -0.21848229
1.8698084 0.38721871 -0.20069474
1.8617049 0.3855406 -0.18306547
1.8631983 0.38584989 -0.16646756
1.8643875 0.38609606 -0.15195055
1.8656149 0.38635033 -0.13532992
1.8667004 0.38657504 -0.11869897
1.8774219 0.38879538 -0.10259332
1.868353 0.38691723 -0.087475926
1.8788147 0.3890838 -0.071193196
1.8792919 0.38918269 -0.056557335
1.8894502 0.39128625 -0.042102821
1.8799185 0.38931239 -0.027243068
1.8800673 0.3893432 -0.012566373
1.8996923 0.3934074 -9.3114373e-08
1.880053 0.38934022 0.014643776
1.8896794 0.39133376 0.029473009
1.8894045 0.39127684 0.044190574
1.8890185 0.39119697 0.058939237
1.8983085 0.39312083 0.074032411
1.888011 0.39098835 0.086271755
1.8970886 0.39286816 0.10153166
1.8962753 0.39269978 0.11630484
1.8854401 0.3904559 0.13251285
1.8842359 0.39020652 0.14931028
1.8926442 0.39194769 0.16695693
1.8815899 0.38965845 0.18079056
1.8897142 0.39134103 0.19857541
1.8879454 0.39097458 0.21540841
1.8960048 0.39264381 0.23129317
1.903932 0.39428529 0.24734989
1.8923249 0.39188161 0.26083452
1.9003084 0.39353493 0.27487931
1.898195 0.39309713 0.28970635
1.8863028 0.39063463 0.30292919
1.8839802 0.3901535 0.31764609
1.900851 0.39364722 0.3357192
1.8890207 0.39119741 0.34664831
1.8863707 0.39064857 0.36138514
1.8932271 0.39206842 0.37798598
1.871151 0.38749674 0.38876739
1.8011296 0.372996 0.38885167
1.7411969 0.36058447 0.38808763
1.8680837 0.43299863 -0.40543219
1.8810077 0.43599424 -0.39066574
1.8655229 0.43240508 -0.36790067
1.8781618 0.43533459 -0.35297641
1.8810909 0.43601343 -0.33613861
1.8739239 0.43435231 -0.31976157
1.8861943 0.4371964 -0.30451664
1.8790749 0.43554631 -0.28614134
1.881436 0.43609348 -0.2692979
1.8739939 0.43436846 -0.25113943
1.8854785 0.43703049 -0.23764531
1.8775115 0.43518382 -0.22173361
1.8791078 0.43555391 -0.20699406
1.8803873 0.43585032 -0.19436494
1.8914766 0.43842077 -0.18056329
1.873353 0.43421984 -0.1640157
1.8842298 0.43674099 -0.15011783
1.8852925 0.43698734 -0.13532765
1.8667974 0.4327004 -0.11932043
1.8772449 0.43512207 -0.10733201
1.8682587 0.43303913 -0.092118099
1.8882729 0.43767822 -0.080393106
1.8888154 0.43780398 -0.065607071
1.8893011 0.43791646 -0.048684776
1.8799026 0.43573803 -0.03159507
1.8800998 0.43578368 -0.014753912
1.8801502 0.43579543 0.004210514
1.8897839 0.43802828 0.021161608
1.8798316 0.43572158 0.035771176
1.8795103 0.43564713 0.050521422
1.8888164 0.43780416 0.065573052
1.8883579 0.43769783 0.078261569
1.8877199 0.43755007 0.093077481
1.8868567 0.43734992 0.10998392
1.8761292 0.43486339 0.12622795
1.8850005 0.43691963 0.13954926
1.874198 0.43441582 0.1535079
1.8825253 0.43634593 0.17117324
1.8809986 0.43599206 0.18803018
1.8890157 0.4378503 0.20592883
1.8874269 0.43748212 0.22074617
1.8857317 0.43708915 0.23551683
1.8839229 0.43666992 0.25030753
1.8820083 0.4362261 0.2650499
1.8992612 0.44022503 0.28268036
1.8877867 0.43756542 0.29393476
1.8855479 0.4370465 0.3087061
1.8831939 0.43650088 0.32349321
1.890331 0.43815514 0.33995339
1.8877442 0.43755558 0.35477713
1.8854417 0.43702182 0.36745226
1.8922133 0.43859145 0.38414323
1.831637 0.42455062 0.38892493
1.7520833 0.40611103 0.38842946
1.6821874 0.38991007 0.38873592
1.8974299 0.48717734 -0.40301073
1.8809447 0.48294452 -0.38627893
1.8932574 0.48610589 -0.37333241
1.896341 0.48689762 -0.35626072
1.8989234 0.4875606 -0.34128359
1.8918346 0.48574057 -0.32468098
1.8941834 0.48634365 -0.30974033
1.8775704 0.48207828 -0.28970653
1.8895392 0.48515126 -0.27417108
1.9107128 0.49058762 -0.26191646
1.8840169 0.4837333 -0.24100293
1.8956046 0.48670858 -0.22516249
1.8878038 0.48470563 -0.20701908
1.8796424 0.48261011 -0.19113351
1.8811864 0.4830066 -0.17419143
1.882587 0.48336619 -0.15723608
1.8933537 0.48613065 -0.14313756
1.87516 0.48145932 -0.1247873
1.8858142 0.48419476 -0.10844425
1.8769838 0.48192751 -0.090980738
1.8776026 0.48208642 -0.076164134
1.8877916 0.48470253 -0.061693288
1.8881934 0.48480564 -0.046792235
1.8884841 0.48488033 -0.031922478
1.8886459 0.48492187 -0.019160876
1.8790469 0.48245722 -0.0042325063
1.8887091 0.48493809 0.010618445
1.8885753 0.48490363 0.025524624
1.8980155 0.48732752 0.040602446
1.8880353 0.48476505 0.053154312
1.8875865 0.48464978 0.068053931
1.906383 0.48947597 0.083765984
1.9057071 0.4893024 0.098809518
1.9145913 0.49158353 0.11439069
1.9040234 0.48887014 0.12884408
1.9030163 0.48861152 0.14383338
1.9017282 0.48828083 0.1609733
1.8908334 0.48548359 0.17508455
1.8892815 0.48508501 0.1921135
1.9068469 0.48959506 0.21126179
1.9052308 0.48918009 0.22627093
1.912858 0.49113843 0.2446571
1.9107172 0.49058869 0.26188186
1.8988409 0.4875395 0.27768421
1.9155772 0.49183652 0.297759
1.8941834 0.48634359 0.30974016
1.8918401 0.48574194 0.32464671
1.8989234 0.48756054 0.34128341
1.896347 0.48689917 0.35622638
1.9035659 0.48875275 0.37088725
1.9007642 0.48803326 0.38590014
1.8219438 0.46779558 0.38482204
1.752722 0.45002249 0.38463655
1.7314115 0.48830846 0.38648304
1.6815532 0.47424707 0.38931763
