# .PCD v0.7 - Point Cloud Data file format
VERSION 0.7
FIELDS x y z
SIZE 4 4 4
TYPE F F F
COUNT 1 1 1
WIDTH 1025
HEIGHT 1
VIEWPOINT 0 0 0 1 0 0 0
POINTS 1025
DATA ascii
1.7983998 -0.49198645 -1.205034
1.8003281 -0.49251401 -1.1833631
1.7938381 -0.49073851 -1.1564687
1.7952689 -0.49112999 -1.1349891
1.7941278 -0.49081779 -1.1176327
1.8022977 -0.49305284 -1.1034136
1.8020383 -0.49298185 -1.0840786
1.8015817 -0.49285698 -1.0648451
1.8009651 -0.49268824 -1.0456495
1.8012413 -0.49276388 -1.0245062
1.7758095 -0.48580652 -0.9892382
1.7840687 -0.48806596 -0.97313446
1.799746 -0.49235475 -0.96358758
1.7991798 -0.49219984 -0.94275743
1.7974372 -0.49172306 -0.92402828
1.7945626 -0.4909367 -0.90742838
1.7924845 -0.49036825 -0.88889688
1.7902536 -0.4897579 -0.87041885
1.7790771 -0.48670042 -0.847884
1.7676882 -0.4835847 -0.82554501
1.8001833 -0.49247432 -0.82365602
1.7964947 -0.49146527 -0.80744576
1.7935171 -0.49065077 -0.78927702
1.7725496 -0.48491454 -0.76356125
1.7781279 -0.48644066 -0.74949086
1.7746272 -0.48548293 -0.73171335
1.7702225 -0.48427805 -0.71602148
1.7754506 -0.48570833 -0.70197088
1.7722495 -0.48483256 -0.68239969
1.7869971 -0.48886707 -0.66973954
1.7834669 -0.4879013 -0.65022922
1.7797453 -0.48688319 -0.63083404
1.7745425 -0.48545989 -0.61557114
1.7790195 -0.48668465 -0.60152149
1.7834027 -0.48788372 -0.58740449
1.7876723 -0.48905179 -0.57328558
1.7826109 -0.48766711 -0.55621892
1.7872248 -0.48892942 -0.54007012
1.7917026 -0.49015436 -0.52388018
1.7867382 -0.48879626 -0.50502002
1.7815932 -0.4873887 -0.48628986
1.7944651 -0.49091002 -0.47466037
1.7983921 -0.49198434 -0.45840743
1.7834094 -0.48788562 -0.43751419
1.7682135 -0.48372844 -0.41692728
1.7994744 -0.4469918 -1.1840987
1.8012096 -0.44742274 -1.1625648
1.8027176 -0.4477973 -1.1410902
1.8039998 -0.44811583 -1.1196773
1.7955509 -0.44601715 -1.0952466
1.8131527 -0.4503895 -1.0840786
1.8138285 -0.45055729 -1.0627908
1.8142824 -0.45067006 -1.0415736
1.8145156 -0.450728 -1.0204296
1.804908 -0.44834143 -0.99669278
1.8046867 -0.44828647 -0.975779
1.8128822 -0.45032227 -0.95951456
1.8209393 -0.45232356 -0.94317704
1.8017712 -0.44756222 -0.91553771
1.800715 -0.4472999 -0.89495736
1.7994483 -0.44698524 -0.87446606
1.7988679 -0.446841 -0.85206074
1.796288 -0.44620025 -0.83375937
1.7757707 -0.44110364 -0.80750591
1.7897663 -0.44458026 -0.79949063
1.7777783 -0.44160229 -0.77755505
1.7924442 -0.44524539 -0.76739824
1.7801044 -0.44218016 -0.74572456
1.7773304 -0.44149113 -0.72600466
1.7924641 -0.44525036 -0.71359974
1.7886147 -0.44429418 -0.69595957
1.7838957 -0.44312194 -0.68041104
1.7804596 -0.44226852 -0.66095531
1.7859898 -0.44364217 -0.64492077
1.7907221 -0.44481757 -0.63083404
1.7946908 -0.44580343 -0.61874419
1.7807651 -0.44234422 -0.59842086
1.7944021 -0.44573179 -0.58740449
1.7894263 -0.44449583 -0.5703305
1.7936053 -0.4455339 -0.55621892
1.7976704 -0.44654366 -0.54210716
1.7917433 -0.44507137 -0.52722639
1.7956024 -0.44602999 -0.51309782
1.7899766 -0.4446325 -0.49637282
1.7936069 -0.44553432 -0.48225906
1.8070345 -0.44886968 -0.46855345
1.7920702 -0.44515255 -0.4475759
1.7764328 -0.44126818 -0.42891642
1.779563 -0.44204572 -0.41491133
1.8088244 -0.40432018 -1.2036524
1.801281 -0.40263397 -1.1787164
1.8029802 -0.40301377 -1.1572562
1.8044518 -0.40334272 -1.1358558
1.8056967 -0.40362102 -1.1145175
1.8067163 -0.40384889 -1.0932438
1.7990652 -0.40213865 -1.0670278
1.808084 -0.4041546 -1.0509001
1.7913738 -0.40041941 -1.0201193
1.7903658 -0.40019417 -1.0012667
1.8074316 -0.40400887 -0.98993325
1.7898536 -0.40007967 -0.95982325
1.7969458 -0.40166491 -0.94580722
1.8116584 -0.40495348 -0.93824661
1.8011186 -0.40259767 -0.91514337
1.7991017 -0.40214688 -0.89666665
1.7969301 -0.4016614 -0.87824273
1.7768941 -0.39718288 -0.85146534
1.7831944 -0.3985911 -0.83752185
1.7902591 -0.40017027 -0.82154483
1.7963221 -0.40152544 -0.80752969
1.7851894 -0.39903706 -0.78356141
1.7917944 -0.40051347 -0.76756865
1.7801902 -0.3979196 -0.74396443
1.7864583 -0.39932072 -0.72801787
1.78425 -0.39882711 -0.70639169
1.7711961 -0.39590922 -0.68536121
1.7938404 -0.40097091 -0.68041104
1.7896861 -0.40004215 -0.66294014
1.7761629 -0.39701942 -0.64227831
1.7901299 -0.40014139 -0.63160235
1.7960898 -0.40147361 -0.61357999
1.7913334 -0.40041044 -0.59640294
1.7864163 -0.39931133 -0.57936835
1.7912823 -0.40039906 -0.56337237
1.7860817 -0.39923653 -0.54646349
1.7906675 -0.40026155 -0.53047174
1.7951171 -0.40125611 -0.51443964
1.7900088 -0.40011433 -0.49575907
1.7936468 -0.40092751 -0.48175532
1.7971885 -0.4017193 -0.46769139
1.7911406 -0.40036729 -0.45124483
1.7949152 -0.40121099 -0.43521148
1.779521 -0.39776996 -0.41470957
1.7906266 -0.35617775 -1.1912991
1.8090149 -0.35983539 -1.1807131
1.8024393 -0.35852742 -1.153937
1.8038956 -0.3588171 -1.1326123
1.796729 -0.35739154 -1.1061809
1.8133856 -0.36070478 -1.0972801
1.7961426 -0.35727483 -1.0680009
1.8040794 -0.3588537 -1.0540023
1.8108066 -0.36019176 -1.0419408
1.8014096 -0.35832262 -1.0181004
1.8003588 -0.35811359 -0.99928093
1.7904989 -0.35615242 -0.97579134
1.8151158 -0.36104894 -0.9711324
1.796186 -0.35728353 -0.94322038
1.8119428 -0.36041778 -0.93373585
1.7925298 -0.35655636 -0.90625852
1.799257 -0.35789442 -0.89229268
1.7881895 -0.35569292 -0.86963254
1.8035271 -0.35874379 -0.85993767
1.7831743 -0.35469526 -0.83335507
1.79919 -0.35788119 -0.82154483
1.7971673 -0.3574788 -0.80149776
1.7850795 -0.35507435 -0.77962393
1.7818279 -0.35442758 -0.76182073
1.7874749 -0.35555077 -0.74794227
1.7839285 -0.35484535 -0.73026264
1.7802101 -0.3541058 -0.71271384
1.784747 -0.35500821 -0.7008189
1.7807702 -0.35421714 -0.68336523
1.7858303 -0.35522369 -0.66949731
1.8000286 -0.35804793 -0.65893769
1.7863936 -0.35533574 -0.6383062
1.7911272 -0.35627726 -0.62436396
1.7950966 -0.35706684 -0.61239809
1.7809763 -0.35425821 -0.59221959
1.7853646 -0.35513106 -0.57832092
1.7802689 -0.35411754 -0.56146526
1.7844266 -0.35494456 -0.54757303
1.7884707 -0.35574892 -0.53368062
1.7918582 -0.35642263 -0.52173442
1.7868013 -0.35541692 -0.50310957
1.7910395 -0.35625997 -0.48719233
1.7856431 -0.35518643 -0.4687447
1.7991061 -0.35786441 -0.45524782
1.7933946 -0.35672835 -0.43689901
1.7779479 -0.35365579 -0.4164477
1.8144485 -0.31667197 -1.1847342
1.8149716 -0.3167631 -1.1653063
1.8153285 -0.31682557 -1.1459074
1.8238853 -0.31831896 -1.1318192
1.8227053 -0.31811291 -1.1145175
1.8225681 -0.31808901 -1.0952466
1.822229 -0.31802982 -1.0760754
1.8302792 -0.31943482 -1.0619035
1.8038456 -0.31482154 -1.0281187
1.8018147 -0.31446695 -1.0112736
1.8180348 -0.31729788 -1.0020335
1.8081248 -0.31556827 -0.97851974
1.8067129 -0.31532186 -0.95982325
1.8226347 -0.31810069 -0.95037633
1.8307351 -0.31951433 -0.93419445
1.8210167 -0.31781822 -0.90911502
1.8011911 -0.31435817 -0.88192397
1.7997942 -0.31411433 -0.86166894
1.8250253 -0.3185178 -0.85406595
1.7963705 -0.31351674 -0.82143784
1.7934777 -0.31301194 -0.80346835
1.7904333 -0.31248051 -0.78556001
1.7872114 -0.31191826 -0.76777768
1.792941 -0.31291825 -0.75388646
1.7977632 -0.31375986 -0.74195826
1.7941319 -0.31312615 -0.72432232
1.7903528 -0.31246665 -0.70675427
1.7871482 -0.31190732 -0.68732476
1.7922604 -0.31279942 -0.67346811
1.8165176 -0.31703302 -0.66434485
1.7942693 -0.31315014 -0.6383062
1.7996883 -0.31409577 -0.62238741
1.80497 -0.31501761 -0.60642129
1.8007357 -0.31427875 -0.58734989
1.8057164 -0.31514797 -0.57137579
1.8011293 -0.31434742 -0.55246568
1.8152647 -0.31681439 -0.5392983
1.8097975 -0.31586018 -0.52246064
1.8041747 -0.31487885 -0.50577152
1.7984154 -0.31387374 -0.48916811
1.8015307 -0.31441745 -0.47720921
1.8146143 -0.31670085 -0.46569836
1.7989309 -0.31396368 -0.44684958
1.8022358 -0.31454054 -0.43290874
1.79584 -0.31342414 -0.41668245
1.8098058 -0.27209204 -1.2027754
1.8105401 -0.27220243 -1.1833217
1.8123308 -0.27247179 -1.1619447
1.8138914 -0.27270633 -1.1406267
1.8152224 -0.27290648 -1.11937
1.8151304 -0.27289265 -1.100196
1.8075036 -0.27174592 -1.0740042
1.8081335 -0.27184057 -1.0530221
1.8085396 -0.27190167 -1.0321112
1.8087232 -0.27192932 -1.0112736
1.8163151 -0.27307069 -0.99726194
1.8073893 -0.27172881 -0.97180623
1.8069351 -0.27166045 -0.95120227
1.8062639 -0.27155948 -0.93068063
1.8132308 -0.27260685 -0.91672236
1.8023505 -0.27097124 -0.89387196
1.8090401 -0.27197695 -0.87994492
1.7977509 -0.27027965 -0.85740328
1.8131413 -0.27259362 -0.84770936
1.801482 -0.27084064 -0.82541418
1.7986166 -0.27040976 -0.80743837
1.7865307 -0.26859283 -0.78553581
1.7915764 -0.26935142 -0.77369481
1.788236 -0.26884919 -0.75599724
1.7946919 -0.2698198 -0.740188
1.7918222 -0.26938835 -0.72062683
1.7887523 -0.26892683 -0.70117295
1.7954791 -0.26993814 -0.68336523
1.7912997 -0.26930985 -0.66604626
1.7955722 -0.26995215 -0.65417629
1.791136 -0.26928517 -0.63695925
1.7958879 -0.26999965 -0.62312615
1.8005462 -0.27070001 -0.60922503
1.8050886 -0.2713829 -0.59532022
1.7994816 -0.27053997 -0.58032215
1.7943718 -0.26977172 -0.56342912
1.808635 -0.27191606 -0.55045497
1.8038226 -0.27119264 -0.53167522
1.7988244 -0.27044114 -0.51302254
1.7925713 -0.26950112 -0.49845472
1.8058333 -0.27149484 -0.48719233
1.7998898 -0.2706013 -0.47071454
1.8129799 -0.27256933 -0.45924866
1.8067882 -0.27163842 -0.44286457
1.8100758 -0.27213278 -0.42891639
1.8031704 -0.27109453 -0.41470954
1.8131062 -0.22904842 -1.2067653
1.8138849 -0.22914682 -1.1873132
1.8132001 -0.2290604 -1.1699303
1.8148577 -0.22926979 -1.1486193
1.8247331 -0.23051731 -1.1326123
1.8162757 -0.2294489 -1.1081945
1.8258013 -0.23065232 -1.0921766
1.8266116 -0.23075473 -1.0710471
1.8185774 -0.22973967 -1.0450341
1.8448784 -0.23306233 -1.0387517
1.8015817 -0.22759271 -0.99368244
1.8363496 -0.23198485 -0.99196911
1.8097278 -0.22862178 -0.95719272
1.8247194 -0.23051566 -0.94982201
1.8053209 -0.22806507 -0.92217302
1.8211298 -0.23006219 -0.91271985
1.8190818 -0.22980332 -0.89427727
1.8078959 -0.22839022 -0.87163675
1.8153733 -0.22933489 -0.85570151
1.8037724 -0.22786941 -0.83335507
1.801864 -0.22762831 -0.81337029
1.7997477 -0.22736092 -0.79348278
1.8065491 -0.22822018 -0.77762222
1.804055 -0.22790517 -0.75785542
1.8105476 -0.22872533 -0.74195826
1.8068905 -0.22826339 -0.72432232
1.8030844 -0.22778238 -0.70675427
1.7991062 -0.22727998 -0.68931907
1.8135821 -0.22910865 -0.67891806
1.8000135 -0.22739454 -0.65813607
1.8229454 -0.23029138 -0.65294427
1.8090971 -0.2285421 -0.63232636
1.8145027 -0.22922494 -0.61638969
1.8191139 -0.22980747 -0.60242248
1.8141809 -0.22918436 -0.58533955
1.8090856 -0.22854063 -0.56839985
1.8032469 -0.22780308 -0.55353987
1.8073924 -0.22832677 -0.53962928
1.8114231 -0.22883597 -0.52571899
1.8153573 -0.22933301 -0.51174623
1.8000276 -0.2273964 -0.4925358
1.8037105 -0.22786155 -0.47865179
1.8163904 -0.22946343 -0.4692252
1.8198881 -0.22990534 -0.45524782
1.8232877 -0.23033473 -0.44121185
1.8072445 -0.22830799 -0.42266181
1.8271233 -0.18720339 -1.1927596
1.83485 -0.18799512 -1.1807131
1.8353361 -0.18804495 -1.161284
1.827195 -0.18721072 -1.1366222
1.8442647 -0.18895964 -1.1277772
1.8539847 -0.18995558 -1.1115561
1.828054 -0.18729883 -1.0770503
1.8373344 -0.18824965 -1.0609732
1.8204682 -0.18652159 -1.0300996
1.8119189 -0.18564558 -1.0044328
1.8293222 -0.18742871 -0.99325246
1.8104395 -0.18549407 -0.96514279
1.8275781 -0.1872499 -0.95383233
1.8259144 -0.18707955 -0.93522054
1.8151615 -0.18597788 -0.91225052
1.8309774 -0.18759823 -0.90267861
1.8188953 -0.18636036 -0.88192397
1.8255337 -0.18704063 -0.867953
1.8230559 -0.18678671 -0.84969294
1.7941179 -0.18382175 -0.81716001
1.8102401 -0.18547352 -0.80543792
1.8080318 -0.18524732 -0.78556001
1.8139396 -0.1858526 -0.77167505
1.8113747 -0.18558992 -0.75191659
1.8086056 -0.18530615 -0.73226213
1.8148934 -0.18595035 -0.71636873
1.8117522 -0.18562849 -0.69684726
1.8177326 -0.18624128 -0.68092763
1.8142228 -0.18588175 -0.66154611
1.827865 -0.18727954 -0.65294427
1.8139793 -0.18585677 -0.63232636
1.8187242 -0.18634297 -0.61840028
1.8139262 -0.18585131 -0.60127461
1.8190768 -0.1863791 -0.58533955
1.8139678 -0.1858556 -0.56839985
1.8277569 -0.18726841 -0.5573467
1.822391 -0.18671861 -0.54048741
1.8264482 -0.1871343 -0.52646744
1.8298368 -0.18748143 -0.51443964
1.8240863 -0.18689236 -0.49777552
1.8181982 -0.18628898 -0.4811978
1.8217964 -0.18665764 -0.46724379
1.8257831 -0.18706617 -0.4512448
1.8194833 -0.18642065 -0.43488815
1.8033392 -0.18476662 -0.4164477
1.8254316 -0.18703011 -0.40892452
1.8341578 -0.14435129 -1.2062452
1.8194284 -0.1431921 -1.1739147
1.8283013 -0.14389037 -1.1599609
1.8310987 -0.14411055 -1.1366222
1.8311704 -0.14411615 -1.117383
1.8225197 -0.14343534 -1.0930454
1.8382022 -0.14466958 -1.0861322
1.829151 -0.14395726 -1.0620183
1.819859 -0.14322597 -1.0380746
1.8288206 -0.14393127 -1.022105
1.8103029 -0.14247382 -0.99368244
1.8188785 -0.14314872 -0.9777981
1.8273158 -0.14381284 -0.96183926
1.8257298 -0.14368796 -0.94322038
1.8417459 -0.14494848 -0.93373585
1.830945 -0.1440984 -0.91070098
1.8278875 -0.14385784 -0.89427727
1.8346341 -0.14438879 -0.88026679
1.8322631 -0.14420217 -0.86192697
1.8206475 -0.14328797 -0.83953047
1.819685 -0.14321221 -0.81745756
1.8167183 -0.1429788 -0.79949456
1.8044389 -0.14201231 -0.77764553
1.8094743 -0.14240868 -0.76578242
1.8060298 -0.1421376 -0.74809974
1.8301647 -0.14403702 -0.74172115
1.8172082 -0.14301737 -0.72034729
1.8133457 -0.14271332 -0.70278764
1.8193905 -0.14318915 -0.68688774
1.8152037 -0.14285959 -0.66949731
1.8115727 -0.14257379 -0.65021342
1.8171602 -0.14301355 -0.63433099
1.8226094 -0.14344241 -0.61840028
1.8184488 -0.14311495 -0.59930116
1.8134682 -0.14272299 -0.58229095
1.8279858 -0.14386562 -0.56935996
1.8233231 -0.14349863 -0.55045497
1.8184717 -0.14311686 -0.53167522
1.8326226 -0.14423057 -0.51845139
1.827445 -0.14382294 -0.49975944
1.8210316 -0.14331833 -0.4851841
1.8150134 -0.14284465 -0.4687447
1.8282056 -0.1438829 -0.45723251
1.8316293 -0.14415231 -0.44323233
1.8155359 -0.14288577 -0.42463273
1.8085444 -0.14233544 -0.41049734
1.8339133 -0.10092632 -1.1927596
1.8429435 -0.10142325 -1.1787164
1.8446821 -0.10151897 -1.1572562
1.8449593 -0.10153418 -1.1378559
1.8364874 -0.10106801 -1.113373
1.844932 -0.10153275 -1.0992802
1.8360102 -0.10104173 -1.0750612
1.8366443 -0.1010766 -1.0540023
1.8283454 -0.1006199 -1.0281187
1.8284855 -0.1006276 -1.0072808
1.81855 -0.10008085 -0.98374766
1.8182263 -0.10006297 -0.96314108
1.8442826 -0.10149693 -0.95640981
1.8436395 -0.10146159 -0.93573439
1.8159406 -0.099937208 -0.90181607
1.8327131 -0.10086025 -0.89027494
1.8223575 -0.10029037 -0.8656528
1.810789 -0.099653669 -0.84327471
1.82807 -0.10060472 -0.82954127
1.8160821 -0.099945016 -0.80743837
1.831349 -0.1007852 -0.79749829
1.8189954 -0.10010536 -0.77565134
1.8064296 -0.099413827 -0.75400841
1.8036813 -0.09926255 -0.73442572
1.8007298 -0.099100068 -0.71494871
1.8068907 -0.099439099 -0.69918358
1.8129141 -0.09977062 -0.68336523
1.8187995 -0.10009457 -0.66749477
1.8144288 -0.099854015 -0.65021342
1.8099121 -0.099605404 -0.63300616
1.8146801 -0.099867843 -0.61916262
1.8193531 -0.10012504 -0.60525131
1.8232695 -0.10034057 -0.59331274
1.8182154 -0.10006239 -0.57635081
1.8225615 -0.10030153 -0.56241363
1.8267915 -0.10053434 -0.54847556
1.8309247 -0.1007618 -0.53447354
1.8355119 -0.10101429 -0.51845139
1.8303263 -0.10072896 -0.49975944
1.8249552 -0.10043338 -0.4811978
1.8285668 -0.10063216 -0.46724379
1.8325684 -0.10085234 -0.4512448
1.8267139 -0.10053012 -0.43290874
1.8206801 -0.10019813 -0.41470954
1.8428468 -0.057913765 -1.2002341
1.8519634 -0.058200225 -1.1861044
1.8524928 -0.058216859 -1.166611
1.8515912 -0.058188546 -1.1491841
1.8517841 -0.058194626 -1.1297827
1.8517698 -0.058194213 -1.1104782
1.8429763 -0.057917766 -1.0861322
1.8512026 -0.058176331 -1.0720372
1.8494929 -0.058122627 -1.0549395
1.8400581 -0.057826098 -1.030991
1.847864 -0.058071371 -1.0169199
1.8467857 -0.058037516 -0.99800485
1.8278495 -0.057442367 -0.96982795
1.8451099 -0.057984829 -0.95844018
1.8444886 -0.057965398 -0.93776411
1.8436481 -0.057938877 -0.91717213
1.832635 -0.057592813 -0.89427727
1.8403654 -0.057835702 -0.87824273
1.8470069 -0.058044501 -0.86417377
1.8353837 -0.057679184 -0.84168863
1.8235116 -0.057306118 -0.81946409
1.8205711 -0.057213616 -0.80146605
1.8174489 -0.057115626 -0.78359282
1.8041265 -0.056696903 -0.76388037
1.8191445 -0.057168853 -0.75388646
1.8163836 -0.057082132 -0.73422903
1.8134189 -0.056988969 -0.71467751
1.8289146 -0.057475939 -0.70240128
1.8154995 -0.0570543 -0.68140006
1.8206528 -0.057216246 -0.66749477
1.8256884 -0.057374556 -0.65358239
1.8306289 -0.057529826 -0.63959998
1.7982794 -0.056513153 -0.61073512
1.8225224 -0.057275079 -0.60127461
1.8276975 -0.057437681 -0.58533955
1.8136425 -0.056995954 -0.56342912
1.8274527 -0.057429936 -0.55246568
1.8220309 -0.057259526 -0.53565353
1.8266337 -0.057404246 -0.51972526
1.8305424 -0.057527035 -0.50577152
1.8246989 -0.057343453 -0.48916811
1.818701 -0.057154983 -0.47271556
1.8324504 -0.057587057 -0.45924866
1.8359058 -0.05769572 -0.4452202
1.8299853 -0.057509515 -0.42690349
1.8547059 -0.014567062 -1.2016461
1.8456753 -0.014496075 -1.1787164
1.8461629 -0.01450001 -1.1592547
1.8464419 -0.014502157 -1.1398869
1.8489927 -0.014522245 -1.116519
1.8500605 -0.014530591 -1.0952466
1.8595474 -0.014605097 -1.0790597
1.859036 -0.014601165 -1.0598923
1.8594841 -0.014604564 -1.0387517
1.8509333 -0.014537391 -1.012884
1.8597015 -0.014606355 -0.99669278
1.8407174 -0.014457226 -0.96847832
1.8501281 -0.014531077 -0.95037633
1.8384593 -0.014439465 -0.92922503
1.83655 -0.014424507 -0.91070098
1.8524348 -0.014549199 -0.90104061
1.8421664 -0.014468616 -0.87624979
1.8406754 -0.014456875 -0.85592383
1.8307798 -0.014379152 -0.82954127
1.8279136 -0.014356682 -0.81149584
1.8349254 -0.014411698 -0.79551309
1.8233794 -0.014321041 -0.77167505
1.8208013 -0.014300777 -0.75191659
1.8272933 -0.014351799 -0.73599815
1.8429542 -0.014474764 -0.72367865
1.8398595 -0.014450506 -0.70399439
1.8257024 -0.014339226 -0.68491244
1.8308847 -0.014379936 -0.67093551
1.8265333 -0.014345785 -0.65358239
1.8409168 -0.014458735 -0.64289689
1.836301 -0.014422497 -0.62561226
1.8227038 -0.014315687 -0.60327923
1.837419 -0.014431321 -0.59040898
1.8425012 -0.014471198 -0.57435173
1.847443 -0.01451012 -0.55825067
1.8324683 -0.014392462 -0.53847277
1.8269064 -0.014348772 -0.52173442
1.8404772 -0.014455346 -0.51042539
1.8437786 -0.014481275 -0.49836829
1.837853 -0.014434725 -0.48175529
1.8419869 -0.014467211 -0.46569836
1.8362648 -0.01442227 -0.44723964
1.8391526 -0.01444498 -0.43521145
1.8424257 -0.01447067 -0.42113894
1.8539314 0.029123975 -1.1840987
1.862928 0.029265298 -1.16989
1.856037 0.029157054 -1.1430994
1.8488218 0.029043684 -1.116519
1.8584933 0.029195616 -1.1003407
1.8593754 0.029209502 -1.0790597
1.8501776 0.029064959 -1.0549395
1.8593122 0.029208545 -1.0387517
1.8683048 0.029349688 -1.0224849
1.8242778 0.028658152 -0.9777981
1.8327401 0.02879107 -0.96183926
1.8677449 0.029340923 -0.95951456
1.8581789 0.029190717 -0.93419445
1.8572869 0.029176589 -0.9135282
1.8552094 0.029144045 -0.89495736
1.8448608 0.028981501 -0.87020034
1.8423676 0.02894228 -0.85190594
1.8397179 0.028900675 -0.83366829
1.8277445 0.028712502 -0.81149584
1.8430634 0.028953126 -0.80148578
1.8407826 0.028917421 -0.78146237
1.8189881 0.028574931 -0.75588727
1.8247128 0.028664934 -0.74195826
1.8303177 0.028753027 -0.72801787
1.8257279 0.028680846 -0.71238685
1.822528 0.028630538 -0.69287229
1.8285042 0.028724473 -0.67693961
1.8249342 0.028668385 -0.65756583
1.8211663 0.028609136 -0.6383062
1.8172019 0.028546849 -0.61916262
1.8320276 0.028779782 -0.60642129
1.8277297 0.028712248 -0.58734989
1.8232391 0.028641796 -0.56839985
1.8377007 0.028868947 -0.55535817
1.8424764 0.028943989 -0.5392983
1.82731 0.028705748 -0.51972526
1.8408582 0.028918596 -0.50843346
1.8350327 0.028826922 -0.49175629
1.829052 0.028733104 -0.47523001
1.8234297 0.028644709 -0.45681876
1.8365855 0.028851477 -0.4452202
1.8306628 0.028758314 -0.42690349
1.8410362 0.072334602 -1.2022284
1.8333255 0.072031632 -1.1773398
1.8338144 0.072050884 -1.1579436
1.851077 0.072729126 -1.1491841
1.8512698 0.072736628 -1.1297827
1.8500538 0.072688885 -1.1124823
1.8412702 0.072343774 -1.088159
1.8495284 0.072668202 -1.0740409
1.8489794 0.072646625 -1.0549395
1.8482653 0.072618611 -1.0358771
1.8648614 0.073270686 -1.0265589
1.8451754 0.072497189 -1.0000359
1.835115 0.072101891 -0.97650099
1.8690783 0.073436379 -0.97634703
1.8498018 0.072678924 -0.94834137
1.8480476 0.07261008 -0.92970312
1.8540883 0.072847366 -0.91757852
1.861043 0.073120646 -0.90336722
1.8408029 0.072325401 -0.87624979
1.8474424 0.072586291 -0.86214137
1.8457973 0.072521619 -0.84182739
1.8439391 0.072448663 -0.82160813
1.8601966 0.073087446 -0.8094607
1.8579862 0.073000483 -0.78927702
1.8371028 0.072179958 -0.76154017
1.8335927 0.072042093 -0.74373931
1.8299311 0.071898147 -0.72600466
1.8260942 0.071747467 -0.70840156
1.8493683 0.072661981 -0.70353186
1.8359542 0.072134838 -0.68239969
1.8324375 0.071996734 -0.66294014
1.828722 0.071850695 -0.64359421
1.8437194 0.072439946 -0.63083404
1.839667 0.072280802 -0.61155599
1.8347677 0.072088279 -0.59441632
1.830348 0.071914591 -0.57537341
1.8352954 0.072108962 -0.55936658
1.8395146 0.072274722 -0.5453096
1.8334422 0.072036177 -0.53047174
1.8374317 0.072192937 -0.51646185
1.8316827 0.071967036 -0.49975944
1.835438 0.072114676 -0.48576385
1.8390951 0.072258264 -0.47170788
1.8329384 0.072016388 -0.45524782
1.8261628 0.071750134 -0.44088718
1.8294771 0.07188037 -0.42690349
1.8326774 0.072006129 -0.41292685
1.8634222 0.11723669 -1.2009635
1.8556402 0.1167471 -1.1759971
1.8560829 0.11677487 -1.1564687
1.8575631 0.11686803 -1.1349891
1.8588115 0.11694659 -1.1135721
1.8598288 0.1170106 -1.0922201
1.8594402 0.11698616 -1.0729847
1.8501993 0.11640478 -1.0488623
1.8755766 0.11800135 -1.0444078
1.8659691 0.11739695 -1.0204296
1.8648857 0.1173287 -1.0014164
1.8558615 0.11676097 -0.975779
1.8543794 0.11666775 -0.95695662
1.8626432 0.11718774 -0.94070584
1.8707652 0.11769855 -0.92438346
1.8517771 0.11650407 -0.89495736
1.8504744 0.11642205 -0.87446606
1.8580198 0.11689668 -0.85825258
1.838125 0.1156451 -0.82965219
1.8544158 0.11666995 -0.81757587
1.8339562 0.11538278 -0.78948784
1.8315587 0.11523198 -0.76955491
1.828954 0.11506806 -0.74972439
1.833812 0.11537366 -0.73771429
1.8300844 0.11513917 -0.72002369
1.8355243 0.11548148 -0.70598495
1.8408449 0.11581622 -0.69193721
1.8366992 0.11555527 -0.67437619
1.8323822 0.11528382 -0.65695137
1.8366343 0.11555127 -0.64492077
1.8516282 0.11649457 -0.63206184
1.8374534 0.11560283 -0.61155599
1.8325601 0.11529491 -0.59441632
1.8465599 0.11617569 -0.58336937
1.8509468 0.11645178 -0.56924081
1.8450654 0.11608169 -0.55421877
1.8396583 0.11574146 -0.5372718
1.8436944 0.1159955 -0.52319735
1.8476324 0.11624321 -0.50906014
1.8418106 0.11587694 -0.49234781
1.8449872 0.11607674 -0.48025891
1.8389187 0.11569497 -0.46367264
1.8326979 0.11530361 -0.44723964
1.8457711 0.11612603 -0.43548086
1.8295689 0.11510672 -0.41692725
1.8569434 0.16082878 -1.1874323
1.8502985 0.16025342 -1.1605233
1.850574 0.16027708 -1.1410902
1.8506819 0.1602865 -1.1216881
1.8591514 0.16102 -1.1074874
1.8503194 0.16025513 -1.0831141
1.8498515 0.16021454 -1.0639458
1.8567494 0.16081202 -1.0517704
1.8559917 0.1607464 -1.0326446
1.8637844 0.16142136 -1.0184059
1.8626997 0.1613273 -0.99936122
1.8713173 0.16207373 -0.98300737
1.8521466 0.16041332 -0.95494545
1.8672252 0.1617192 -0.94726825
1.8386824 0.15924716 -0.91514337
1.8545418 0.16062075 -0.90541458
1.852391 0.16043454 -0.88685298
1.8510015 0.16031414 -0.86636758
1.8493975 0.16017526 -0.84597433
1.8466752 0.15993939 -0.82771415
1.8346696 0.15889965 -0.80550528
1.8590527 0.1610115 -0.7993114
1.8467106 0.15994255 -0.77728915
1.8241014 0.15798436 -0.75372064
1.8390169 0.15927611 -0.74347019
1.8260865 0.15815626 -0.72200751
1.8222225 0.15782164 -0.70441288
1.827534 0.15828167 -0.6904102
1.832727 0.15873145 -0.67639935
1.8370982 0.15910999 -0.66434485
1.8428042 0.15960418 -0.64822805
1.8483696 0.16008614 -0.63206184
1.8443362 0.1597368 -0.61270547
1.8482919 0.16007945 -0.6005761
1.8528118 0.16047093 -0.58637643
1.8381653 0.15920243 -0.56630659
1.8424246 0.15957126 -0.55218565
1.8369989 0.15910134 -0.53527689
1.8415828 0.1594983 -0.51916581
1.8460263 0.15988317 -0.50301528
1.840692 0.15942124 -0.48429081
1.8438106 0.15969136 -0.47218812
1.8478454 0.16004077 -0.45601988
1.8517399 0.16037807 -0.43981686
1.8457782 0.15986177 -0.42136261
1.8610219 0.20545878 -1.1928053
1.8615867 0.20552112 -1.1731818
1.8619831 0.20556493 -1.1535866
1.8609501 0.20545079 -1.1361135
1.8524357 0.20451094 -1.1115561
1.8534261 0.20462026 -1.0902029
1.8628117 0.20565641 -1.0738891
1.8524452 0.20451194 -1.0517704
1.8603828 0.20538825 -1.0374928
1.859464 0.2052868 -1.0184059
1.8583819 0.20516735 -0.99936122
1.8483011 0.20405442 -0.975779
1.8722724 0.20670092 -0.97276461
1.8806388 0.20762455 -0.95628983
1.879952 0.20754862 -0.93530947
1.8601744 0.20536518 -0.90773135
1.8570684 0.20502228 -0.8911581
1.8547666 0.2047683 -0.87264609
1.8622651 0.20559603 -0.85632885
1.8496621 0.20420466 -0.8358534
1.8650568 0.20590423 -0.82563084
1.8712616 0.20658921 -0.81129557
1.8690654 0.20634668 -0.79095858
1.8666594 0.20608114 -0.77072227
1.8363618 0.2027363 -0.73944134
1.8419267 0.20335071 -0.72529644
1.8388604 0.20301215 -0.70553422
1.8355923 0.20265131 -0.68588132
1.8508193 0.20433246 -0.67313921
1.8472109 0.20393406 -0.65354669
1.8339989 0.20247541 -0.63083404
1.8569155 0.20500527 -0.6250903
1.8616003 0.2055227 -0.61082333
1.856714 0.2049832 -0.5934602
1.8516632 0.20442548 -0.57624066
1.8559875 0.20490286 -0.56198287
1.860194 0.20536736 -0.54772484
1.8643014 0.20582083 -0.53340226
1.8592732 0.20526573 -0.51436287
1.8535148 0.20463005 -0.49750325
1.8663318 0.20604494 -0.48780221
1.8699838 0.20644823 -0.47343415
1.8542037 0.20470592 -0.45433864
1.8576019 0.20508108 -0.44006485
1.8414997 0.20330349 -0.42136261
1.8736721 0.25166565 -1.2015063
1.8587604 0.24966283 -1.1690929
1.8688008 0.25101143 -1.1526822
1.8616973 0.25005728 -1.1259016
1.8616337 0.25004876 -1.1064337
1.8625489 0.25017172 -1.0850002
1.8620757 0.25010812 -1.0657015
1.8798851 0.25250018 -1.0541233
1.8628161 0.2502076 -1.0231872
1.854103 0.24903727 -0.99733746
1.8703865 0.2512244 -0.9876442
1.8777976 0.25221986 -0.9732219
1.8851165 0.25320286 -0.95870978
1.8567723 0.24939579 -0.92644399
1.8647144 0.25046253 -0.91006005
1.8545955 0.24910349 -0.88505548
1.8702383 0.25120449 -0.87493134
1.8677747 0.25087363 -0.85637635
1.8660517 0.25064212 -0.8358407
1.8641164 0.25038218 -0.8154009
1.8519936 0.24875383 -0.79318428
1.8670878 0.2507813 -0.7827462
1.8546014 0.24910407 -0.76078969
1.8787172 0.2523433 -0.75388652
1.8558676 0.24927424 -0.73056
1.8706088 0.25125411 -0.71978742
1.8667083 0.25073025 -0.70187926
1.8719716 0.25143728 -0.6874606
1.849097 0.24836491 -0.66298956
1.8447022 0.24777447 -0.64543158
1.8582344 0.24959211 -0.63645023
1.8441733 0.24770348 -0.61584753
1.8487852 0.24832293 -0.60160524
1.8532791 0.24892649 -0.58736038
1.8481971 0.24824396 -0.57012492
1.8429532 0.24753955 -0.55303484
1.8655372 0.25057295 -0.5464285
1.8505449 0.24855927 -0.52659458
1.8645909 0.25044587 -0.51291096
1.8497872 0.24845752 -0.49138185
1.8630512 0.2502391 -0.47960469
1.8575039 0.24949393 -0.46079493
1.851774 0.24872431 -0.44211951
1.8458631 0.24793038 -0.42358032
1.9026529 0.30135071 -1.200833
1.8804843 0.29783958 -1.161021
1.8807042 0.29787439 -1.1413249
1.8722461 0.29653478 -1.1165845
1.8806032 0.29785836 -1.1020944
1.8705264 0.29626238 -1.0797035
1.8786238 0.29754496 -1.0651944
1.8779393 0.29743648 -1.045837
1.8770906 0.29730201 -1.0265193
1.8760432 0.29713613 -1.0073092
1.874833 0.29694438 -0.98814213
1.889971 0.2993421 -0.98025668
1.8796513 0.29770756 -0.95665103
1.8868194 0.29884291 -0.94207501
1.8938614 0.29995817 -0.92747742
1.8829608 0.29823172 -0.90422148
1.8798141 0.29773337 -0.8874985
1.887392 0.29893357 -0.87085593
1.8767803 0.29725277 -0.84601235
1.8740453 0.29681963 -0.82749748
1.8893218 0.29923928 -0.81689602
1.8771955 0.29731864 -0.79456854
1.8922813 0.29970795 -0.78380275
1.8881419 0.2990523 -0.7675209
1.8754816 0.2970472 -0.74560827
1.8810564 0.29793018 -0.73107076
1.8772614 0.29732898 -0.71301144
1.8640423 0.29523537 -0.69157964
1.8598983 0.29457888 -0.67379624
1.8556067 0.29389921 -0.65608448
1.8791935 0.29763505 -0.64818585
1.8659555 0.29553834 -0.62527376
1.8900806 0.29935947 -0.61488187
1.8670201 0.29570696 -0.58923125
1.8613408 0.29480752 -0.57393342
1.8561496 0.29398528 -0.55667019
1.8697803 0.2961441 -0.54508758
1.8643293 0.29528078 -0.5279066
1.8592737 0.29448012 -0.50880533
1.8731451 0.29667708 -0.49488357
1.8768187 0.29725888 -0.48040459
1.8712915 0.29638353 -0.46143767
1.865581 0.29547903 -0.4426052
1.8693249 0.29607186 -0.42610535
1.8628355 0.29504409 -0.40950298
1.8796149 0.34327871 -1.1881528
1.8800817 0.34336394 -1.1683295
1.8888127 0.34495854 -1.1536855
1.8647403 0.34056211 -1.1165845
1.8657354 0.3407439 -1.0950001
1.8653401 0.34067166 -1.0755692
1.8550488 0.33879215 -1.053382
1.8715407 0.34180409 -1.0437458
1.8717641 0.34184492 -1.0223706
1.8717633 0.3418448 -1.0010713
1.8802859 0.34340125 -0.98442906
1.8876172 0.34474021 -0.96982223
1.8870529 0.3446371 -0.94860774
1.8941314 0.34592992 -0.93391591
1.8843001 0.34413427 -0.90850693
1.8652534 0.34065586 -0.87913769
1.8727294 0.34202117 -0.86255783
1.8881378 0.34483534 -0.85207063
1.8674262 0.34105265 -0.82541066
1.8925513 0.34564131 -0.81662816
1.8722242 0.3419289 -0.78832799
1.8880414 0.34481758 -0.77543575
1.8763207 0.34267706 -0.75132763
1.8727231 0.34202003 -0.73316443
1.8881564 0.34483865 -0.72003615
1.8757849 0.3425791 -0.69639808
1.8724225 0.34196505 -0.67638326
1.8781574 0.34301254 -0.65974748
1.8650987 0.34062752 -0.63669449
1.8611408 0.3399047 -0.6170246
1.8844776 0.34416679 -0.60859954
1.8607953 0.33984163 -0.5851059
1.8745607 0.34235564 -0.57351071
1.8605242 0.33979204 -0.55126327
1.8557177 0.33891419 -0.53202343
1.869705 0.34146878 -0.51817161
1.8645691 0.34053078 -0.49901992
1.858727 0.33946392 -0.48207688
1.862298 0.34011605 -0.46761879
1.8466165 0.33725199 -0.44851863
1.8494647 0.33777222 -0.43622312
1.8622904 0.3401148 -0.42402405
1.8654176 0.34068576 -0.40957305
1.886345 0.39064342 -1.200833
1.8810874 0.3895545 -1.1714337
1.8813827 0.38961571 -1.151607
1.8827091 0.38989031 -1.1297308
1.8922912 0.39187467 -1.1129097
1.8761455 0.38853109 -1.0812594
1.876744 0.38865513 -1.0596598
1.8760158 0.38850433 -1.0402062
1.8761871 0.38853973 -1.0187534
1.8848212 0.39032787 -1.0019946
1.8758618 0.38847238 -0.9760797
1.8753679 0.38837016 -0.95486343
1.8824449 0.38983566 -0.9402287
1.898257 0.39311016 -0.92983043
1.8962853 0.39270192 -0.91076225
1.8871536 0.39081079 -0.88335639
1.8936961 0.39216554 -0.86863196
1.9001429 0.3935008 -0.85382313
1.8794863 0.38922298 -0.82712573
1.893765 0.39217997 -0.81844324
1.8726957 0.38781673 -0.79215485
1.8694823 0.38715124 -0.77378941
1.8752201 0.3883394 -0.75917232
1.8907701 0.39155978 -0.74603611
1.8879085 0.39096713 -0.72563523
1.8940375 0.39223632 -0.70878315
1.8716164 0.38759324 -0.68390322
1.8681411 0.38687339 -0.66391122
1.8922951 0.39187536 -0.65364593
1.8885057 0.39109072 -0.63363612
1.8845189 0.3902652 -0.61374384
1.8709819 0.38746187 -0.59101605
1.8847282 0.39030847 -0.57927459
1.8796017 0.38924679 -0.56176907
1.8837519 0.39010623 -0.54707921
1.8877831 0.39094117 -0.53239107
1.8633374 0.38587871 -0.50987363
1.8665655 0.38654718 -0.49740851
1.8612485 0.38544604 -0.47831491
1.8557484 0.384307 -0.45935416
1.8596029 0.38510534 -0.44279879
1.8633159 0.38587418 -0.42620972
1.8861758 0.4371922 -1.2039949
1.9046568 0.44147575 -1.1922592
1.9063585 0.44187039 -1.1700205
1.9006268 0.44054174 -1.1406753
1.8921715 0.43858194 -1.1157652
1.8834387 0.43655777 -1.091089
1.8915092 0.4384284 -1.0762775
1.8897799 0.4380275 -1.0587556
1.8975915 0.43983817 -1.0439293
1.8966891 0.43962896 -1.0243521
1.9042448 0.44138032 -1.0094727
1.8856379 0.43706751 -0.98093897
1.8939054 0.4389838 -0.9640103
1.8932633 0.43883491 -0.94264406
1.9012048 0.44067574 -0.92564857
1.907066 0.44203418 -0.91285557
1.9147537 0.44381618 -0.89573753
1.9133961 0.44350135 -0.87448388
1.9118235 0.44313693 -0.8533231
1.9181082 0.44459367 -0.83833021
1.9153032 0.44394356 -0.81940711
1.9213357 0.44534165 -0.80438793
1.9001253 0.44042552 -0.77817076
1.9141178 0.44366872 -0.7690329
1.9106776 0.44287127 -0.75045091
1.8979607 0.43992364 -0.72843146
1.9033177 0.44116542 -0.71355075
1.8994002 0.4402574 -0.69523567
1.9037921 0.44127533 -0.68245977
1.8903649 0.43816307 -0.66108507
1.8952328 0.43929139 -0.64623183
1.9092474 0.44253978 -0.63445473
1.8953347 0.43931511 -0.61343998
1.8998375 0.44035873 -0.5985831
1.8849506 0.4369081 -0.5800631
1.8892152 0.43789658 -0.56525475
1.8839869 0.43668482 -0.54772222
1.8979673 0.43992516 -0.53346574
1.8741763 0.43441084 -0.50877362
1.9067481 0.44196054 -0.4993822
1.8825407 0.4363496 -0.47512013
1.8770282 0.4350718 -0.45593575
1.8803687 0.43584606 -0.44119313
1.8931053 0.43879828 -0.42861232
1.8949753 0.48654705 -1.1901429
1.8966442 0.48697555 -1.1679022
1.8813587 0.48305088 -1.135628
1.8801241 0.48273391 -1.1179003
1.8799163 0.48268056 -1.0981047
1.8879737 0.48474932 -1.0832695
1.8970581 0.48708183 -1.0662184
1.8974508 0.48718268 -1.0443816
1.8890332 0.48502147 -1.0179921
1.906191 0.48942673 -1.0054836
1.8876039 0.48465443 -0.97696531
1.8947663 0.48649341 -0.96207315
1.9018345 0.48830807 -0.94709074
1.8922465 0.4858464 -0.92138857
1.8999623 0.48782748 -0.9043051
1.8977606 0.48726225 -0.8852005
1.9051704 0.48916465 -0.86806875
1.9035401 0.48874599 -0.84691334
1.9008312 0.48805052 -0.82797784
1.9167138 0.49212855 -0.81462729
1.9145379 0.49156982 -0.79360163
1.9121532 0.49095756 -0.77267754
1.9186114 0.49261564 -0.75542039
1.9067638 0.48957378 -0.73114246
1.9045058 0.48899403 -0.70840847
1.9287026 0.49520668 -0.69783723
1.9063182 0.48945937 -0.67288959
1.9119332 0.49090102 -0.65568882
1.898966 0.48757163 -0.6322993
1.913482 0.49129876 -0.61815256
1.9186339 0.49262145 -0.60088933
1.8957609 0.48674861 -0.57512265
1.9092679 0.4902167 -0.56292391
1.8947132 0.48647961 -0.54249394
1.8986657 0.48749456 -0.52755845
1.9025164 0.48848322 -0.51255798
1.8968571 0.48703018 -0.49511087
1.8905494 0.48541054 -0.4798952
1.8940475 0.48630866 -0.46496019
1.8879873 0.4847528 -0.44779319
1.8817914 0.4831619 -0.43071494
1.8943906 0.48639682 -0.41797426
