# .PCD v0.7 - Point Cloud Data file format
VERSION 0.7
FIELDS x y z
SIZE 4 4 4
TYPE F F F
COUNT 1 1 1
WIDTH 1452
HEIGHT 1
VIEWPOINT 0 0 0 1 0 0 0
POINTS 1452
DATA ascii
1.1181113 -0.45288169 -1.1548269
1.1127545 -0.45071197 -1.1318728
1.1082686 -0.44889498 -1.1077608
1.1103324 -0.44973087 -1.0905522
1.1122025 -0.45048836 -1.0733896
1.1149561 -0.45160371 -1.0549535
1.1094034 -0.44935462 -1.0313605
1.1035548 -0.44698569 -1.0079535
1.1126653 -0.45067582 -0.99622649
1.1063129 -0.4481028 -0.97307527
1.1151217 -0.45167071 -0.96129978
1.1073148 -0.44850862 -0.9397307
1.1139408 -0.45119244 -0.93057036
1.1131152 -0.45085803 -0.91531509
1.119568 -0.45347169 -0.90610766
1.1184843 -0.4530327 -0.89092898
1.1247641 -0.45557627 -0.88167799
1.1300886 -0.45773292 -0.87371665
1.1286572 -0.45715317 -0.85862923
1.1270922 -0.45651928 -0.84359533
1.1253674 -0.45582068 -0.82865894
1.1312059 -0.45818549 -0.81935298
1.1214962 -0.45425266 -0.79899985
1.1271247 -0.45653242 -0.78972673
1.124863 -0.45561638 -0.77504647
1.131089 -0.45813817 -0.76442617
1.1293314 -0.45742619 -0.74851328
1.127403 -0.45664519 -0.73269212
1.0927012 -0.41289729 -1.4985058
1.099077 -0.41530657 -1.4804224
1.0934832 -0.41319287 -1.4467778
1.0978628 -0.4148477 -1.4300694
1.0960552 -0.41416469 -1.4057136
1.1000311 -0.41566706 -1.3890833
1.097713 -0.41479114 -1.3649082
1.0951365 -0.41381758 -1.3408322
1.1046709 -0.41742027 -1.3318642
1.1043108 -0.41728419 -1.3053626
1.1085898 -0.41890112 -1.2876531
1.0998751 -0.41560817 -1.2553663
1.103627 -0.41702583 -1.2378193
1.1136895 -0.42082819 -1.2274767
1.1248986 -0.42506373 -1.2157401
1.1215078 -0.42378244 -1.1911039
1.1123 -0.42030314 -1.1583322
1.1137818 -0.42086306 -1.1423066
1.1094514 -0.41922674 -1.1181532
1.1116747 -0.42006689 -1.1009647
1.1067848 -0.41821912 -1.0770886
1.1096528 -0.41930285 -1.0587519
1.1112202 -0.41989508 -1.0417665
1.0984223 -0.41505915 -1.0117778
1.1137794 -0.42086217 -1.0079535
1.114773 -0.42123762 -0.99113059
1.1228213 -0.4242788 -0.9806934
1.1016028 -0.41626093 -0.94514453
1.1239686 -0.4247123 -0.94721389
1.1159136 -0.42166856 -0.92576045
1.1141301 -0.42099461 -0.91185397
1.1131474 -0.42062333 -0.89670449
1.1119992 -0.42018941 -0.88164544
1.1107154 -0.41970432 -0.86663693
1.1320617 -0.42777041 -0.86922306
1.1238241 -0.42465773 -0.84710401
1.1306964 -0.4272545 -0.83658791
1.1211812 -0.42365897 -0.81606728
1.1200223 -0.42322108 -0.80002123
1.1335149 -0.42831957 -0.79635817
1.1313202 -0.42749023 -0.78164369
1.1447589 -0.43256831 -0.77776074
1.1257135 -0.42537159 -0.75380915
1.1397946 -0.43069243 -0.74851328
1.0870966 -0.38176107 -1.4981921
1.092062 -0.38350481 -1.4814603
1.0968257 -0.3851777 -1.4647565
1.0940201 -0.3841925 -1.4415325
1.0819372 -0.37994924 -1.4004108
1.0813444 -0.37974107 -1.3749876
1.1048324 -0.38798952 -1.3801845
1.0914878 -0.38330317 -1.3396391
1.0948973 -0.38450053 -1.3232381
1.099468 -0.3861056 -1.3056005
1.1038319 -0.38763809 -1.2879796
1.0823718 -0.38010186 -1.2410052
1.1054782 -0.38821623 -1.2455145
1.0895931 -0.3826378 -1.2063479
1.1048187 -0.38798469 -1.2046757
1.1080604 -0.38912314 -1.1873018
1.1177939 -0.39254126 -1.177008
1.1139401 -0.39118788 -1.1526532
1.1097713 -0.38972384 -1.1284604
1.1133074 -0.3909657 -1.1099966
1.1154759 -0.39172727 -1.0928693
1.1185453 -0.39280507 -1.0745047
1.1143473 -0.39133093 -1.0495189
1.115839 -0.39185473 -1.0325954
1.1110059 -0.39015743 -1.0079399
1.1038144 -0.38763204 -0.98601985
1.1118908 -0.39046827 -0.9757731
1.1125633 -0.39070433 -0.95914197
1.1047037 -0.38794428 -0.93761891
1.1188438 -0.39290988 -0.93483198
1.1106305 -0.39002562 -0.91349876
1.109689 -0.38969493 -0.89840329
1.1170437 -0.39227778 -0.88810557
1.1234022 -0.39451069 -0.87904996
1.1305972 -0.39703745 -0.86862612
1.1223316 -0.39413479 -0.84653974
1.1284046 -0.39626747 -0.83742172
1.134398 -0.39837217 -0.82827574
1.1325284 -0.39771563 -0.81345046
1.1383493 -0.39975974 -0.80427188
1.1362264 -0.39901426 -0.78954238
1.1331537 -0.39793515 -0.77621561
1.1307434 -0.39708874 -0.76166916
1.120958 -0.39365235 -0.7406019
1.1109129 -0.3901248 -0.71977448
1.0984592 -0.35691094 -1.5086423
1.0875502 -0.3533664 -1.4669584
1.0937713 -0.35538781 -1.4490906
1.0938022 -0.35539782 -1.4234427
1.0949528 -0.35577172 -1.3966407
1.0792334 -0.35066417 -1.3583777
1.0966269 -0.35631558 -1.3560416
1.1016157 -0.35793656 -1.3383663
1.1050133 -0.35904053 -1.3219817
1.1032617 -0.35847133 -1.2968854
1.0947765 -0.35571441 -1.2645283
1.0923029 -0.3549107 -1.239763
1.0960268 -0.35612065 -1.222417
1.0995463 -0.35726425 -1.2050976
1.1028622 -0.3583416 -1.1878072
1.1273298 -0.3662917 -1.1905284
1.116861 -0.36289015 -1.1590651
1.1207856 -0.36416531 -1.1405363
1.1164258 -0.36274871 -1.116426
1.1187005 -0.36348778 -1.0993115
1.1207765 -0.36416233 -1.0822409
1.1155945 -0.36247858 -1.0585169
1.117221 -0.36300707 -1.0416059
1.1258233 -0.36580211 -1.0313151
1.1198895 -0.36387414 -1.0079399
1.1282122 -0.36657831 -0.99762589
1.1448193 -0.37197432 -0.99228215
1.1392256 -0.37015685 -0.9678579
1.146229 -0.37243235 -0.95867264
1.1466473 -0.37256828 -0.94196218
1.1308302 -0.36742893 -0.91445023
1.1364981 -0.36927053 -0.90664852
1.1354361 -0.36892548 -0.89150375
1.1342062 -0.36852589 -0.87645024
1.1337247 -0.3683694 -0.86015838
1.1321905 -0.36787093 -0.84523129
1.1313598 -0.36760101 -0.82909268
1.1381978 -0.36982283 -0.81868017
1.1370527 -0.36945072 -0.8026315
1.1198444 -0.36385947 -0.77566427
1.1342268 -0.36853251 -0.77078754
1.1157049 -0.36251444 -0.74557757
1.1364417 -0.3692522 -0.74850065
1.1426105 -0.37125662 -0.73804456
1.1242521 -0.36529163 -0.71205288
1.0890911 -0.32570723 -1.4848217
1.083793 -0.32412276 -1.4511846
1.0928696 -0.32683733 -1.4437498
1.0914181 -0.3264032 -1.4193898
1.1138654 -0.33311635 -1.4261618
1.0998371 -0.32892096 -1.3864232
1.091437 -0.32640883 -1.3546668
1.1151816 -0.33350995 -1.359868
1.1125376 -0.33271927 -1.3358361
1.1109669 -0.33224952 -1.3106726
1.0898288 -0.32592788 -1.2633463
1.0938771 -0.32713854 -1.2459989
1.0977188 -0.32828751 -1.2286743
1.0922402 -0.32664904 -1.2066116
1.108927 -0.33163947 -1.2038256
1.105549 -0.3306292 -1.1793836
1.1153672 -0.3335655 -1.169269
1.1182818 -0.33443719 -1.1520405
1.1152853 -0.33354101 -1.1266273
1.124662 -0.33634523 -1.116426
1.1211041 -0.33528119 -1.0911975
1.1160573 -0.33377188 -1.0674326
1.1178193 -0.33429888 -1.0505352
1.113273 -0.33293915 -1.0258044
1.121807 -0.33549139 -1.0156251
1.1073569 -0.33116984 -0.9871611
1.1072056 -0.33112463 -0.97188067
1.1069119 -0.33103681 -0.95664024
1.1138701 -0.33311778 -0.94780058
1.1207793 -0.33518404 -0.93888533
1.1210623 -0.33526862 -0.92245013
1.128732 -0.33756238 -0.91220385
1.1201251 -0.33498842 -0.89106834
1.1189544 -0.33463824 -0.87610412
1.1330315 -0.3388482 -0.87311041
1.131642 -0.33843264 -0.85816658
1.1369989 -0.34003469 -0.85041755
1.13535 -0.33954158 -0.8355788
1.1414366 -0.34136188 -0.82649541
1.1395293 -0.34079143 -0.81174749
1.1374868 -0.34018058 -0.79705769
1.135283 -0.33952153 -0.78246886
1.1337411 -0.33906043 -0.76666111
1.1320219 -0.33854634 -0.75094146
1.1374886 -0.34018114 -0.74188709
1.1109724 -0.33225119 -0.71059811
1.0874884 -0.29750311 -1.4793447
1.074744 -0.29401663 -1.4390551
1.0927874 -0.29895273 -1.4371301
1.0927676 -0.2989473 -1.4115911
1.0924022 -0.29884738 -1.386163
1.1040283 -0.30202791 -1.376227
1.1031058 -0.30177557 -1.3509216
1.1067238 -0.30276528 -1.334577
1.116532 -0.30544856 -1.3257667
1.1212417 -0.30673695 -1.3081397
1.107654 -0.30301979 -1.2670366
1.1117371 -0.30413678 -1.2496165
1.1024094 -0.30158502 -1.2176371
1.1126165 -0.30437738 -1.207617
1.1105472 -0.30381134 -1.1818984
1.1148776 -0.30499595 -1.1634541
1.1246282 -0.30766347 -1.1533233
1.1216573 -0.30685064 -1.1278864
1.1101618 -0.30370587 -1.0969975
1.1123133 -0.30429444 -1.080076
1.1213622 -0.30676994 -1.0699716
1.1160177 -0.30530781 -1.0463706
1.1247829 -0.30770576 -1.0362339
1.1189306 -0.30610472 -1.0128642
1.1200927 -0.30642268 -0.99619138
1.1210598 -0.30668724 -0.97957522
1.1198039 -0.3063437 -0.96555293
1.1353581 -0.31059885 -0.96171218
1.128365 -0.30868563 -0.93888527
1.12865 -0.30876362 -0.92245007
1.1430236 -0.31269583 -0.91962957
1.1488047 -0.31427732 -0.91185397
1.1564362 -0.31636506 -0.90142584
1.1407001 -0.31206015 -0.87311041
1.1401963 -0.31192237 -0.85688794
1.1386286 -0.31149346 -0.84201938
1.1439199 -0.31294096 -0.83427531
1.1341617 -0.3102715 -0.81382352
1.1401293 -0.31190401 -0.80481118
1.1308203 -0.30935737 -0.7833541
1.1373709 -0.31114945 -0.77309358
1.1422271 -0.31247792 -0.76535946
1.1478243 -0.31400919 -0.75630528
1.1541467 -0.31573868 -0.74589193
1.135692 -0.3106901 -0.71977448
1.0964398 -0.27235699 -1.502678
1.0973253 -0.27257696 -1.4768815
1.0978583 -0.2727094 -1.4511846
1.0980405 -0.27275461 -1.4255918
1.0917743 -0.27119812 -1.3923292
1.1005948 -0.2733891 -1.3849366
1.0984259 -0.2728503 -1.3608502
1.1022046 -0.27378899 -1.3445388
1.1058284 -0.2746892 -1.3282279
1.1206087 -0.27836058 -1.328289
1.1125232 -0.27635214 -1.2956935
1.1104664 -0.27584118 -1.2707778
1.1146297 -0.27687538 -1.2533716
1.1119647 -0.27621341 -1.2286743
1.1010088 -0.27349195 -1.1981159
1.1111138 -0.27600208 -1.1881703
1.1211343 -0.27849117 -1.1781343
1.1254526 -0.27956384 -1.1596552
1.1156491 -0.2771287 -1.1272207
1.1251533 -0.27948949 -1.1171463
1.1134306 -0.27657753 -1.0863595
1.1285557 -0.28033465 -1.0843775
1.1173366 -0.27754787 -1.0526756
1.1200948 -0.27823296 -1.0346371
1.1215321 -0.27858996 -1.0179162
1.1311679 -0.28098351 -1.0065323
1.1248487 -0.27941382 -0.98338354
1.1331342 -0.28147194 -0.97323173
1.1243013 -0.27927786 -0.95286435
1.13888 -0.2828992 -0.95027387
1.1307037 -0.28086817 -0.92882848
1.1375616 -0.28257167 -0.91989505
1.1299357 -0.28067747 -0.89742154
1.1374931 -0.28255472 -0.8872273
1.1371751 -0.28247568 -0.87099975
1.1366693 -0.28235003 -0.85484588
1.1438657 -0.28413767 -0.84459269
1.1430374 -0.28393188 -0.82852161
1.1500108 -0.28566414 -0.81821215
1.1560338 -0.28716019 -0.80915064
1.1377947 -0.28262967 -0.7833541
1.1346415 -0.28184631 -0.77016306
1.1403093 -0.28325427 -0.76122373
1.1377385 -0.28261566 -0.7468465
1.1110988 -0.27599838 -0.71539104
1.0912446 -0.24392202 -1.4738342
1.0843344 -0.2423774 -1.4414825
1.0950323 -0.24476868 -1.4329664
1.0996156 -0.24579316 -1.4165208
1.1039939 -0.24677181 -1.4001075
1.1005474 -0.24600145 -1.3771995
1.1045493 -0.246896 -1.3608502
1.1160967 -0.24947706 -1.3509216
1.1020776 -0.24634351 -1.3105875
1.1131972 -0.24882899 -1.300683
1.1177334 -0.24984293 -1.2832189
1.108934 -0.24787603 -1.2509688
1.0983632 -0.24551325 -1.2202138
1.100763 -0.24604963 -1.2042758
1.1109772 -0.24833281 -1.1943871
1.1143121 -0.24907826 -1.1772292
1.1255273 -0.25158513 -1.1659729
1.1215678 -0.25070012 -1.1417683
1.1254721 -0.25157276 -1.1234428
1.122058 -0.25080964 -1.0982624
1.1313685 -0.25289077 -1.0881872
1.1273873 -0.25200087 -1.0631995
1.1291608 -0.25239733 -1.0463706
1.1307341 -0.25274897 -1.0295914
1.1247567 -0.25141287 -1.0062872
1.1332837 -0.25331888 -0.99619138
1.1342622 -0.25353757 -0.97957522
1.1329917 -0.25325358 -0.96555293
1.1325951 -0.25316495 -0.95033473
1.1320541 -0.25304398 -0.93515897
1.146626 -0.25630119 -0.9325012
1.1381687 -0.25441071 -0.91117907
1.1458852 -0.25613564 -0.900967
1.136983 -0.25414577 -0.87993157
1.1522721 -0.25756326 -0.87568831
1.1420878 -0.25528684 -0.85613322
1.1484416 -0.25670704 -0.84716207
1.1387868 -0.25454897 -0.82660127
1.1449202 -0.2559199 -0.81765682
1.1429243 -0.25547379 -0.80303007
1.1488817 -0.25680545 -0.79405397
1.1376765 -0.25430074 -0.77525693
1.1197162 -0.25028616 -0.74866045
1.1507075 -0.25721347 -0.7547937
1.1488268 -0.2567932 -0.7391578
1.0801598 -0.21485704 -1.4615031
1.0970231 -0.21821141 -1.461001
1.0898807 -0.21679068 -1.4287273
1.0929567 -0.21740252 -1.4135706
1.0973685 -0.21828011 -1.3972244
1.1016233 -0.21912646 -1.3808727
1.1134001 -0.22146896 -1.3710185
1.1124505 -0.22128007 -1.345767
1.1175405 -0.22229257 -1.3282279
1.09387 -0.21758424 -1.2830064
1.1034356 -0.21948694 -1.2744627
1.107747 -0.2203445 -1.2571576
1.1118464 -0.22115995 -1.2398733
1.1157349 -0.22193341 -1.2226124
1.1194131 -0.22266509 -1.2053772
1.1160765 -0.22200136 -1.1809694
1.1055416 -0.2199059 -1.1495734
1.1222661 -0.22323255 -1.146772
1.1180626 -0.22239639 -1.122709
1.1217734 -0.2231345 -1.104507
1.1181015 -0.22240415 -1.0794839
1.1201178 -0.22280526 -1.0626824
1.1063594 -0.22006851 -1.0336531
1.1140593 -0.22160012 -1.0250195
1.12279 -0.22333682 -1.0150682
1.12404 -0.22358546 -0.99847054
1.132543 -0.22527677 -0.98843139
1.1249217 -0.22376084 -0.96668607
1.1321204 -0.2251927 -0.95791006
1.1326741 -0.22530285 -0.94148189
1.1330333 -0.22537425 -0.92511725
1.1409081 -0.22694069 -0.91500086
1.1409346 -0.22694594 -0.89870119
1.1398323 -0.22672668 -0.88372928
1.1385577 -0.22647312 -0.86884767
1.1450387 -0.22776231 -0.8599481
1.144408 -0.22763681 -0.84386718
1.1347054 -0.22570689 -0.82334679
1.1408454 -0.22692822 -0.81447858
1.1469049 -0.22813351 -0.80558318
1.1366732 -0.22609831 -0.78540039
1.1433519 -0.22742681 -0.77525693
1.1253021 -0.22383647 -0.74866045
1.1151462 -0.22181632 -0.72783679
1.1379455 -0.22635143 -0.72852242
1.0999517 -0.19197226 -1.4750433
1.1005622 -0.19207874 -1.4494028
1.0992736 -0.19185391 -1.4250929
1.1099733 -0.19372126 -1.4165208
1.1020107 -0.19233158 -1.3845508
1.0984318 -0.19170696 -1.3617253
1.1100961 -0.19374272 -1.3519431
1.0834371 -0.18909 -1.296306
1.1202935 -0.19552247 -1.3169334
1.1185654 -0.1952209 -1.2919366
1.1230614 -0.19600554 -1.2745253
1.1140809 -0.19443814 -1.2423435
1.1126474 -0.19418798 -1.2165142
1.1162974 -0.19482507 -1.1993428
1.1116364 -0.19401152 -1.1762329
1.1079425 -0.19336687 -1.1520299
1.1247467 -0.19629966 -1.1492656
1.1205764 -0.19557185 -1.1251935
1.116079 -0.19478689 -1.1012837
1.1266851 -0.196638 -1.0900981
1.1144435 -0.19450146 -1.0595682
1.1235098 -0.19608375 -1.0496556
1.1178776 -0.19510084 -1.0262481
1.134021 -0.19791833 -1.0229489
1.1279305 -0.19685534 -0.99971014
1.1343521 -0.19797608 -0.99219489
1.1278011 -0.19683275 -0.96918601
1.120942 -0.19563562 -0.94636977
1.1290349 -0.1970481 -0.93640393
1.1447245 -0.19978637 -0.93262601
1.1372259 -0.19847763 -0.91006815
1.1372169 -0.19847605 -0.89383727
1.1448575 -0.19980952 -0.88372928
1.152411 -0.20112789 -0.87355399
1.1351271 -0.1981113 -0.84684038
1.1574357 -0.20200479 -0.84972739
1.1477342 -0.20031162 -0.82914501
1.1467427 -0.20013864 -0.81321943
1.1374408 -0.19851516 -0.79171979
1.1433697 -0.19954987 -0.78287011
1.1500561 -0.2007169 -0.77271181
1.1318696 -0.1975428 -0.74615556
1.1457454 -0.19996451 -0.74275285
1.118693 -0.19524316 -0.71134096
1.1407936 -0.1991003 -0.71312624
1.0988945 -0.16521129 -1.491555
1.105747 -0.16624153 -1.4738342
1.0942414 -0.16451174 -1.4323658
1.0989321 -0.16521695 -1.4159985
1.1034156 -0.16589102 -1.3996621
1.1015177 -0.16560572 -1.3755485
1.0978501 -0.16505426 -1.3527684
1.109482 -0.16680306 -1.3430288
1.1224555 -0.16875356 -1.3319595
1.1079891 -0.16657861 -1.2917863
1.1073825 -0.1664875 -1.2657353
1.1248801 -0.16911812 -1.2633463
1.110325 -0.16692983 -1.2226663
1.1005778 -0.16546442 -1.1909031
1.1176276 -0.16802777 -1.1883918
1.1072092 -0.16646142 -1.1569263
1.1102118 -0.16691281 -1.1399866
1.1410073 -0.17154275 -1.1513363
1.1238662 -0.16896568 -1.111969
1.1262909 -0.16933022 -1.0950781
1.1296631 -0.16983718 -1.0769942
1.1244056 -0.16904679 -1.0533922
1.1261405 -0.16930759 -1.0366977
1.120303 -0.16842997 -1.0133865
1.1215779 -0.16862163 -0.99685997
1.1301376 -0.16990849 -0.98692447
1.1375651 -0.17102522 -0.97815925
1.1307847 -0.17000583 -0.95526117
1.1379566 -0.17108405 -0.94651192
1.1373935 -0.17099941 -0.93139422
1.1443853 -0.1720506 -0.92259473
1.1513262 -0.17309409 -0.91372126
1.1503587 -0.17294866 -0.89870119
1.1571188 -0.17396498 -0.88978225
1.1489061 -0.17273024 -0.86757076
1.1483743 -0.17265028 -0.85148597
1.1637042 -0.17495501 -0.84716207
1.1458516 -0.17227106 -0.82082081
1.1439103 -0.17197914 -0.80622107
1.1508241 -0.17301856 -0.79609585
1.1494399 -0.17281051 -0.78033614
1.1313559 -0.1700917 -0.75365955
1.1378165 -0.17106299 -0.7436471
1.1267004 -0.16939174 -0.72412205
1.162782 -0.17481638 -0.72234142
1.0911633 -0.13784593 -1.4999871
1.1143364 -0.14077333 -1.5075932
1.0973636 -0.13862917 -1.4579009
1.1023318 -0.13925681 -1.4414825
1.0994521 -0.13889304 -1.4184195
1.1116905 -0.14043909 -1.4086947
1.1051135 -0.13960826 -1.3755485
1.11067 -0.14031014 -1.3580594
1.1174468 -0.1411663 -1.3393599
1.1017989 -0.1391895 -1.3002943
1.1130146 -0.14060633 -1.2905535
1.1109976 -0.14035158 -1.2657353
1.1086365 -0.14005329 -1.241052
1.1099848 -0.14022361 -1.2263243
1.1138092 -0.14070679 -1.2091858
1.1106086 -0.14030246 -1.1848054
1.1152008 -0.14088254 -1.1665673
1.1183122 -0.14127563 -1.1495734
1.1364802 -0.14357077 -1.1455131
1.1334051 -0.14318226 -1.1202193
1.1216282 -0.14169456 -1.089391
1.132194 -0.1430293 -1.0782297
1.1269447 -0.14236617 -1.0546219
1.1298169 -0.14272904 -1.0366977
1.1239603 -0.14198917 -1.0133865
1.1177874 -0.14120933 -0.99025822
1.1338269 -0.14323559 -0.98692447
1.1196331 -0.14144251 -0.95750499
1.1278802 -0.14248434 -0.94762039
1.1263471 -0.14229068 -0.93380708
1.1333964 -0.1431812 -0.92510104
1.1335981 -0.14320675 -0.90887141
1.1414237 -0.14419529 -0.89886582
1.1334205 -0.14318419 -0.87661654
1.1409668 -0.14413759 -0.86661369
1.1315536 -0.14294842 -0.84590304
1.1290151 -0.1426277 -0.83251572
1.1191926 -0.14138688 -0.81210709
1.1414964 -0.14420451 -0.81504041
1.1476445 -0.14498122 -0.80622107
1.1537118 -0.14574768 -0.79737496
1.1515005 -0.14546831 -0.78287011
1.148298 -0.14506377 -0.76971942
1.1457863 -0.14474644 -0.75539547
1.1347938 -0.14335771 -0.73572534
1.1570973 -0.14617534 -0.73767096
1.145808 -0.14474918 -0.71817231
1.094108 -0.11210009 -1.4999871
1.1038507 -0.11309826 -1.4927566
1.1031538 -0.11302689 -1.4682903
1.1021756 -0.11292669 -1.4439032
1.1069831 -0.11341923 -1.427524
1.1039194 -0.11310533 -1.4045174
1.1207947 -0.11483434 -1.4037921
1.1140561 -0.11414392 -1.3706751
1.1131904 -0.11405528 -1.3454733
1.1184007 -0.11458907 -1.3280246
1.1104059 -0.11376993 -1.2954363
1.1150503 -0.11424581 -1.2781278
1.1194793 -0.11469959 -1.2608371
1.1183349 -0.11458229 -1.2349486
1.1154917 -0.11429106 -1.2104195
1.1136059 -0.11409782 -1.1848054
1.116954 -0.11444084 -1.1677829
1.1131349 -0.11404958 -1.1436448
1.1230205 -0.11506247 -1.1338365
1.1328207 -0.11606651 -1.123942
1.1211121 -0.1148669 -1.093075
1.1305585 -0.11583477 -1.0831988
1.1326581 -0.11604988 -1.0664041
1.134553 -0.11624401 -1.0496556
1.1362437 -0.11641722 -1.0329555
1.1377314 -0.1165697 -1.0163064
1.1315237 -0.11593366 -0.99313307
1.1314827 -0.11592948 -0.97790945
1.1388863 -0.11668807 -0.96918601
1.1385655 -0.11665511 -0.95402324
1.1447525 -0.11728907 -0.94651192
1.1529257 -0.11812645 -0.93643385
1.1532191 -0.11815649 -0.92006785
1.1533166 -0.11816651 -0.90376842
1.1601558 -0.11886729 -0.89487934
1.1589736 -0.11874611 -0.87993157
1.1585782 -0.11870564 -0.86377424
1.165113 -0.11937512 -0.85484588
1.173398 -0.12022407 -0.84331685
1.148104 -0.11763246 -0.81001234
1.1787884 -0.1207763 -0.81821215
1.1355886 -0.11635013 -0.77543604
1.1166382 -0.11440857 -0.75001985
1.1464198 -0.11745985 -0.7591607
1.1270996 -0.11548038 -0.73403716
1.1158688 -0.11432971 -0.71460855
1.1381195 -0.11660941 -0.71664947
1.0997052 -0.086548597 -1.4975841
1.1067095 -0.08709982 -1.4799013
1.0953356 -0.086204678 -1.4383701
1.1016867 -0.086704522 -1.4208338
1.1140054 -0.087674111 -1.411136
1.1026894 -0.086783446 -1.3689941
1.1067657 -0.087104239 -1.3527684
1.0993181 -0.086518146 -1.3200054
1.1043018 -0.086910345 -1.3027141
1.1076592 -0.087174572 -1.286659
1.1122292 -0.087534286 -1.2694029
1.1165839 -0.087876961 -1.2521652
1.1207238 -0.088202819 -1.2349486
1.1110998 -0.087445363 -1.2030838
1.1091383 -0.087291047 -1.1775366
1.1136819 -0.087648615 -1.1593663
1.1167459 -0.087889723 -1.1424333
1.1349324 -0.08932101 -1.138442
1.1246556 -0.088512294 -1.1062167
1.1342365 -0.089266233 -1.0963298
1.1376747 -0.089536898 -1.0782297
1.1397058 -0.089696757 -1.0614259
1.1183139 -0.088013105 -1.025684
1.1260978 -0.088625789 -1.0170786
1.1263393 -0.088644743 -1.0017993
1.1264315 -0.088652074 -0.98655605
1.1328443 -0.089156687 -0.97913969
1.1402563 -0.089740098 -0.97044426
1.1476188 -0.090319514 -0.96167231
1.1394988 -0.089680493 -0.9401595
1.1466304 -0.09024173 -0.93139422
1.1468875 -0.090261996 -0.91509658
1.1459631 -0.090189166 -0.90013033
1.1537502 -0.090802081 -0.89006484
1.1614496 -0.091407962 -0.87993157
1.1530459 -0.090746589 -0.85781717
1.152406 -0.090696223 -0.8418045
1.1506841 -0.090560742 -0.8271184
1.157836 -0.091123648 -0.81701434
1.1566961 -0.091033883 -0.80116606
1.1223587 -0.088331535 -0.76296037
1.1538568 -0.090810433 -0.76971942
1.1513329 -0.09061183 -0.75539547
1.1478584 -0.090338424 -0.7424016
1.1458479 -0.090180114 -0.72698009
1.1436572 -0.090007737 -0.71165067
1.1073607 -0.060941663 -1.5056356
1.1084543 -0.061001863 -1.4799013
1.1015352 -0.060621113 -1.4475309
1.101863 -0.060639113 -1.4220481
1.1018318 -0.060637388 -1.3966709
1.1077014 -0.060960386 -1.379196
1.1118788 -0.061190281 -1.3629311
1.1109427 -0.061138846 -1.3377849
1.1146551 -0.061343111 -1.3216206
1.1066002 -0.060899835 -1.28908
1.111215 -0.061153751 -1.2718339
1.1169909 -0.061471682 -1.2533765
1.1077288 -0.060961947 -1.2213601
1.0992802 -0.060497031 -1.188412
1.1027442 -0.06068765 -1.1714829
1.0990847 -0.060486246 -1.1473683
1.1102887 -0.061102856 -1.136497
1.1201491 -0.061645556 -1.1267501
1.1311303 -0.062249769 -1.1156921
1.1252786 -0.061927788 -1.093075
1.1275324 -0.062051766 -1.0762994
1.1295799 -0.062164478 -1.0595682
1.1314224 -0.062265869 -1.0428836
1.1330607 -0.062356051 -1.0262481
1.1355861 -0.062494989 -1.0084337
1.1282073 -0.062088966 -0.98655605
1.1281165 -0.06208396 -0.97139007
1.1365377 -0.062547386 -0.96149361
1.1371884 -0.062583208 -0.94513792
1.1376414 -0.062608182 -0.92884451
1.144698 -0.062996447 -0.92010754
1.1438373 -0.062949121 -0.90513742
1.1437924 -0.062946685 -0.8889752
1.159436 -0.063807555 -0.88500661
1.1492332 -0.063246079 -0.86536872
1.1567297 -0.063658662 -0.85529178
1.1722224 -0.064511247 -0.85101879
1.1714579 -0.064469166 -0.83494323
1.1795931 -0.064916916 -0.82337475
1.1611245 -0.063900478 -0.79737496
1.159744 -0.063824549 -0.78161371
1.1573501 -0.063692823 -0.76719248
1.1288903 -0.062126532 -0.7377311
1.126072 -0.061971381 -0.72368592
1.1035453 -0.034680214 -1.5092665
1.1090821 -0.034854259 -1.4927566
1.1099948 -0.034882873 -1.4670701
1.104443 -0.03470847 -1.4335624
1.1045634 -0.034712229 -1.4081317
1.1090351 -0.034852717 -1.3918427
1.1022373 -0.034639094 -1.358813
1.0871569 -0.034165181 -1.3194782
1.1164329 -0.035085239 -1.3341465
1.1150612 -0.035042144 -1.3091259
1.1213073 -0.035238426 -1.2905535
1.1126522 -0.03496645 -1.2582457
1.1168965 -0.035099845 -1.241052
1.1222492 -0.035267994 -1.2226663
1.1192218 -0.035172924 -1.1982092
1.1089664 -0.034850646 -1.1666529
1.1203707 -0.035208989 -1.1556945
1.1233872 -0.03530382 -1.1387515
1.1344972 -0.035652924 -1.1276724
1.1299862 -0.035511188 -1.1037529
1.1335517 -0.035623185 -1.0856756
1.1502582 -0.036148183 -1.0825893
1.136481 -0.035715278 -1.0533922
1.1371127 -0.035735186 -1.0379295
1.1461225 -0.036018308 -1.027962
1.1475447 -0.036062952 -1.0113064
1.1336488 -0.035626292 -0.9816165
1.1497821 -0.036133289 -0.97815925
1.1418781 -0.035884857 -0.95651793
1.157897 -0.036388338 -0.95286435
1.1506152 -0.036159519 -0.93014908
1.1430264 -0.035920981 -0.9076345
1.1508995 -0.0361684 -0.89762032
1.1577244 -0.036382917 -0.88879174
1.1564903 -0.036344115 -0.87390465
1.1631339 -0.036552913 -0.86503398
1.1696943 -0.036759086 -0.85613322
1.1599782 -0.036453672 -0.83547705
1.157269 -0.036368616 -0.82207417
1.1553085 -0.036306988 -0.80749255
1.1532073 -0.036240947 -0.79296881
1.1592188 -0.036429834 -0.78414583
1.1568537 -0.036355507 -0.76971942
1.1292291 -0.035487428 -0.7389738
1.1172385 -0.035110548 -0.7207256
1.1319295 -0.035572246 -0.71628916
1.1052357 -0.0086805504 -1.4835359
1.1076537 -0.0086996248 -1.4566838
1.1003915 -0.0086425254 -1.4244522
1.0942334 -0.0085942484 -1.3912151
1.0938309 -0.0085910307 -1.3660016
1.1042409 -0.0086727496 -1.3575996
1.1175035 -0.0087769395 -1.3467029
1.1227601 -0.0088181868 -1.32926
1.122712 -0.0088178907 -1.3030119
1.1142598 -0.0087514929 -1.2706094
1.1266688 -0.0088489465 -1.2596186
1.1106919 -0.0087234816 -1.2201588
1.1158234 -0.0087637752 -1.2018574
1.1069318 -0.0086938608 -1.1690707
1.1101528 -0.0087191947 -1.1521652
1.12142 -0.0088077672 -1.1412008
1.1300911 -0.0088758366 -1.1326143
1.1328071 -0.008897176 -1.1156921
1.1281286 -0.0088604018 -1.0918549
1.1242954 -0.0088303024 -1.0669497
1.1262499 -0.0088456813 -1.0502776
1.1364971 -0.0089261485 -1.0391798
1.1317614 -0.0088889571 -1.0146118
1.140572 -0.0089581581 -1.0046966
1.1266123 -0.0088484874 -0.97507238
1.1329699 -0.008898437 -0.96767765
1.1326641 -0.0088960538 -0.95257175
1.1476147 -0.0090135345 -0.95026267
1.1470783 -0.0090092439 -0.9351632
1.1473898 -0.0090116886 -0.91886646
1.1475048 -0.0090125836 -0.90263599
1.1464645 -0.0090044187 -0.8877151
1.1462076 -0.0090023335 -0.8716234
1.15377 -0.0090618199 -0.86158746
1.1612444 -0.0091205304 -0.85148597
1.1523995 -0.0090510929 -0.82963461
1.1586934 -0.0091005061 -0.82082081
1.1485265 -0.0090206368 -0.80050319
1.1463513 -0.0090035908 -0.78606468
1.1440365 -0.0089853527 -0.77168626
1.1407359 -0.0089594256 -0.75864428
1.1305636 -0.0088796159 -0.7377311
1.1285362 -0.0088636428 -0.72244543
1.1424761 -0.0089731365 -0.71914375
1.0991597 0.01726708 -1.4755168
1.0983361 0.017254144 -1.4511237
1.1093706 0.017427474 -1.4427035
1.1157523 0.017527727 -1.4250929
1.1094457 0.017428663 -1.3918427
1.1152471 0.017519739 -1.3743423
1.1208283 0.017607475 -1.3568472
1.1004478 0.017287275 -1.308746
1.1089888 0.017421445 -1.3015146
1.1203028 0.017599246 -1.2917863
1.1182973 0.017567713 -1.2669659
1.115945 0.017530756 -1.2422799
1.1078311 0.017403319 -1.2091349
1.1183392 0.017568365 -1.1994202
1.1205789 0.01760353 -1.1835934
1.1100501 0.017438125 -1.1521652
1.120061 0.017595422 -1.1424333
1.1370491 0.017862212 -1.1396931
1.1196649 0.017589161 -1.1004276
1.1352092 0.01783336 -1.0988094
1.1230177 0.017641788 -1.0681853
1.1249902 0.017672842 -1.0515153
1.126758 0.017700557 -1.0348928
1.1208986 0.017608587 -1.0116206
1.1360723 0.017846946 -1.0096638
1.1276203 0.017714145 -0.9890188
1.1275624 0.017713189 -0.97385263
1.1349732 0.017829657 -0.96520352
1.1280049 0.017720161 -0.94243884
1.1428814 0.017953871 -0.9401595
1.1422637 0.017944155 -0.92510104
1.150292 0.018070277 -0.91509658
1.1424747 0.017947432 -0.8927092
1.1502204 0.018069142 -0.88270414
1.1569185 0.018174345 -0.87390465
1.1545947 0.018137867 -0.86033845
1.1611369 0.018240683 -0.85148597
1.1513801 0.01808732 -0.83090127
1.1422681 0.017944267 -0.80925995
1.1320143 0.017783094 -0.78906745
1.1462452 0.018006731 -0.78606468
1.1439307 0.017970372 -0.77168626
1.1497824 0.018062221 -0.76293796
1.1472065 0.018021809 -0.74866045
1.1360521 0.017846569 -0.72908652
1.1238983 0.017655656 -0.71094376
1.0898243 0.042819414 -1.4943056
1.1087741 0.043563936 -1.4927566
1.0976249 0.043125898 -1.4511237
1.1041363 0.043381721 -1.4335624
1.1104256 0.043628838 -1.4159985
1.114956 0.043806877 -1.3996621
1.1082281 0.04354253 -1.3665776
1.1137379 0.043759011 -1.3491378
1.1125973 0.043714188 -1.3240529
1.1241006 0.04416611 -1.3142859
1.1130301 0.043731112 -1.284232
1.1307987 0.044429321 -1.2819595
1.1219002 0.04407962 -1.2497188
1.1260122 0.044241264 -1.232493
1.1162964 0.043859497 -1.2006493
1.1061125 0.043459367 -1.1690707
1.1093311 0.043585848 -1.1521652
1.1205901 0.044028174 -1.1412008
1.1105014 0.0436318 -1.1089559
1.1343981 0.044570692 -1.1132181
1.1236645 0.044148989 -1.0812165
1.1246163 0.044186361 -1.0657325
1.1254163 0.044217769 -1.0502776
1.1271645 0.044286493 -1.0336531
1.1287092 0.044347171 -1.0170786
1.1375349 0.044693891 -1.0071826
1.1225755 0.044106185 -0.97876388
1.1300191 0.044398606 -0.97014719
1.1373799 0.044687808 -0.96149361
1.1380312 0.044713438 -0.94513792
1.1384845 0.044731256 -0.92884451
1.1465406 0.045047756 -0.91886646
1.1456788 0.045013901 -0.9038772
1.152534 0.045283254 -0.89510608
1.1504292 0.045200523 -0.88145882
1.1491485 0.045150213 -0.86661369
1.1557196 0.04540842 -0.85781717
1.1479185 0.045101874 -0.83465511
1.1461176 0.045031123 -0.82005292
1.152348 0.045275915 -0.81126076
1.1593783 0.045552123 -0.80116606
1.1241224 0.044166911 -0.76419783
1.1473718 0.045080412 -0.76544487
1.1448287 0.044980451 -0.75116181
1.1505201 0.045204148 -0.7424016
1.122401 0.044099256 -0.71215963
1.1447551 0.04497759 -0.7141518
1.1101235 0.069843203 -1.5032125
1.0991482 0.069152683 -1.4615031
1.1102411 0.069850534 -1.4530607
1.0983107 0.069099993 -1.4117503
1.0981557 0.069090217 -1.3864273
1.0976442 0.069058023 -1.3612157
1.1094577 0.069801293 -1.3515663
1.1147798 0.070136093 -1.3341465
1.1004637 0.069235347 -1.2939035
1.1182302 0.070353173 -1.2917863
1.129438 0.071058296 -1.2819595
1.1205503 0.070499137 -1.2497188
1.1111884 0.069910124 -1.2177327
1.1136559 0.070065394 -1.2018574
1.1172267 0.070290044 -1.1848054
1.1136687 0.070066169 -1.1605744
1.1179887 0.070337959 -1.1424333
1.127896 0.070961304 -1.1326143
1.1234959 0.07068444 -1.1086752
1.1187657 0.070386894 -1.0849004
1.1354038 0.071433611 -1.0819683
1.1313611 0.071179278 -1.0570976
1.1331664 0.071292885 -1.0404091
1.1199342 0.070460379 -1.0103873
1.1275927 0.070942163 -1.0017993
1.1437998 0.07196182 -0.99847054
1.1372883 0.071552217 -0.97542572
1.1533786 0.072564483 -0.97188067
1.1464112 0.07212615 -0.94902021
1.1525856 0.072514594 -0.94148189
1.1441679 0.071985006 -0.92010754
1.1521379 0.07248646 -0.91006815
1.1600201 0.072982363 -0.89995944
1.1598697 0.072972886 -0.88372928
1.1515287 0.072448067 -0.86158746
1.1410606 0.071789496 -0.84215611
1.1393573 0.071682326 -0.82754242
1.1537628 0.072588675 -0.82459825
1.151837 0.072467498 -0.81001234
1.1497705 0.072337501 -0.79548407
1.1475368 0.072196946 -0.78105515
1.1451638 0.072047696 -0.76668698
1.1351049 0.071414813 -0.74567884
1.1155844 0.07018666 -0.7207256
1.1386883 0.071640238 -0.72163463
1.0892433 0.094338804 -1.4674977
1.1064008 0.095824808 -1.4670701
1.0977486 0.095075399 -1.4359697
1.1163247 0.096684307 -1.4341797
1.1101452 0.096149117 -1.4008688
1.1097425 0.096114241 -1.3755485
1.1075052 0.095920466 -1.3515663
1.1177663 0.096809171 -1.3430288
1.1229464 0.097257815 -1.3255687
1.1213887 0.09712287 -1.3005593
1.1194826 0.096957825 -1.2756793
1.1238805 0.097338691 -1.258379
1.1132901 0.096421435 -1.2275537
1.1103789 0.096169308 -1.2030838
1.1221026 0.097184733 -1.1920742
1.1186138 0.096882597 -1.1677829
1.1217564 0.097154692 -1.1507925
1.1317188 0.098017581 -1.140923
1.1345041 0.098258801 -1.123942
1.1311148 0.097965248 -1.0988094
1.1334056 0.098163612 -1.0819683
1.1293702 0.09781415 -1.0570976
1.1311723 0.097970195 -1.0404091
1.1327709 0.098108649 -1.02377
1.1256083 0.097488344 -1.0017993
1.1417869 0.09888947 -0.99847054
1.1352869 0.098326504 -0.97542572
1.1426824 0.098967075 -0.96668607
1.1346617 0.098272443 -0.94513792
1.1418266 0.098892927 -0.93640393
1.1411458 0.098833978 -0.92136759
1.1471291 0.099352241 -0.91385114
1.1471732 0.099356048 -0.89762032
1.1470228 0.099342994 -0.88145882
1.1537025 0.099921517 -0.87263185
1.1602997 0.10049289 -0.86377424
1.1578664 0.10028213 -0.85022885
1.1481369 0.099439435 -0.82963461
1.1544075 0.099982612 -0.82082081
1.1606251 0.10052114 -0.81193894
1.1676399 0.10112863 -0.8017419
1.1571672 0.10022162 -0.78161371
1.1547782 0.10001467 -0.76719248
1.1271764 0.097624108 -0.73650724
1.1327527 0.098107085 -0.72783679
1.1298187 0.09785293 -0.71381676
1.151381 0.099720463 -0.71692216
1.0942687 0.12080848 -1.4743072
1.0994058 0.12137565 -1.4579009
1.0937799 0.12075451 -1.4244522
1.1122386 0.12279236 -1.422655
1.1183232 0.12346414 -1.4050301
1.1179069 0.12341817 -1.3796566
1.1156791 0.12317225 -1.3556138
1.1209893 0.12375849 -1.3381206
1.1131381 0.12289172 -1.3054582
1.1113445 0.12269368 -1.2805701
1.1303861 0.12479588 -1.2770095
1.1147197 0.12306626 -1.2373983
1.103896 0.12187137 -1.2067149
1.1169139 0.12330852 -1.1945285
1.1053406 0.12203081 -1.1642295
1.1153969 0.12314107 -1.1544808
1.1253681 0.1242419 -1.1446441
1.1211513 0.12377632 -1.1206244
1.1237166 0.12405954 -1.1037529
1.1332476 0.12511177 -1.093845
1.1221569 0.12388734 -1.0620338
1.1167284 0.12328804 -1.0385653
1.1267999 0.12439991 -1.0274953
1.1419898 0.12607694 -1.0254579
1.1358949 0.125404 -1.0022057
1.1370147 0.12552768 -0.98566729
1.1379348 0.12562925 -0.96918601
1.1386561 0.12570888 -0.95276415
1.1468769 0.12661642 -0.94273102
1.1395068 0.12580281 -0.92010754
1.1386501 0.12570816 -0.90513742
1.1445138 0.12635553 -0.89762032
1.1513009 0.12710488 -0.88879174
1.1500736 0.1269694 -0.87390465
1.1646574 0.12857944 -0.87099975
1.172168 0.1294086 -0.86074138
1.1634306 0.128444 -0.83876795
1.1706614 0.12924229 -0.82852161
1.1605625 0.12812732 -0.80813247
1.1593059 0.12798862 -0.79229337
1.1578636 0.12782942 -0.77653831
1.1562368 0.12764971 -0.76086932
1.1460615 0.1265264 -0.73988783
1.0899259 0.14639547 -1.4627131
1.1025352 0.14808911 -1.4530606
1.1089674 0.14895305 -1.4354107
1.0966951 0.14730468 -1.39426
1.1024833 0.14808211 -1.3767723
1.112882 0.14947882 -1.3682286
1.1197672 0.15040368 -1.3494815
1.1185392 0.15023868 -1.3243482
1.1039749 0.14828248 -1.2842319
1.1215991 0.15064965 -1.2819595
1.1193966 0.15035383 -1.2571576
1.1075121 0.14875756 -1.2275536
1.1180868 0.15017791 -1.2177554
1.116279 0.14993514 -1.1920742
1.1128081 0.14946891 -1.1677828
1.1159345 0.14988883 -1.1507925
1.1340685 0.15232451 -1.146772
1.1227595 0.15080549 -1.1156921
1.1264411 0.15130006 -1.0975603
1.1226635 0.15079263 -1.0726081
1.1246419 0.15105838 -1.0558703
1.1348702 0.1524322 -1.0446693
1.1353616 0.15249819 -1.0292222
1.1367899 0.15269002 -1.0125682
1.1294686 0.15170667 -0.99064916
1.1369241 0.15270811 -0.98192853
1.1291738 0.15166712 -0.9602415
1.1363995 0.1526376 -0.95152396
1.1359005 0.15257058 -0.93640393
1.1516855 0.15469077 -0.93262601
1.1431488 0.15354413 -0.91133696
1.1578434 0.15551788 -0.90863252
1.1489393 0.15432194 -0.88753784
1.1477147 0.15415743 -0.87263185
1.1463171 0.15396968 -0.85781717
1.1527829 0.15483817 -0.84895039
1.1430672 0.15353318 -0.82838702
1.1412163 0.15328453 -0.81377476
1.1464705 0.15399025 -0.80622107
1.1525314 0.15480433 -0.79737496
1.1421059 0.15340404 -0.77727818
1.1644654 0.15640728 -0.77952355
1.1545509 0.15507562 -0.75832969
1.1276536 0.1514629 -0.72660601
1.1583064 0.15558003 -0.73384011
1.1115385 0.17605054 -1.4934484
1.1183556 0.17713028 -1.4756372
1.0990781 0.174077 -1.4275239
1.097561 0.17383671 -1.4032964
1.1034154 0.17476395 -1.3857604
1.1090516 0.17565659 -1.3682286
1.1066785 0.17528075 -1.3442615
1.1104141 0.17587242 -1.3280245
1.120386 0.1774518 -1.3194112
1.1317154 0.1792462 -1.309462
1.1166838 0.17686544 -1.2695415
1.1275836 0.1785918 -1.2596269
1.0969297 0.17373671 -1.2067147
1.1098653 0.1757855 -1.1945283
1.1188315 0.17720561 -1.1859232
1.1221263 0.17772751 -1.1688221
1.1391035 0.18041639 -1.1659728
1.1421031 0.18089141 -1.1488161
1.1307596 0.17909487 -1.1177243
1.1344179 0.17967422 -1.0995058
1.1294633 0.17888951 -1.0757372
1.1180505 0.17708188 -1.0441288
1.1354553 0.17983854 -1.039663
1.13699 0.18008164 -1.0229487
1.1393985 0.18046305 -1.0050393
1.1394571 0.18047237 -0.98968035
1.1317887 0.17925778 -0.96794659
1.1466578 0.18161282 -0.96555293
1.1472878 0.18171257 -0.94905806
1.1477214 0.18178126 -0.93262601
1.1479595 0.18181896 -0.91625911
1.1636227 0.1842998 -0.91220379
1.1468942 0.18165028 -0.88500661
1.1544785 0.18285149 -0.87483972
1.1619749 0.18403882 -0.86460626
1.1613734 0.18394354 -0.84845549
1.1596922 0.18367724 -0.83365273
1.1659384 0.18466653 -0.82467324
1.173002 0.18578525 -0.81434041
1.1545513 0.18286301 -0.78846204
1.1604574 0.18379842 -0.77952355
1.1580374 0.18341516 -0.76505446
1.1471417 0.18168946 -0.74528849
1.1602823 0.1837707 -0.74301636
1.1582491 0.18344869 -0.72746515
1.117817 0.20414975 -1.4977341
1.0990196 0.20071676 -1.4494027
1.1098624 0.20269698 -1.4408396
1.1206652 0.20466989 -1.4321729
1.112831 0.20323911 -1.4001074
1.1031246 0.20146641 -1.3694624
1.1133908 0.20334139 -1.3608501
1.1108731 0.20288157 -1.3368993
1.1144892 0.20354198 -1.3206378
1.1257838 0.20560469 -1.3107011
1.1173893 0.2040716 -1.2782393
1.123063 0.20510782 -1.2596269
1.1204944 0.20463867 -1.234915
1.1175879 0.20410793 -1.2103457
1.1143461 0.20351578 -1.1859232
1.1176277 0.20411517 -1.1688221
1.1345369 0.20720325 -1.1659728
1.1387663 0.20797573 -1.147544
1.1356763 0.20741142 -1.1221941
1.1381532 0.20786379 -1.1051695
1.1344212 0.20718217 -1.0800759
1.1291734 0.20622373 -1.0564275
1.1309031 0.20653966 -1.039663
1.1335199 0.20701757 -1.0217025
1.1348305 0.20725688 -1.0050393
1.1444906 0.20902121 -0.99365556
1.129326 0.20625165 -0.96544433
1.1451548 0.20914248 -0.96175873
1.1380911 0.20785239 -0.93896008
1.1461084 0.20931661 -0.92882848
1.1462929 0.20935035 -0.91246086
1.1462846 0.2093488 -0.89616114
1.1460842 0.20931223 -0.87993157
1.1456931 0.20924079 -0.86377424
1.1601012 0.2118721 -0.86074138
1.1594498 0.21175322 -0.84459269
1.1577133 0.21143605 -0.8298161
1.1558369 0.21109332 -0.81509542
1.1529409 0.21056445 -0.8017419
1.1589227 0.21165694 -0.79277962
1.1566474 0.21124138 -0.7782312
1.1624528 0.21230166 -0.76924092
1.1599184 0.21183874 -0.7547937
1.1488972 0.20982592 -0.73512471
1.1536056 0.21068586 -0.72746515
1.1030744 0.22843584 -1.5051391
1.0965276 0.22708005 -1.4726037
1.1150645 0.23091885 -1.4706826
1.1078544 0.22942573 -1.4383749
1.1063641 0.2291171 -1.4140592
1.1107223 0.23001969 -1.3976362
1.1149234 0.23088965 -1.3812081
1.1049178 0.22881758 -1.3507031
1.122761 0.23251277 -1.3484232
1.1214246 0.23223595 -1.3232434
1.1262168 0.23322837 -1.3056952
1.1294073 0.23388909 -1.2894319
1.1206074 0.23206671 -1.2571332
1.1179978 0.23152627 -1.2324271
1.1284865 0.23369838 -1.2224169
1.118552 0.2316411 -1.1906651
1.1218435 0.23232268 -1.1734961
1.1330805 0.23464982 -1.1621823
1.1359991 0.23525418 -1.1450157
1.1328692 0.23460601 -1.1196728
1.1423939 0.23657854 -1.1095343
1.1303689 0.23408824 -1.0788274
1.1395447 0.23598847 -1.0687127
1.1413639 0.23636523 -1.0518173
1.1356548 0.23518291 -1.0283369
1.1370158 0.23546478 -1.0116082
1.1466944 0.23746911 -1.00015
1.1401947 0.23612303 -0.97703725
1.1333885 0.23471355 -0.95411742
1.1414986 0.23639303 -0.94398063
1.1408588 0.23626056 -0.92882848
1.1467872 0.23748824 -0.92118329
1.1536493 0.23890933 -0.91220379
1.1526403 0.23870039 -0.89713001
1.1524231 0.23865542 -0.88083178
1.1510987 0.23838115 -0.86587882
1.1575321 0.23971346 -0.85688788
1.1639127 0.24103478 -0.84782636
1.1550705 0.23920371 -0.82595015
1.1459445 0.23731379 -0.80429691
1.1446557 0.23704682 -0.78846204
1.1513495 0.23843311 -0.7782312
1.1645133 0.24115916 -0.77598381
1.1537923 0.23893888 -0.75608975
1.1594183 0.240104 -0.74706036
1.1566429 0.2395293 -0.73273665
1.1537337 0.23892681 -0.71847934
1.1089832 0.25704861 -1.4835707
1.1155554 0.25857198 -1.4657
1.1219087 0.26004457 -1.4478251
1.1035208 0.25578246 -1.3988627
1.1062361 0.25641188 -1.3836887
1.1164848 0.25878739 -1.3749875
1.1078086 0.25677639 -1.3432891
1.1191859 0.25941345 -1.3333144
1.1176318 0.25905326 -1.3082013
1.1222235 0.2601175 -1.2906792
1.1266031 0.26113272 -1.2731751
1.1030059 0.25566316 -1.2275643
1.1187748 0.25931814 -1.2261716
1.1022713 0.25549287 -1.1871482
1.119104 0.25939441 -1.1844072
1.1372181 0.26359308 -1.180192
1.133386 0.26270485 -1.1558641
1.1361985 0.26335672 -1.1386815
1.1317761 0.26233175 -1.1146141
1.1341203 0.26287508 -1.0975735
1.1445718 0.26529759 -1.0860811
1.1321281 0.26241329 -1.0556159
1.1348854 0.26305237 -1.0375154
1.1363312 0.26338753 -1.0207244
1.138653 0.2639257 -1.0027024
1.131186 0.2621949 -0.98085254
1.1394814 0.26411769 -0.9706822
1.1497285 0.26649281 -0.95786536
1.1406031 0.26437765 -0.93761885
1.1475523 0.26598838 -0.92864096
1.1390264 0.26401222 -0.90736783
1.1457504 0.26557073 -0.89840323
1.1446058 0.26530543 -0.88339722
1.1668129 0.27045274 -0.88628602
1.1488327 0.26628521 -0.86074138
1.1561062 0.26797107 -0.85041749
1.1632917 0.26963657 -0.84002882
1.154356 0.26756546 -0.81821215
1.1612678 0.26916748 -0.80784041
1.1672362 0.27055088 -0.79872513
1.1568565 0.26814502 -0.77857643
1.1454326 0.26549706 -0.75993133
1.1428238 0.2648924 -0.74557751
1.1491185 0.26635149 -0.73531181
1.1553258 0.26779023 -0.72499019
1.1053612 0.28380865 -1.4939976
1.1044897 0.28358483 -1.4694495
1.1033448 0.28329089 -1.4449831
1.0973285 0.28174621 -1.4115909
1.1030897 0.28322545 -1.3939067
1.1119026 0.28548819 -1.3864231
1.1096444 0.28490841 -1.3623202
1.1134086 0.28587484 -1.3459185
1.1106261 0.28516045 -1.3220034
1.1217579 0.28801855 -1.3119467
1.1263311 0.28919286 -1.2943515
1.1162978 0.28661671 -1.2632617
1.1203426 0.2876552 -1.2458278
1.1175262 0.28693205 -1.221149
1.1223532 0.28817144 -1.2025723
1.1256938 0.28902915 -1.1852744
1.1232222 0.28839457 -1.1596551
1.1248555 0.28881389 -1.1437597
1.1275202 0.28949806 -1.1266272
1.1299814 0.29012999 -1.1095343
1.1251636 0.28889295 -1.0856553
1.1354417 0.29153192 -1.0741885
1.1300821 0.29015586 -1.0505351
1.1327471 0.29084009 -1.0324224
1.1278706 0.289588 -1.0077928
1.1437248 0.2936587 -1.0040708
1.1383287 0.29227328 -0.97963458
1.1305746 0.29028228 -0.9579339
1.1300845 0.29015645 -0.94271868
1.1304229 0.29024336 -0.92628449
1.1382091 0.29224247 -0.91606456
1.1305275 0.29027018 -0.89361686
1.1380376 0.29219839 -0.88339722
1.1454611 0.29410446 -0.87311035
1.1527972 0.29598808 -0.86275697
1.1363713 0.29177061 -0.83494323
1.1513255 0.29561019 -0.83040011
1.1503122 0.29535002 -0.81434041
1.1563082 0.29688954 -0.80523783
1.1613882 0.29819387 -0.79740715
1.1510334 0.29553518 -0.77729094
1.1575595 0.29721084 -0.766891
1.1558003 0.29675922 -0.75110573
1.1703467 0.30049402 -0.74591672
1.1517491 0.29571894 -0.71980858
1.1042105 0.31141973 -1.5019444
1.1049652 0.31163257 -1.4760883
1.1038352 0.31131378 -1.4515961
1.1099527 0.31303918 -1.4337404
1.1036595 0.31126428 -1.4004107
1.1077764 0.31242537 -1.3839153
1.1193577 0.31569162 -1.3738184
1.1245711 0.31716201 -1.3560413
1.1232257 0.31678256 -1.3307564
1.1215421 0.31630769 -1.3056004
1.1259938 0.31756318 -1.2879795
1.1184762 0.31544301 -1.2544347
1.1157652 0.31467846 -1.2296932
1.1127247 0.31382096 -1.2050974
1.1160805 0.31476733 -1.1878071
1.1327975 0.31948203 -1.1847366
1.1427048 0.3222762 -1.1744205
1.131821 0.31920666 -1.1431046
1.1425769 0.32224008 -1.1314942
1.130963 0.3189646 -1.1005836
1.1271207 0.31788105 -1.0754768
1.1361107 0.32041642 -1.0652163
1.1245046 0.31714317 -1.0336872
1.1331435 0.31957963 -1.023452
1.1354254 0.32022321 -1.0053685
1.1374923 0.32080609 -0.98731691
1.1383015 0.32103428 -0.97062176
1.1379073 0.32092309 -0.95528823
1.1468866 0.32345551 -0.94362485
1.1319767 0.31925049 -0.91477191
1.1463009 0.32329038 -0.91185391
1.1452899 0.32300517 -0.89670444
1.1450408 0.32293499 -0.88033777
1.152391 0.32500792 -0.86992222
1.1518182 0.32484636 -0.8536334
1.1492988 0.32413587 -0.84002882
1.1642302 0.328347 -0.83525825
1.1632338 0.3280659 -0.81906044
1.1692125 0.32975206 -0.80981851
1.1679149 0.32938614 -0.79371262
1.1664364 0.32896915 -0.77769232
1.1810691 0.33309606 -0.77241367
1.1629424 0.32798371 -0.74591672
1.1609294 0.32741609 -0.73016554
1.1670178 0.32913309 -0.71961164
1.1039299 0.33961329 -1.5086422
1.1047188 0.33985603 -1.4827319
1.1185907 0.34412357 -1.4713033
1.0992496 0.33817345 -1.4234426
1.1096179 0.34136319 -1.4146091
1.1091191 0.34120971 -1.3890754
1.119213 0.34431499 -1.3801844
1.1167866 0.34356862 -1.3560413
1.1280545 0.34703502 -1.3457932
1.1187626 0.34417644 -1.3143488
1.1155112 0.34317622 -1.2905289
1.1054919 0.34009391 -1.2594934
1.1159549 0.34331268 -1.2493521
1.1250508 0.34611094 -1.2403902
1.1366253 0.34967172 -1.2287849
1.1267111 0.34662169 -1.1969858
1.1311252 0.34797969 -1.1782893
1.14091 0.35098988 -1.167917
1.1368281 0.34973407 -1.1435941
1.1463233 0.3526552 -1.1331712
1.1347179 0.34908494 -1.1022499
1.1226856 0.34538326 -1.0716283
1.1315809 0.34811983 -1.0613372
1.1260456 0.34641695 -1.0377457
1.1346585 0.34906667 -1.0274252
1.1359032 0.34944957 -1.0105486
1.1379808 0.35008872 -0.99244028
1.1462151 0.35262188 -0.98201251
1.1404744 0.3508558 -0.957663
1.1324235 0.34837905 -0.93613523
1.1477394 0.35309076 -0.93189126
1.1478666 0.35312992 -0.91531503
1.1410908 0.3510454 -0.89150369
1.1466434 0.35275364 -0.88367081
1.1453131 0.35234442 -0.86862606
1.1438451 0.35189274 -0.8536334
1.1500347 0.3537969 -0.84448093
1.1561713 0.35568476 -0.83525825
1.1551818 0.35538039 -0.81906044
1.161119 0.35720688 -0.80981851
1.1598303 0.35681045 -0.79371262
1.1583622 0.35635877 -0.77769232
1.1486268 0.35336378 -0.75643271
1.147537 0.35302857 -0.73934412
1.1447169 0.3521609 -0.72498703
1.1507201 0.35400781 -0.714508
1.1145345 0.37183696 -1.4804223
1.1148237 0.37193343 -1.4545561
1.1087447 0.36990541 -1.4210752
1.1204661 0.37381592 -1.4108214
1.1197968 0.37359259 -1.3852377
1.1250056 0.37533042 -1.3673292
1.1314106 0.37746724 -1.3481203
1.1221124 0.37436515 -1.3166678
1.1188408 0.37327361 -1.2928116
1.1165915 0.37252325 -1.267813
1.1257316 0.37557262 -1.2587984
1.1229749 0.37465286 -1.2339621
1.1277884 0.37625876 -1.2151225
1.157883 0.38629919 -1.2259606
1.1421999 0.3810668 -1.1858613
1.1451565 0.38205326 -1.1683542
1.1491107 0.3833724 -1.1495521
1.1447076 0.38190344 -1.1252973
1.148122 0.38304257 -1.1066589
1.1513184 0.38410905 -1.0880376
1.1531631 0.38472441 -1.0707949
1.1548105 0.38527405 -1.0536016
1.1490349 0.38334715 -1.0299822
1.1575173 0.38617709 -1.0193726
1.1502064 0.38373804 -0.99733138
1.1510402 0.38401619 -0.98042738
1.1526866 0.38456541 -0.96224898
1.1540902 0.38503361 -0.94415301
1.1543175 0.38510951 -0.92743844
1.147705 0.38290343 -0.90347022
1.1389207 0.37997276 -0.88237214
1.145286 0.38209638 -0.87316817
1.1447357 0.38191277 -0.85680974
1.1595671 0.386861 -0.85196412
1.1587461 0.38658699 -0.83561832
1.1568881 0.38596711 -0.82069439
1.1548954 0.38530234 -0.80582803
1.1686419 0.38988855 -0.80197453
1.1584448 0.38648647 -0.78175062
1.156039 0.38568383 -0.76708668
1.1623448 0.38778761 -0.75642264
1.1604472 0.38715455 -0.7405225
1.1583756 0.38646337 -0.72471529
1.1546611 0.38522413 -0.71166021
1.108501 0.39908504 -1.4778554
1.1028056 0.39703459 -1.444224
1.1206143 0.40344608 -1.44165
1.1202971 0.40333191 -1.4158946
1.1088287 0.399203 -1.373767
1.1324424 0.40770447 -1.3784959
1.1173333 0.40226489 -1.3393465
1.1156811 0.40166998 -1.3140839
1.120064 0.40324795 -1.2963207
1.1165216 0.40197265 -1.2725555
1.124334 0.40478531 -1.2647614
1.1151123 0.40146524 -1.2326597
1.1264347 0.40554157 -1.2209754
1.1364167 0.40913534 -1.2104814
1.1341312 0.40831241 -1.1845367
1.131458 0.40735003 -1.1587789
1.1409292 0.41075987 -1.1482407
1.1376995 0.4095971 -1.1226619
1.1399232 0.41039765 -1.1053274
1.1360438 0.40900102 -1.0800565
1.1367186 0.409244 -1.064185
1.1382986 0.40981284 -1.0470575
1.1468523 0.41289228 -1.03646
1.1419078 0.41111219 -1.0116488
1.1428909 0.41146615 -0.99468368
1.144694 0.41211534 -0.97644067
1.1452789 0.41232586 -0.95959568
1.1466339 0.41281369 -0.94149649
1.1618161 0.41827959 -0.9368701
1.1477683 0.41322204 -0.90679425
1.1466484 0.41281888 -0.89155942
1.1606634 0.41786462 -0.88805956
1.1516472 0.41461858 -0.86706424
1.1501309 0.41407266 -0.85196412
1.1648479 0.41937107 -0.84691048
1.1561338 0.41623381 -0.82492673
1.162863 0.41865647 -0.81417233
1.1616015 0.41820234 -0.79792786
1.1681087 0.4205451 -0.7871238
1.166537 0.41997924 -0.77097911
1.1559805 0.41617861 -0.75106895
1.1694137 0.42101485 -0.74680525
1.1423323 0.41126496 -0.71696454
1.1555936 0.41603935 -0.71268129
1.1046046 0.4273394 -1.4856747
1.0990227 0.42517999 -1.4519887
1.104858 0.42743745 -1.4339406
1.1104838 0.42961392 -1.4158946
1.1130534 0.430608 -1.4004601
1.110799 0.42973584 -1.3761731
1.1143988 0.43112856 -1.3595378
1.1192036 0.43298733 -1.3416055
1.1161944 0.43182316 -1.3175882
1.1115814 0.43003863 -1.2950109
1.1157033 0.4316332 -1.2772621
1.113187 0.43065968 -1.2522967
1.1233367 0.43458632 -1.2418331
1.1255933 0.43545935 -1.2254856
1.1289225 0.43674731 -1.2078434
1.1320505 0.43795744 -1.190233
1.1282628 0.43649206 -1.1657177
1.1309351 0.4375259 -1.1482407
1.1414032 0.44157571 -1.1362699
1.1356866 0.43936414 -1.1134068
1.1377674 0.44016913 -1.0960547
