# .PCD v0.7 - Point Cloud Data file format
VERSION 0.7
FIELDS x y z
SIZE 4 4 4
TYPE F F F
COUNT 1 1 1
WIDTH 1440
HEIGHT 1
VIEWPOINT 0 0 0 1 0 0 0
POINTS 1440
DATA ascii
1.0913545 -0.38325632 -1.1342221
1.0870633 -0.38174942 -1.1102074
1.0881951 -0.38214687 -1.0944839
1.0822529 -0.38006011 -1.0719994
1.0899533 -0.38276434 -1.0631995
1.0905815 -0.382985 -1.0476422
1.098106 -0.38562736 -1.0387756
1.0984625 -0.38575259 -1.0232669
0.51121551 -0.16610391 -1.7178673
0.52366155 -0.17014787 -1.7137176
0.55458421 -0.18019527 -1.7240551
0.57021838 -0.18527509 -1.7289951
0.58454639 -0.18993059 -1.7236971
0.60210204 -0.19563477 -1.7276573
0.61284316 -0.19912475 -1.7234769
0.63053197 -0.20487219 -1.7271237
0.64832771 -0.21065436 -1.7305766
0.66444027 -0.21588968 -1.723807
0.69862175 -0.22699589 -1.7305491
0.70937878 -0.23049106 -1.7257043
0.71982479 -0.23388515 -1.7099853
0.73791432 -0.23976283 -1.7124242
0.77306271 -0.25118318 -1.7284043
0.78560615 -0.25525883 -1.72214
0.7980752 -0.25931025 -1.7157897
0.81297243 -0.26415071 -1.719215
0.83404636 -0.270998 -1.7304702
0.84400344 -0.27423325 -1.7138712
0.85197347 -0.27682287 -1.698208
0.88230121 -0.28667697 -1.7265459
0.91367352 -0.29687047 -1.7198746
0.97559279 -0.31698924 -1.728536
0.99482632 -0.32323858 -1.7280734
1.0091305 -0.32788631 -1.7188793
1.0266553 -0.33358043 -1.7191868
1.0813417 -0.3513492 -1.7178049
1.0689663 -0.34732816 -1.6663656
1.0773685 -0.3500582 -1.6482525
1.0620608 -0.34508443 -1.5985755
1.0587448 -0.34400699 -1.5643269
1.0661058 -0.34639877 -1.5464561
1.058813 -0.34402916 -1.5149121
1.065647 -0.3462497 -1.4971331
1.066502 -0.34652743 -1.4713912
1.0611811 -0.34479859 -1.4378486
1.067178 -0.3467471 -1.4202104
1.0550808 -0.34281644 -1.379196
1.0725124 -0.34848034 -1.3771995
1.0656335 -0.34624532 -1.3442616
1.0692307 -0.34741408 -1.3280246
1.0664322 -0.34650481 -1.3042456
1.0571181 -0.34347841 -1.2730374
1.0600119 -0.34441867 -1.2570404
1.0767757 -0.34986559 -1.2546904
1.0730158 -0.34864387 -1.2312533
1.0714625 -0.34813923 -1.2055154
1.073649 -0.34884974 -1.1896141
1.0768746 -0.3498978 -1.172524
1.0732328 -0.34871447 -1.1483333
1.0692725 -0.3474277 -1.1242999
1.0785629 -0.35044628 -1.1144458
1.0809296 -0.3512153 -1.0975603
1.0888597 -0.35379195 -1.0888599
1.0839581 -0.35219935 -1.0651714
1.0927572 -0.35505828 -1.0551848
1.0944123 -0.35559613 -1.0384185
1.0948207 -0.35572881 -1.0229489
0.62251574 -0.18617159 -1.7321415
0.63518369 -0.18996014 -1.7271237
0.65128732 -0.19477615 -1.7313251
0.68379366 -0.20449762 -1.7284405
0.69461727 -0.20773454 -1.7237322
0.71100342 -0.21263506 -1.7273275
0.7236048 -0.21640365 -1.7216171
0.7584939 -0.22683771 -1.7272035
0.77109301 -0.23060565 -1.721115
0.77955115 -0.23313521 -1.7058864
0.80037475 -0.23936273 -1.7176163
0.8147046 -0.24364825 -1.7102607
0.83331269 -0.24921329 -1.7116901
0.85281998 -0.25504714 -1.7237312
0.8609587 -0.25748119 -1.7080263
0.90599978 -0.2709513 -1.7281927
0.94424832 -0.28239003 -1.7288005
0.97123647 -0.29046121 -1.7124345
1.032092 -0.30866081 -1.7323725
1.0625005 -0.31775498 -1.7241302
1.0750681 -0.32151347 -1.7156216
1.0699133 -0.31997189 -1.6832421
1.0571152 -0.31614444 -1.6320112
1.0581838 -0.31646404 -1.6070462
1.0589229 -0.31668502 -1.5821798
1.0593867 -0.31682378 -1.5573769
1.0467395 -0.31304139 -1.5176435
1.052142 -0.31465718 -1.5011955
1.0573905 -0.31622678 -1.4847311
1.0566607 -0.31600848 -1.4603105
1.054147 -0.31525674 -1.4371804
1.064642 -0.31839538 -1.4287273
1.0572325 -0.31617948 -1.3966709
1.061434 -0.31743604 -1.3803957
1.0640215 -0.31820989 -1.3653574
1.0556613 -0.31570962 -1.3337191
1.0653986 -0.3186217 -1.3252571
1.076438 -0.32192314 -1.3155024
1.0734643 -0.32103378 -1.2917863
1.0715426 -0.3204591 -1.2669659
1.0884973 -0.32552966 -1.2645963
1.086099 -0.32481244 -1.2398733
1.0768448 -0.32204488 -1.2079704
1.0659212 -0.31877798 -1.1775366
1.0811274 -0.3233256 -1.1762329
1.070842 -0.32024962 -1.1448745
1.0736208 -0.32108063 -1.127983
1.0830106 -0.32388878 -1.118161
1.0717082 -0.32050869 -1.0873435
1.0807582 -0.32321525 -1.0775404
1.0897261 -0.32589719 -1.0676554
1.0915686 -0.3264482 -1.050909
1.0850497 -0.32449862 -1.0287213
1.0925354 -0.32673737 -1.0200535
0.50679308 -0.13864282 -1.732062
0.51952058 -0.14212468 -1.7280043
0.53041828 -0.14510596 -1.7244421
0.54611868 -0.1494011 -1.7296917
0.55882758 -0.15287787 -1.7253231
0.5746733 -0.15721276 -1.730299
0.58738583 -0.16069052 -1.7257046
0.6033724 -0.16506398 -1.7304033
0.61094493 -0.16713554 -1.7168901
0.62696522 -0.17151821 -1.7213645
0.63963944 -0.17498547 -1.7163453
0.65761667 -0.17990351 -1.7197891
0.67749834 -0.18534251 -1.7222787
0.70477033 -0.19280328 -1.7213441
0.71741331 -0.19626199 -1.7157212
0.73394716 -0.20078515 -1.7191296
0.7447843 -0.20374985 -1.7141126
0.76140141 -0.20829578 -1.7172598
0.77813685 -0.21287407 -1.720229
0.78660744 -0.21519132 -1.7050048
0.81001067 -0.22159375 -1.7266091
0.81843328 -0.22389798 -1.71118
0.83280551 -0.22782974 -1.7037103
0.84531492 -0.23125191 -1.6970755
0.86406779 -0.23638214 -1.698208
0.88747835 -0.24278651 -1.7079335
0.90468538 -0.24749388 -1.7096173
0.92193997 -0.25221419 -1.7111443
0.94699895 -0.25906953 -1.7309465
0.95973444 -0.26255354 -1.7233907
0.97238505 -0.26601437 -1.7157516
0.99985719 -0.27352992 -1.7337437
1.0107808 -0.27651823 -1.7269222
1.0285225 -0.28137183 -1.7273886
1.0626534 -0.29070899 -1.7169322
1.0594693 -0.28983793 -1.6833357
1.0522329 -0.28785828 -1.6403791
1.0497668 -0.28718367 -1.6059624
1.0468026 -0.28637275 -1.5717171
1.0488929 -0.2869446 -1.5458287
1.0546249 -0.28851265 -1.529355
1.0545317 -0.2884872 -1.5047717
1.0468473 -0.28638497 -1.4734294
1.0592097 -0.28976694 -1.4639024
1.0597811 -0.28992322 -1.4383701
1.0511233 -0.28755471 -1.4074275
1.0554835 -0.28874755 -1.3912151
1.0596898 -0.28989828 -1.3749969
1.0576179 -0.28933147 -1.3510484
1.0614136 -0.29036984 -1.3349106
1.0588194 -0.28966013 -1.3111439
1.0622079 -0.2905871 -1.2950959
1.0730686 -0.2935583 -1.2854365
1.0633911 -0.29091084 -1.2543803
1.073909 -0.29378822 -1.2447119
1.0700849 -0.29274204 -1.2213601
1.0672297 -0.29196098 -1.1969458
1.0652696 -0.29142472 -1.1714829
1.0659798 -0.29161906 -1.1569983
1.0543334 -0.28843293 -1.1269816
1.0693617 -0.29254419 -1.1257368
1.0708107 -0.29294062 -1.1101577
1.0858189 -0.29704639 -1.1086752
1.0812473 -0.29579571 -1.0849004
1.0810983 -0.295755 -1.0706332
1.0900689 -0.2982091 -1.0608115
1.0918665 -0.29870084 -1.0441289
1.0934669 -0.29913867 -1.0274953
1.1020738 -0.30149323 -1.0175633
0.50345325 -0.12505834 -1.7236284
0.55861986 -0.13876183 -1.726583
0.57455271 -0.14271958 -1.7315947
0.60342854 -0.14989235 -1.7317638
0.64889419 -0.16118607 -1.7249508
0.66524923 -0.16524868 -1.7290853
0.68351442 -0.16978581 -1.7215053
0.69249403 -0.17201634 -1.7068574
0.71276009 -0.17705046 -1.7197459
0.72934854 -0.18117104 -1.7232608
0.74027896 -0.18388616 -1.7183052
0.7548033 -0.18749405 -1.7115834
0.7733621 -0.19210406 -1.7137991
0.79201555 -0.19673763 -1.7158105
0.80651689 -0.20033978 -1.7086236
0.82779247 -0.20562465 -1.720139
0.83174574 -0.20660664 -1.6957337
0.85763317 -0.21303709 -1.7158031
0.86761314 -0.21551616 -1.6991764
0.89850211 -0.22318904 -1.7275649
0.91309893 -0.22681491 -1.7194201
0.93235898 -0.23159911 -1.7198746
0.96746308 -0.24031897 -1.7223129
0.98694754 -0.24515902 -1.722159
1.0436369 -0.25924069 -1.733556
1.0409313 -0.25856856 -1.699913
1.0482427 -0.2603848 -1.6832668
1.0500932 -0.26084447 -1.6582112
1.0516062 -0.26122028 -1.6332448
1.0436555 -0.25924537 -1.5905895
1.0460755 -0.25984645 -1.5646744
1.0393181 -0.25816786 -1.5329928
1.0338055 -0.25679854 -1.5003002
1.0448807 -0.25954965 -1.4921321
1.0501817 -0.26086646 -1.4757937
1.0479537 -0.260313 -1.4526287
1.0411285 -0.25861758 -1.4204113
1.0457281 -0.25976014 -1.4042355
1.0441586 -0.2593703 -1.3802028
1.0529032 -0.26154247 -1.3731316
1.046244 -0.25988832 -1.3402357
1.0575548 -0.26269791 -1.330777
1.0425737 -0.25897658 -1.2916543
1.0472026 -0.26012641 -1.2745984
1.0452874 -0.25965065 -1.2499824
1.0558338 -0.26227045 -1.2405359
1.0598375 -0.26326498 -1.2235342
1.0571088 -0.26258716 -1.1991535
1.0474609 -0.26019061 -1.1675729
1.0560728 -0.26232985 -1.1593071
1.0488424 -0.26053378 -1.1388379
1.0584475 -0.26291966 -1.1293637
1.0543672 -0.26190615 -1.1055384
1.0625198 -0.26393121 -1.0972201
1.070629 -0.26594561 -1.0888188
1.0798097 -0.26822612 -1.0791506
1.0737305 -0.26671603 -1.0568185
1.0744708 -0.26689988 -1.0414783
1.0821487 -0.26880705 -1.0330039
1.0826112 -0.268922 -1.0177101
0.50441003 -0.11274895 -1.7241979
0.54886615 -0.12268604 -1.7309228
0.58144104 -0.12996741 -1.730299
0.64333504 -0.14380234 -1.7285661
0.6580317 -0.14708744 -1.7227477
0.68364358 -0.15281235 -1.7338338
0.69652915 -0.15569262 -1.7284405
0.71319723 -0.15941839 -1.7321476
0.72220731 -0.16143237 -1.7173398
0.73708171 -0.16475721 -1.7216171
0.7538929 -0.16851495 -1.7249197
0.76671016 -0.17137991 -1.7189777
0.77951193 -0.1742415 -1.7129217
0.80247295 -0.17937385 -1.723938
0.80674452 -0.18032868 -1.6996309
0.82987833 -0.18549971 -1.7102607
0.85325396 -0.19072478 -1.7206051
0.86157799 -0.19258539 -1.704991
0.889754 -0.19888349 -1.7237411
0.91367602 -0.20423068 -1.7333164
0.92369014 -0.20646913 -1.7163237
1.0047723 -0.22459312 -1.7262939
1.0406351 -0.23260941 -1.7273886
1.0586812 -0.23664324 -1.7276556
1.02949 -0.2301182 -1.6519068
1.0347129 -0.23128565 -1.6365745
1.0468922 -0.234008 -1.6284217
1.0444018 -0.23345141 -1.5940908
1.0358974 -0.23155043 -1.5516768
1.0379122 -0.2320008 -1.5259469
1.0435992 -0.23327193 -1.5096307
1.0335746 -0.23103121 -1.4678038
1.0344771 -0.23123297 -1.4423897
1.0408741 -0.23266289 -1.4250786
1.0470555 -0.23404458 -1.4077635
1.039603 -0.23237872 -1.3758
1.0452384 -0.23363838 -1.3585984
1.0431203 -0.23316494 -1.3347787
1.0393239 -0.23231639 -1.3122251
1.0442441 -0.23341615 -1.2951723
1.0426722 -0.23306482 -1.2704785
1.0534523 -0.23547442 -1.2611067
1.0577416 -0.23643328 -1.2440988
1.050173 -0.23474146 -1.2109636
1.0539001 -0.23557453 -1.1941102
1.0454299 -0.23368122 -1.1614083
1.0486022 -0.2343903 -1.1447247
1.0491661 -0.23451637 -1.1304215
1.0507895 -0.23487921 -1.1149768
1.0453928 -0.2336729 -1.0924518
1.0672837 -0.23856612 -1.0984042
1.0684901 -0.23883584 -1.0829986
1.069548 -0.23907226 -1.0676196
1.063379 -0.23769337 -1.0453836
1.0722414 -0.23967436 -1.0358351
0.54973722 -0.10934944 -1.7315402
0.60795158 -0.12092902 -1.7324464
0.63382864 -0.1260763 -1.7227786
0.69260043 -0.13776667 -1.7315383
0.718454 -0.14290927 -1.7205524
0.7391547 -0.14702694 -1.7332436
0.75396109 -0.14997213 -1.7266009
0.77277744 -0.15371494 -1.7289264
0.79169065 -0.15747698 -1.7310479
0.81069863 -0.16125794 -1.7329639
0.81505883 -0.16212521 -1.7086236
0.83655977 -0.166402 -1.720139
0.84316921 -0.16771673 -1.7055899
0.86934686 -0.17292373 -1.725669
0.89509183 -0.17804475 -1.7119319
0.92194068 -0.18338536 -1.7312698
0.93196833 -0.18537997 -1.7142547
0.95143461 -0.18925203 -1.7146008
0.97588122 -0.19411479 -1.7233907
1.0185183 -0.20259584 -1.732621
1.0281934 -0.2045203 -1.7149606
1.0480206 -0.20846416 -1.7142333
1.0468706 -0.2082354 -1.6795237
1.0381372 -0.20649825 -1.6377208
1.0288122 -0.20464338 -1.5961726
1.0353006 -0.20593397 -1.5797924
1.0344149 -0.20575786 -1.5562935
1.0293348 -0.20474738 -1.5234988
1.0351017 -0.2058945 -1.5072399
1.0365716 -0.20618683 -1.4816904
1.0434488 -0.20755482 -1.4643209
1.0384401 -0.20655856 -1.4308653
1.0314318 -0.20516446 -1.3987695
1.0493265 -0.20872387 -1.3974793
1.0356878 -0.20601106 -1.3576857
1.0443808 -0.20774019 -1.3507452
1.0299325 -0.20486625 -1.3113616
1.0473142 -0.20832367 -1.3098986
1.0522223 -0.2093 -1.2928349
1.0442609 -0.20771633 -1.2605052
1.0486156 -0.20858251 -1.2435831
1.0527606 -0.20940702 -1.22668
1.043651 -0.20759504 -1.1948627
1.0538379 -0.20962133 -1.1855313
1.0427703 -0.20741983 -1.1552087
1.0513813 -0.20913272 -1.1470661
1.0507759 -0.20901226 -1.1339241
1.0524377 -0.20934282 -1.1185038
1.0607929 -0.21100478 -1.1102681
1.0541178 -0.20967697 -1.0889311
1.0633978 -0.21152291 -1.0795107
1.0667137 -0.21218252 -1.0618382
1.0545292 -0.20975885 -1.0315374
0.6239624 -0.1088988 -1.7168901
0.64380407 -0.11236171 -1.7307198
0.65865785 -0.11495413 -1.7249508
0.71421903 -0.12465109 -1.7237322
0.72901011 -0.12723257 -1.7173398
0.7517001 -0.13119258 -1.7291139
0.76469946 -0.13346134 -1.7232302
0.77351022 -0.13499908 -1.7081736
0.79285288 -0.13837491 -1.7211149
0.81186903 -0.14169373 -1.7230471
0.82232249 -0.14351813 -1.7068065
0.84577405 -0.14761113 -1.7173461
0.8649869 -0.15096428 -1.7186936
0.87790453 -0.15321879 -1.711931
0.88612628 -0.15465371 -1.6962496
0.92228234 -0.16096394 -1.7333164
0.92869985 -0.162084 -1.7183845
0.94638777 -0.16517101 -1.7198746
0.95931196 -0.16742663 -1.7124804
0.98695493 -0.17225109 -1.7309678
1.0161059 -0.17733876 -1.7251608
1.0239186 -0.17870234 -1.7087002
1.0367564 -0.18094291 -1.7007046
1.0319839 -0.18010996 -1.6683733
1.0303537 -0.17982547 -1.6339016
1.0282104 -0.17945133 -1.5995876
1.034753 -0.18059321 -1.5832474
1.0262541 -0.17910996 -1.5408837
1.0282843 -0.17946425 -1.5152637
1.0299531 -0.17975551 -1.4897263
1.035421 -0.18070981 -1.4735492
1.0291177 -0.17960972 -1.4411999
1.0340984 -0.18047899 -1.4251204
1.0329704 -0.18028212 -1.4010605
1.0419817 -0.18185484 -1.3941675
1.0344082 -0.18053308 -1.3622802
1.0263935 -0.17913428 -1.3306116
1.037793 -0.18112384 -1.3214687
1.0304904 -0.17984931 -1.2889313
1.0415316 -0.1817763 -1.2797536
1.0398129 -0.18147634 -1.2551715
1.0441576 -0.1822346 -1.2383156
1.0418212 -0.1818269 -1.2139388
1.0522172 -0.18364124 -1.2046638
1.049334 -0.18313806 -1.1804484
1.0448823 -0.18236114 -1.1575255
1.0480748 -0.18291833 -1.1409119
1.048643 -0.18301742 -1.1266555
1.0514609 -0.18350922 -1.1101147
1.0540745 -0.18396537 -1.0936103
1.0495346 -0.18317309 -1.0700582
1.0645475 -0.18579322 -1.0689337
1.0655098 -0.18596119 -1.0536637
1.0662869 -0.18609685 -1.0384605
0.51111352 -0.076842397 -1.7241979
0.63722014 -0.095801696 -1.7234769
0.66677678 -0.10024531 -1.7227477
0.70205522 -0.1055492 -1.7299935
0.72079158 -0.10836609 -1.7329501
0.76763153 -0.11540817 -1.7232302
0.78661311 -0.11826189 -1.725472
0.80381262 -0.12084775 -1.7284042
0.81441098 -0.12244113 -1.7122332
0.8291558 -0.12465791 -1.7049812
0.8527199 -0.12820064 -1.7154689
0.86749113 -0.13042139 -1.7078786
0.88767767 -0.13345627 -1.7198308
0.92296386 -0.13876133 -1.723509
0.94074112 -0.14143403 -1.7250805
1.0315286 -0.15508331 -1.7064284
1.0287322 -0.15466286 -1.6729285
1.0307482 -0.15496595 -1.6480424
1.0307115 -0.15496047 -1.6243525
1.0375569 -0.15598966 -1.6079624
1.0349653 -0.15559997 -1.5737648
1.0263162 -0.15429968 -1.5314591
1.0322269 -0.15518829 -1.5152637
1.0266355 -0.15434763 -1.4826653
1.0263209 -0.15430033 -1.458409
1.0241656 -0.15397638 -1.4353662
1.0365132 -0.15583274 -1.4262737
1.0250804 -0.15411389 -1.3850483
1.0309997 -0.15500379 -1.3679962
1.0231485 -0.15382344 -1.3362654
1.0346409 -0.1555512 -1.3271858
1.0288702 -0.15468369 -1.2934833
1.0274632 -0.15447216 -1.2688805
1.0320424 -0.15516059 -1.2520837
1.0350879 -0.15561844 -1.2364367
1.0328084 -0.15527578 -1.2121041
1.0301886 -0.15488188 -1.187907
1.0456948 -0.15721311 -1.1873947
1.0426198 -0.15675081 -1.1633025
1.0459144 -0.15724616 -1.1467069
1.0490024 -0.15771039 -1.1301422
1.0494796 -0.15778215 -1.1159289
1.0590696 -0.15922396 -1.1066252
1.0408237 -0.15648076 -1.0687375
1.0570068 -0.15891382 -1.0665753
1.0661706 -0.16029155 -1.0572071
1.0467697 -0.15737474 -1.0200031
0.6243546 -0.078874245 -1.7290344
0.6427747 -0.08120124 -1.7328435
0.65586829 -0.082855329 -1.7278517
0.67442858 -0.085200056 -1.7313251
0.69312495 -0.08756198 -1.723807
0.74580169 -0.09421657 -1.7340711
0.75676113 -0.095601037 -1.7183052
0.77796006 -0.098279104 -1.7306412
0.79103291 -0.099930629 -1.7246102
0.82381225 -0.1040716 -1.7311563
0.83688778 -0.10572346 -1.7247728
0.85437107 -0.10793208 -1.7272233
0.86741602 -0.10958003 -1.7206051
0.87856984 -0.11098911 -1.7148459
0.9185071 -0.11603437 -1.7275649
0.95235366 -0.12031014 -1.7317472
1.0302836 -0.13015504 -1.732621
1.0208881 -0.12896805 -1.6916131
1.0145756 -0.12817059 -1.6485778
1.0075973 -0.12728904 -1.6057849
1.0214614 -0.12904049 -1.5968611
1.0263779 -0.12966157 -1.5817194
1.0163684 -0.12839714 -1.5404576
1.0224385 -0.12916398 -1.524315
1.02835 -0.12991074 -1.5081511
1.0283688 -0.12991312 -1.4838059
1.023919 -0.12935093 -1.4502615
1.0290742 -0.1300022 -1.4342265
1.0296843 -0.13007927 -1.4090172
1.0239838 -0.12935919 -1.3759083
1.0057449 -0.12705508 -1.3271149
1.0232874 -0.12927118 -1.3261116
1.0285705 -0.12993859 -1.3092207
1.021186 -0.12900575 -1.2767681
1.025907 -0.12960212 -1.2600071
1.0240556 -0.12936826 -1.2355865
1.0192361 -0.1287594 -1.2135397
1.034857 -0.13073279 -1.2132517
1.030978 -0.13024275 -1.190177
1.0333719 -0.13054518 -1.1747342
1.0409777 -0.13150601 -1.1678919
1.0431181 -0.13177644 -1.1524494
1.0315812 -0.13031892 -1.1223891
1.0344536 -0.13068183 -1.1059964
1.0404325 -0.13143714 -1.1002839
1.0280293 -0.12987027 -1.0706958
1.0291657 -0.13001385 -1.0556108
1.0371236 -0.13101918 -1.0476682
1.0379778 -0.13112703 -1.0326217
1.0386473 -0.13121164 -1.0176419
0.55948186 -0.057323318 -1.7309228
0.60393983 -0.061878394 -1.7263626
0.61702073 -0.063218638 -1.721682
0.68375719 -0.070056334 -1.7283425
0.70061851 -0.071783885 -1.7215053
0.7155363 -0.073312357 -1.7152938
0.73244679 -0.075044945 -1.7189502
0.75133777 -0.076980516 -1.7216171
0.76625466 -0.078508839 -1.7149606
0.78526801 -0.080456927 -1.7172596
0.80252814 -0.082225367 -1.7202289
0.80882645 -0.082870707 -1.6950905
0.83665204 -0.085721657 -1.7148659
0.85223806 -0.087318555 -1.718274
0.86525035 -0.088651791 -1.7116899
0.8782419 -0.089982823 -1.704991
0.89115262 -0.091305688 -1.698208
0.93409657 -0.095705613 -1.7204372
0.95195508 -0.097535357 -1.7219664
0.96502221 -0.098874196 -1.7146008
0.9898181 -0.10141473 -1.7233907
1.0079046 -0.10326783 -1.7243736
1.0133033 -0.10382093 -1.6745261
1.0155385 -0.10404997 -1.6496835
1.0174273 -0.10424348 -1.6249231
1.0083014 -0.10330849 -1.5833685
1.0111358 -0.10359894 -1.5577136
1.0119261 -0.10367989 -1.5332502
1.0251979 -0.10503974 -1.524315
1.0158178 -0.10407865 -1.4823232
1.0229325 -0.10480762 -1.4651704
1.0167145 -0.10417047 -1.4328434
1.0174199 -0.10424277 -1.4076897
1.0177668 -0.10427833 -1.3826339
1.0148083 -0.10397518 -1.3599093
1.0190669 -0.10441155 -1.3441358
1.0245978 -0.10497821 -1.3272449
1.0237465 -0.10489101 -1.3025134
1.0225446 -0.10476787 -1.2778991
1.0335993 -0.10590053 -1.2688805
1.0268192 -0.10520585 -1.2355865
1.0232925 -0.1048445 -1.2124274
1.0324827 -0.10578613 -1.2045285
1.0272175 -0.10524662 -1.1826442
1.0361607 -0.10616292 -1.1747342
1.0384074 -0.10639314 -1.159306
1.0404606 -0.10660347 -1.1439307
1.0343651 -0.10597896 -1.1223891
1.029238 -0.10545366 -1.0998403
1.0363768 -0.1061851 -1.0930451
1.0446399 -0.10703173 -1.0850675
1.0400592 -0.1065624 -1.0616126
1.0340335 -0.10594501 -1.0394471
1.0288271 -0.10541153 -1.0163186
0.50400329 -0.039665829 -1.7275437
0.52002704 -0.040926915 -1.7332041
0.65717888 -0.051720988 -1.7285661
0.6720565 -0.052891921 -1.7335347
0.70211524 -0.05525757 -1.7215053
0.71133918 -0.055983499 -1.7068574
0.73215675 -0.057621907 -1.7197459
0.74919665 -0.058962952 -1.7232608
0.76042449 -0.059846591 -1.7183052
0.77761161 -0.061199259 -1.7215326
0.78836524 -0.062045619 -1.705588
0.81171763 -0.063883469 -1.7166924
0.82474697 -0.064908907 -1.7104324
0.84843349 -0.066773102 -1.7210758
0.87236738 -0.068656698 -1.7314333
0.89197123 -0.070199594 -1.7326163
0.90701044 -0.071383163 -1.7247425
0.93983161 -0.07396625 -1.7183845
0.96448755 -0.075906768 -1.7275422
0.99753469 -0.078507617 -1.720134
1.0245309 -0.080632195 -1.727407
1.013661 -0.079776779 -1.6756274
1.0211356 -0.080364987 -1.6593143
1.0125461 -0.079689018 -1.61756
1.0087192 -0.079387836 -1.5844821
1.0136155 -0.07977321 -1.569433
1.0090938 -0.07941737 -1.536562
1.0152001 -0.079897903 -1.5204885
1.0099258 -0.079482794 -1.4878616
1.0082831 -0.079353482 -1.4647417
1.0152515 -0.079901934 -1.447681
1.0161935 -0.079976052 -1.4224818
1.0211114 -0.080363125 -1.4065821
1.0214322 -0.080388375 -1.381526
1.0274038 -0.080858387 -1.3645525
1.0134976 -0.079763956 -1.3249002
1.0141119 -0.079812266 -1.2991178
1.0191606 -0.08020962 -1.282372
1.0239959 -0.080590166 -1.2656373
1.028618 -0.080953941 -1.2489161
1.0188817 -0.080187663 -1.2180108
1.0294391 -0.081018522 -1.2090456
1.0268373 -0.08081381 -1.1848942
1.0371064 -0.08162196 -1.1758606
1.0326918 -0.081274584 -1.1530143
1.0347296 -0.081434958 -1.1376743
1.0378046 -0.081676923 -1.1212451
1.0326227 -0.081269138 -1.0987201
1.0248348 -0.080656163 -1.0785677
1.027238 -0.080845319 -1.0623776
1.0294383 -0.0810185 -1.0462279
1.0314362 -0.081175737 -1.0301213
1.0321207 -0.081229627 -1.0151988
0.61705333 -0.033958387 -1.7331163
0.63023388 -0.034683775 -1.7283524
0.64340782 -0.035408776 -1.7234769
0.66197884 -0.036430817 -1.7271237
0.68066216 -0.037458997 -1.7305766
0.70510232 -0.038804065 -1.7315383
0.71445727 -0.039318845 -1.716859
0.72938967 -0.040140614 -1.7105494
0.75226939 -0.041399818 -1.7224333
0.77133 -0.04244874 -1.7249197
0.78258586 -0.043068212 -1.7198268
0.80408013 -0.044251125 -1.7319344
0.82792461 -0.045563325 -1.7095218
0.85166025 -0.046869617 -1.7201389
0.86473513 -0.047589108 -1.7135835
0.88236129 -0.048559234 -1.715803
0.89262903 -0.049124256 -1.6991763
0.9263047 -0.050977509 -1.7265459
0.94131351 -0.051803511 -1.7183845
0.96112937 -0.052894067 -1.7188172
0.98597872 -0.054261576 -1.7277157
1.0060254 -0.055364829 -1.7276711
1.0140575 -0.055806831 -1.7113366
1.02376 -0.056340858 -1.693854
1.0070111 -0.055419046 -1.6337863
1.0088328 -0.055519361 -1.609091
1.0210575 -0.056192119 -1.6013383
1.0043557 -0.055272929 -1.5526476
1.0106847 -0.055621203 -1.536562
1.0112444 -0.055652078 -1.5121797
1.0002791 -0.055048555 -1.4713299
1.0114548 -0.055663615 -1.4636464
1.0126621 -0.055730015 -1.4384053
1.0018578 -0.055135492 -1.3970115
1.0139923 -0.055803332 -1.3882023
1.021589 -0.05622137 -1.3701441
1.0153574 -0.055878438 -1.3372835
1.0086321 -0.055508353 -1.3046379
1.0151708 -0.05586816 -1.2868204
1.0263448 -0.056483101 -1.2778991
1.0184628 -0.056049328 -1.2456692
1.0074527 -0.055443361 -1.2158804
1.0257849 -0.056452259 -1.2135397
1.0167664 -0.055955991 -1.1818014
1.0204418 -0.056158263 -1.1653519
1.0226462 -0.056279559 -1.1500553
1.0313946 -0.056761045 -1.1421924
1.0253454 -0.056428153 -1.1206616
1.0202467 -0.056147508 -1.0981549
1.0148844 -0.055852406 -1.0757742
1.0149882 -0.055858098 -1.0618751
1.0172347 -0.055981811 -1.0458009
1.0192789 -0.056094225 -1.0297689
0.50344354 -0.015821217 -1.7280897
0.5194726 -0.016324949 -1.7337767
0.53270465 -0.016740812 -1.729753
0.5753122 -0.018079771 -1.726583
0.5935936 -0.01865433 -1.7309531
0.6086688 -0.019128097 -1.7257046
0.62369764 -0.019600375 -1.7203246
0.642169 -0.020180864 -1.7241843
0.67393756 -0.021179242 -1.7227477
0.69266212 -0.021767689 -1.726078
0.73421192 -0.023073388 -1.7305491
0.75135845 -0.023612272 -1.7340711
0.79225707 -0.024897559 -1.7047312
0.81568211 -0.025633706 -1.7158104
0.83061677 -0.026103092 -1.7086235
0.854388 -0.026850088 -1.7192149
0.86935085 -0.027320338 -1.7116899
0.8980639 -0.028222693 -1.7306601
0.90658796 -0.028490586 -1.7149012
0.92437518 -0.029049559 -1.7167372
0.94708019 -0.029763056 -1.7271519
0.96509337 -0.030329151 -1.7286049
0.97144949 -0.030528886 -1.7135501
0.99950647 -0.031410616 -1.7320509
1.0177447 -0.031983864 -1.7329954
1.0053104 -0.03159304 -1.6822463
1.0059234 -0.031612322 -1.6585292
1.0132872 -0.03184374 -1.6422956
1.0045458 -0.031569052 -1.6006222
1.0059595 -0.031613462 -1.576054
1.007085 -0.031648837 -1.5515406
1.0040295 -0.031552818 -1.5176723
1.0099899 -0.031740125 -1.5016701
1.0085233 -0.031694021 -1.4785048
1.0026993 -0.031511039 -1.4460987
1.0021747 -0.031494558 -1.4220598
1.0013671 -0.03146914 -1.3980964
1.0104917 -0.031755898 -1.3915093
1.0032607 -0.031528655 -1.3596227
1.0150815 -0.031900145 -1.3508116
1.0085973 -0.031696387 -1.318077
1.0139104 -0.031863309 -1.301334
1.0065819 -0.031633001 -1.2689334
1.01133 -0.031782281 -1.2523184
1.0158654 -0.031924795 -1.2357178
1.0060534 -0.031616464 -1.2048887
1.0152094 -0.031904176 -1.1971767
1.0178026 -0.031985685 -1.1818014
1.0123641 -0.031814713 -1.1600459
1.0145471 -0.031883318 -1.1448046
1.0177976 -0.03198554 -1.128479
1.0128851 -0.031831168 -1.1059161
1.0144777 -0.031881236 -1.0908338
1.00219 -0.031495087 -1.0612367
1.0010473 -0.031459119 -1.0485297
1.0090295 -0.031709936 -1.0408429
1.0169348 -0.031958368 -1.0331129
1.0177312 -0.031983431 -1.0182339
0.70614749 -0.0055460455 -1.7315383
0.73832536 -0.005798799 -1.7289424
0.75548744 -0.0059336247 -1.732427
0.76870841 -0.0060374266 -1.7266009
0.7878927 -0.0061881365 -1.7289264
0.82225072 -0.0064579076 -1.7239379
0.8397485 -0.0065954155 -1.726609
0.85736489 -0.0067337574 -1.729098
0.86866307 -0.0068225092 -1.7234493
0.88635099 -0.0069614179 -1.7256689
0.89487982 -0.0070284442 -1.7099826
0.9220078 -0.0072414698 -1.7295805
0.93806946 -0.007367623 -1.7323023
0.94645536 -0.0074334573 -1.7163236
1.0056165 -0.0078981342 -1.7287779
1.0002507 -0.0078559965 -1.6855376
0.99938655 -0.0078492034 -1.6510799
1.003251 -0.0078795739 -1.625277
1.0050107 -0.007893404 -1.6006222
0.99737501 -0.0078334147 -1.558102
1.0037739 -0.0078836624 -1.5420686
1.0044942 -0.0078893257 -1.5176723
0.99929202 -0.0078484984 -1.4850771
0.99771643 -0.0078361323 -1.4619851
1.0031632 -0.0078789294 -1.4460987
0.9968763 -0.0078295488 -1.413887
1.0018306 -0.0078684418 -1.3980964
0.99920404 -0.0078477608 -1.375329
1.0037251 -0.0078833457 -1.3596227
0.99608743 -0.0078233257 -1.3279114
1.0076371 -0.0079140738 -1.3191682
1.0068318 -0.0079077277 -1.2945374
1.0042772 -0.0078876726 -1.2711276
1.0090636 -0.0079252543 -1.2545229
1.007302 -0.0079113971 -1.230195
1.0025603 -0.0078741461 -1.208185
1.0117666 -0.0079464763 -1.2004853
1.0208931 -0.0080181817 -1.1927334
1.01686 -0.0079864729 -1.1697999
1.0178846 -0.0079944609 -1.1556154
1.0145804 -0.0079685943 -1.1317965
1.0231827 -0.008036186 -1.1240251
1.0261565 -0.0080594923 -1.1077173
1.0083458 -0.007919603 -1.0696149
1.0084175 -0.0079202596 -1.055761
1.0025345 -0.0078739775 -1.0336646
1.0103889 -0.0079356991 -1.025988
0.50549942 0.0079411296 -1.7275437
0.67970502 0.010677773 -1.7313251
0.75919485 0.01192649 -1.7307746
0.77240181 0.012133973 -1.7249197
0.78781986 0.012376147 -1.7289264
0.80519754 0.012649107 -1.7319344
0.81841207 0.01285674 -1.7257277
0.83590245 0.013131517 -1.7284369
0.85351175 0.013408112 -1.7309644
0.87308311 0.013715613 -1.7323792
0.88816571 0.01395251 -1.7246933
0.92569321 0.014542091 -1.7275648
0.94553143 0.014853704 -1.7281926
0.98672366 0.01550077 -1.7050033
1.0168153 0.015973495 -1.722159
1.0042002 0.015775336 -1.6714764
1.0012729 0.015729319 -1.6381713
1.0032049 0.015759658 -1.6134843
1.0101358 0.015868554 -1.5973334
1.0043678 0.015777953 -1.5654382
1.005376 0.015793836 -1.540964
1.0060427 0.015804265 -1.5165844
0.99524039 0.015634568 -1.475687
1.0048763 0.015785934 -1.4691408
0.9989264 0.015692502 -1.436802
0.99833792 0.015683232 -1.4127901
1.00325 0.015760358 -1.3970115
1.0035944 0.015765782 -1.3720604
1.0021224 0.015742624 -1.3482963
1.0078139 0.015832059 -1.3315256
1.0071853 0.015822193 -1.3068386
1.0109578 0.015881499 -1.2912444
1.0097203 0.015862036 -1.2667333
1.0144339 0.015936064 -1.250108
1.006198 0.01580669 -1.2180787
1.0077291 0.01583074 -1.2037988
1.023378 0.01607658 -1.2036773
1.0259925 0.016117645 -1.1882675
1.0284525 0.016156329 -1.1728703
1.0174176 0.015982937 -1.1425874
1.0340632 0.016244423 -1.1410738
1.0236429 0.016080746 -1.1099535
1.0059168 0.015802301 -1.0718123
1.0129094 0.015912151 -1.0652049
1.0082582 0.015838986 -1.0419523
1.0158844 0.01595882 -1.0204529
0.52586317 0.020661341 -1.7213485
0.60286862 0.023686873 -1.7276829
0.62128729 0.024410533 -1.7317638
0.63446724 0.024928408 -1.7269713
0.68311429 0.02683975 -1.7190504
0.72069669 0.028316366 -1.72531
0.73777884 0.028987514 -1.7289424
0.7835387 0.030785428 -1.7306412
0.80089855 0.031467516 -1.7336872
0.82539833 0.032430131 -1.7221398
0.83849895 0.032944813 -1.7157896
0.85603917 0.033633966 -1.718274
0.88215899 0.034660235 -1.7049909
0.91100812 0.035793681 -1.7237409
0.93075287 0.036569495 -1.7245178
0.95540535 0.03753807 -1.7338371
0.9836092 0.03864618 -1.7179694
0.99166948 0.038962886 -1.701756
1.0013617 0.0393437 -1.6844366
0.99009287 0.038900953 -1.6328816
0.99377739 0.039045762 -1.6071657
0.98642564 0.038756825 -1.5645964
0.99462545 0.039079018 -1.5475118
0.99545133 0.039111469 -1.5231371
0.99045694 0.038915221 -1.4904966
0.99619085 0.039140493 -1.4746089
0.99044663 0.038914859 -1.4422208
0.9941439 0.039060086 -1.4274985
0.98766673 0.03880563 -1.3953882
0.99245858 0.038993862 -1.3796757
0.99114507 0.038942274 -1.3559184
1.0014733 0.039348058 -1.3482962
1.0011302 0.039334588 -1.3235523
0.98823255 0.038827825 -1.2830778
1.0007604 0.03932007 -1.2733154
0.9979828 0.039210964 -1.2499971
0.98858994 0.038841829 -1.2190493
0.9965412 0.039154276 -1.2125479
1.0057741 0.03951703 -1.2048887
1.0019985 0.039368734 -1.1819259
1.0109974 0.039722245 -1.1742258
1.0120832 0.039764892 -1.1600459
1.0142654 0.039850693 -1.1448046
1.0108209 0.039715361 -1.1210548
1.0205578 0.04009793 -1.1121844
0.99610388 0.039137132 -1.0666983
1.0030586 0.03941033 -1.060151
0.99146479 0.038954828 -1.0297476
1.0004061 0.039306108 -1.0210496
0.57821846 0.036378521 -1.7253231
0.67844748 0.042684425 -1.7313251
0.70475531 0.044339556 -1.7207422
0.72172236 0.045407016 -1.7245158
0.76721525 0.048269231 -1.7266009
0.81313843 0.051158477 -1.7275094
0.82626456 0.051984299 -1.7212451
0.84816164 0.053361941 -1.7328225
0.86322105 0.054309387 -1.7253405
0.88086975 0.055419762 -1.7275985
0.90050036 0.0566548 -1.7286958
0.90242141 0.056775674 -1.7050841
0.9296329 0.058487643 -1.7245178
0.98928165 0.06224047 -1.7255572
0.99417919 0.062548563 -1.6995867
0.9987005 0.062833026 -1.6736634
0.98029101 0.061674815 -1.6147215
0.97682637 0.061456837 -1.5816551
0.98883748 0.062212445 -1.5741441
0.98467612 0.061950661 -1.5412575
0.98385131 0.061898831 -1.5179937
0.98987824 0.062277947 -1.5020859
0.98462081 0.061947197 -1.4695524
0.99015248 0.062295258 -1.4537252
0.97690827 0.061461981 -1.4143099
0.98767012 0.062139031 -1.4067858
0.98093665 0.061715391 -1.3747925
0.9737981 0.061266296 -1.3429682
0.99733031 0.062746786 -1.3504795
0.98502898 0.061972879 -1.3097622
0.98424739 0.061923701 -1.2852324
0.99540341 0.06262555 -1.2765775
0.99405795 0.062540874 -1.2521731
0.99236411 0.062434301 -1.2278906
0.99667209 0.062705353 -1.2114506
0.99435467 0.06255956 -1.1873689
0.9981764 0.062800035 -1.1710252
1.0070611 0.063359037 -1.163363
1.0105499 0.063578442 -1.1470163
1.0071613 0.063365288 -1.1232589
0.99670237 0.062707253 -1.0922692
0.99025065 0.062301345 -1.0710378
0.99954098 0.062885828 -1.0623385
0.99493665 0.06259618 -1.0391259
0.64356852 0.055739183 -1.7335548
0.67361236 0.058341283 -1.7220169
0.69228613 0.059958592 -1.7145392
0.71481097 0.061909456 -1.7268794
0.73559433 0.063709483 -1.7289424
0.74871039 0.064845458 -1.7232608
0.78121865 0.067660943 -1.7306412
0.79434633 0.068797961 -1.7246102
0.8117075 0.070301577 -1.7275094
0.81864572 0.070902511 -1.7131234
0.83601624 0.072406933 -1.7157896
0.85350448 0.073921606 -1.718274
0.86653608 0.075050279 -1.7116899
0.89139235 0.07720311 -1.7326163
0.8952843 0.077540115 -1.7080262
0.92424643 0.080048576 -1.7265458
0.95899367 0.083057985 -1.7188171
0.97696042 0.084614024 -1.7201129
0.98003185 0.084880069 -1.6952677
0.97950768 0.08483468 -1.6608033
0.98518485 0.085326359 -1.6457613
0.97687703 0.084606804 -1.6040426
0.98380375 0.085206725 -1.588008
0.98519111 0.085326917 -1.5635273
0.98460424 0.085276075 -1.540189
0.98705053 0.085487939 -1.5147682
0.98360473 0.085189492 -1.4811023
0.97808874 0.08471176 -1.4486773
0.97932464 0.08481881 -1.4235971
0.98019975 0.084894598 -1.3986069
0.99232191 0.085944504 -1.3899678
0.98379618 0.085206084 -1.3591485
0.9837231 0.085199706 -1.3344024
0.9832955 0.085162692 -1.3097622
0.98858023 0.085620426 -1.2931659
0.98751801 0.085528426 -1.2686973
0.97990465 0.084869042 -1.2365209
0.98794645 0.085565493 -1.230057
0.99726439 0.08637251 -1.2224579
1.0001749 0.086624607 -1.2070817
0.9900316 0.085746065 -1.1764714
0.99768162 0.08640863 -1.1699423
1.0065626 0.087177888 -1.1622528
1.0087715 0.087369159 -1.1470163
1.0053889 0.087076195 -1.1232589
0.99494833 0.086171903 -1.0922692
1.0044066 0.086991109 -1.0835127
0.99894512 0.086518057 -1.0612366
0.98517549 0.085325487 -1.0329804
0.53160918 0.058690328 -1.7291752
0.5814867 0.06419684 -1.7234129
0.61801177 0.068229243 -1.7317638
0.66083407 0.072956845 -1.7264054
0.67393249 0.074402973 -1.7212725
0.69628376 0.076870546 -1.7338338
0.70561397 0.077900603 -1.7191975
0.7243728 0.079971597 -1.7221464
0.73532951 0.081181243 -1.7065462
0.7622022 0.084148034 -1.7274451
0.77940774 0.086047515 -1.7306412
0.79250497 0.087493464 -1.7246102
0.80982584 0.089405701 -1.7275094
0.82289851 0.090848938 -1.7212451
0.83779699 0.092493758 -1.7139548
0.85709566 0.094624326 -1.7154688
0.8764841 0.096764848 -1.7167737
0.89872062 0.099219814 -1.7277026
0.91646802 0.10117911 -1.7295805
0.92958319 0.10262705 -1.7224815
0.9474234 0.10459666 -1.7240499
0.9815073 0.10835956 -1.7277156
0.98143393 0.10835139 -1.6931176
0.98083627 0.10828544 -1.6586543
0.97971654 0.10816187 -1.6243325
0.97633886 0.1077889 -1.5912397
0.96892512 0.10697044 -1.5487547
0.98232192 0.1084495 -1.540189
0.98476249 0.10871891 -1.5147682
0.98132461 0.10833934 -1.4811023
0.98296404 0.10852036 -1.4558862
0.97705454 0.10786793 -1.4235971
0.98364651 0.10859564 -1.4067858
0.98423213 0.10866033 -1.3818394
0.99032062 0.10933252 -1.3650683
0.98433405 0.10867154 -1.332245
0.983854 0.10861855 -1.3076059
0.98302251 0.10852679 -1.2830778
0.98046499 0.1082444 -1.2597505
0.99272126 0.10959752 -1.2499971
0.98337787 0.108566 -1.2190493
0.97865945 0.10804509 -1.1971015
0.9940992 0.10974963 -1.1972141
0.99671584 0.11003856 -1.1819259
0.9926911 0.10959421 -1.1590744
1.0002099 0.11042424 -1.152513
1.0023237 0.1106577 -1.1373222
1.0054916 0.11100737 -1.1210546
1.0017312 0.11059219 -1.0974534
0.98970431 0.10926441 -1.0677764
0.98297697 0.10852174 -1.0466992
0.98400229 0.10863493 -1.0319098
0.98487848 0.10873166 -1.0171487
0.51885092 0.06969054 -1.7326387
0.56673861 0.076122627 -1.7278347
0.57793438 0.077626422 -1.7240551
0.61059773 0.082013652 -1.7337947
0.6682691 0.089759871 -1.7227477
0.70358288 0.09450312 -1.7191975
0.71471965 0.095998988 -1.7145145
0.73551327 0.098791942 -1.7273275
0.74854898 0.10054283 -1.7216171
0.76341045 0.10253896 -1.7149606
0.78649282 0.10563929 -1.7263457
0.79954934 0.10739301 -1.7202289
0.81868321 0.10996304 -1.7221398
0.83167726 0.11170833 -1.7157896
0.84907484 0.11404516 -1.718274
0.86840314 0.11664127 -1.7196426
0.89239573 0.11986382 -1.7296711
0.90359652 0.12136827 -1.7237409
0.97376394 0.13079296 -1.7190336
0.9699713 0.13028358 -1.6866184
0.974424 0.13088162 -1.6608033
0.97338182 0.13074164 -1.626479
0.97182131 0.13053204 -1.5923017
0.97501516 0.13096103 -1.5667465
0.97784173 0.13134068 -1.5412575
0.98030257 0.13167125 -1.5158395
0.96981573 0.13026267 -1.4749199
0.96588218 0.12973431 -1.4414717
0.97831255 0.13140389 -1.4329122
0.97358781 0.13076931 -1.3996879
0.97562593 0.13104305 -1.3737109
0.98014742 0.13165039 -1.3580792
0.98150057 0.13183212 -1.332245
0.97504014 0.13096438 -1.2996327
0.96809155 0.13003103 -1.2672373
0.97018927 0.13031279 -1.2529371
0.97347087 0.13075356 -1.2376016
0.98281902 0.13200919 -1.230057
0.98580956 0.1324109 -1.2147208
0.98358655 0.13211228 -1.1906316
0.98617476 0.13245992 -1.175378
0.98336393 0.13208239 -1.1514988
0.99328572 0.13341506 -1.1427965
0.98871249 0.13280077 -1.1201837
0.97839588 0.13141508 -1.0892068
0.9743399 0.13087031 -1.0658493
0.97446573 0.13088715 -1.052086
0.97445506 0.13088578 -1.038367
0.97652179 0.13116333 -1.0225465
0.54685271 0.086613089 -1.7232382
0.56106341 0.088863835 -1.7290781
0.59030342 0.093495011 -1.7296532
0.60849601 0.096376404 -1.7337947
0.62189496 0.098498598 -1.7182679
0.64016032 0.10139157 -1.7220669
0.65853822 0.10430233 -1.7256733
0.66974699 0.10607763 -1.710493
0.69561541 0.11017479 -1.7215053
0.71424615 0.11312558 -1.7245158
0.72721636 0.11517991 -1.7189502
0.74597239 0.11815055 -1.7216171
0.76702338 0.12148468 -1.7340462
0.77002472 0.12196003 -1.7107272
0.79538232 0.12597631 -1.7319344
0.81027973 0.12833585 -1.724841
0.82758963 0.13107742 -1.7275167
0.84244776 0.13343073 -1.7201389
0.86617124 0.13718815 -1.7304701
0.88105339 0.13954525 -1.7227513
0.90048629 0.14262311 -1.7237409
0.97287291 0.15408807 -1.7060701
0.97568953 0.15453421 -1.681264
0.97314966 0.15413187 -1.6479146
0.96841002 0.15338121 -1.6157835
0.97536552 0.15448283 -1.599749
0.97691131 0.15472768 -1.5752153
0.97280157 0.15407676 -1.5423415
0.97738081 0.15480199 -1.5274694
0.97962427 0.15515733 -1.5020859
0.97442126 0.15433329 -1.4695524
0.96876055 0.15343672 -1.4372057
0.97803038 0.1549049 -1.4307554
0.96755892 0.15324637 -1.3893687
0.96797365 0.15331206 -1.3645227
0.97386622 0.15424541 -1.3478475
0.9722299 0.15398617 -1.3242195
0.98360652 0.15578805 -1.3155791
0.97818965 0.15493007 -1.2820069
0.96954727 0.15356125 -1.2507985
0.97278464 0.15407409 -1.2354559
0.97586864 0.15456246 -1.2201191
0.98373502 0.15580843 -1.2136264
0.98020101 0.15524866 -1.1906316
0.97639865 0.15464644 -1.1677457
0.99160606 0.15705509 -1.1677547
0.99913353 0.15824728 -1.1611588
0.97514844 0.1544484 -1.115944
0.99672836 0.15786634 -1.1232589
0.97189611 0.15393326 -1.0785743
0.97328061 0.1541526 -1.063702
0.97563642 0.15452573 -1.0477859
0.95972294 0.15200523 -1.021727
0.51870942 0.094733298 -1.7314924
0.55138701 0.10070127 -1.7315402
0.56439221 0.10307646 -1.7272048
0.57733488 0.10544018 -1.7227788
0.60977608 0.11136501 -1.7324464
0.64105904 0.11707829 -1.731426
0.65235269 0.11914085 -1.7163453
0.6724419 0.12280987 -1.729838
0.69096112 0.12619205 -1.7330748
0.72061002 0.13160689 -1.7205524
0.73535275 0.13429935 -1.7140944
0.77101707 0.14081286 -1.7198268
0.78159416 0.14274456 -1.7038586
0.80466139 0.14695741 -1.7149121
0.81750488 0.14930303 -1.7086235
0.8409009 0.15357591 -1.7192149
0.85562754 0.15626548 -1.7116899
0.88204455 0.16109003 -1.7316314
0.89687622 0.16379882 -1.7237409
0.9665218 0.17651837 -1.7190336
0.96455216 0.17615862 -1.6855583
0.96717691 0.17663799 -1.6608033
0.96264946 0.17581113 -1.6286179
0.9645794 0.1761636 -1.6040426
0.96102953 0.17551531 -1.5710241
0.96753049 0.17670259 -1.5550758
0.97220945 0.17755711 -1.540189
0.9568845 0.17475826 -1.490715
0.97347987 0.17778909 -1.4915856
0.96266448 0.17581388 -1.4508158
0.96643072 0.17650169 -1.4361262
0.97309756 0.17771927 -1.4192945
0.95676929 0.17473719 -1.3698392
0.96272743 0.17582539 -1.3531967
0.96847314 0.17687473 -1.3365535
0.96810383 0.17680724 -1.3119124
0.97473592 0.17801853 -1.2942562
0.97371358 0.17783181 -1.2697865
0.97981668 0.17894639 -1.2521731
0.97063595 0.17726968 -1.2212049
0.97979116 0.17894174 -1.2136264
0.98256981 0.17944922 -1.1983131
0.97756833 0.17853574 -1.1764714
0.9799819 0.17897655 -1.1612506
0.98866612 0.18056257 -1.1536188
0.99079412 0.18095119 -1.1384127
0.99153608 0.18108673 -1.1243503
0.98669887 0.18020333 -1.1018403
0.96824574 0.17683315 -1.0647676
0.97734946 0.17849573 -1.0561379
0.96265465 0.17581207 -1.0289733
0.97145122 0.17741853 -1.0203946
0.51428509 0.10650346 -1.7112182
0.53479767 0.11075139 -1.7256377
0.55255926 0.11442967 -1.7303133
0.58204579 0.12053601 -1.7202016
0.61624151 0.12761763 -1.7290344
0.63255614 0.13099621 -1.7335548
0.67491633 0.13976859 -1.7275858
0.69336104 0.14358829 -1.7307607
0.7081244 0.14664562 -1.7245158
0.72483891 0.15010707 -1.7281424
0.73957866 0.15315948 -1.7216171
0.75827408 0.15703113 -1.7240827
0.79412562 0.16445564 -1.7292827
0.80887246 0.16750957 -1.7221398
0.82786953 0.17144366 -1.7238442
0.84695703 0.17539649 -1.7253405
0.85799652 0.17768268 -1.7196426
0.8708148 0.18033721 -1.7129098
0.89918184 0.18621178 -1.731588
0.9121176 0.18889059 -1.7245178
0.93627656 0.19389369 -1.7338371
0.97064251 0.20101051 -1.7255572
0.96373284 0.19957958 -1.6834153
0.95627928 0.19803606 -1.6414663
0.95836937 0.19846891 -1.6168605
0.95846027 0.19848768 -1.5933789
0.95644534 0.19807041 -1.5593525
0.95919335 0.19863951 -1.5339134
0.96531439 0.19990712 -1.5179937
0.96203518 0.19922802 -1.4843167
0.95825517 0.1984452 -1.4508158
0.9635253 0.19953659 -1.4350624
0.95892829 0.19858465 -1.4018276
0.95951545 0.19870618 -1.3769335
0.96549815 0.19994509 -1.3602335
0.95963687 0.19873136 -1.3274422
0.9650591 0.19985421 -1.3108467
0.96431869 0.19970091 -1.286316
0.97062021 0.20100586 -1.2686973
0.96923298 0.20071857 -1.244347
0.97234416 0.20136286 -1.2289832
0.97530335 0.20197566 -1.2136264
0.97179967 0.20125015 -1.1906316
0.97309077 0.20151748 -1.1764714
0.97549325 0.202015 -1.1612506
0.97770548 0.20247318 -1.1460788
0.97976744 0.20290019 -1.1309232
0.97392172 0.20168959 -1.1094583
0.97676545 0.20227848 -1.0933492
0.9727459 0.20144606 -1.0699462
0.96727413 0.20031291 -1.0477859
0.96263266 0.19935167 -1.0246936
0.54234987 0.12571007 -1.7327589
0.55523789 0.12869737 -1.7284524
0.60385317 0.13996577 -1.7324464
0.68057376 0.15774868 -1.7130191
0.69511056 0.16111811 -1.7068574
0.73394972 0.17012052 -1.7224333
0.7565279 0.1753539 -1.7340462
0.78039145 0.18088518 -1.7228667
0.79319888 0.18385379 -1.7166924
0.80593091 0.18680488 -1.7104324
0.82111824 0.1903251 -1.7139548
0.83822387 0.19428997 -1.7164009
0.85722494 0.19869421 -1.7177269
0.86996281 0.2016467 -1.7109655
0.91940284 0.21310626 -1.7292148
0.9340682 0.21650551 -1.7209131
0.95829344 0.22212063 -1.7298659
0.95647854 0.2217 -1.6963483
0.96233869 0.2230583 -1.681264
0.95483458 0.22131886 -1.6393318
0.96192431 0.22296225 -1.623265
0.958606 0.22219308 -1.5901587
0.95318317 0.22093612 -1.5582776
0.95424718 0.22118273 -1.5339134
0.96193635 0.222965 -1.5169261
0.95863855 0.22220063 -1.4832528
0.95331383 0.2209664 -1.4508158
0.96009338 0.22253779 -1.4339795
0.95398349 0.22112155 -1.4018276
0.94891936 0.21994779 -1.368786
0.9433673 0.21866092 -1.3359436
0.96190435 0.22295758 -1.3344024
0.96148628 0.22286065 -1.3097622
0.96665376 0.22405843 -1.2931659
0.97295791 0.22551961 -1.2754974
0.95817071 0.22209214 -1.2365209
0.97477674 0.2259412 -1.2356621
0.97285116 0.22549488 -1.2114506
0.96931666 0.22467564 -1.1884637
0.95920718 0.22233237 -1.1579679
0.97292876 0.22551288 -1.1590744
0.96868217 0.22452857 -1.1363722
0.95123255 0.22048391 -1.0988373
0.96053773 0.22264083 -1.0902743
0.94997853 0.2201933 -1.0595545
0.95117188 0.22046983 -1.0447799
0.95781296 0.22200915 -1.038367
0.56352681 0.14468925 -1.7139435
0.61865622 0.15884404 -1.7255819
0.63665932 0.16346644 -1.7292899
0.66574281 0.17093384 -1.7283425
0.68032598 0.17467816 -1.7222787
0.71314955 0.18310584 -1.7189502
0.73154283 0.18782841 -1.7216171
0.7521866 0.19312881 -1.7340462
0.7609486 0.19537853 -1.7189777
0.78184104 0.2007428 -1.7310479
0.79279792 0.20355602 -1.7257277
0.80552351 0.20682342 -1.7194347
0.82251513 0.21118613 -1.7219957
0.82651216 0.21221237 -1.6975993
0.85047591 0.21836527 -1.7186935
0.88941193 0.22836234 -1.731588
0.89940172 0.23092727 -1.7147155
0.96009612 0.24651088 -1.7255572
0.95505369 0.24521621 -1.682332
0.95929617 0.24630551 -1.6564976
0.95137066 0.24427061 -1.6147215
0.95477122 0.2451437 -1.589093
0.95781177 0.24592438 -1.5635273
0.96049356 0.24661297 -1.5380292
0.95061088 0.24407551 -1.4969522
0.95246506 0.2445516 -1.4717013
0.95396578 0.24493691 -1.446532
0.95359993 0.24484292 -1.4225326
0.96000594 0.24648771 -1.4057142
0.94781917 0.24335873 -1.3655825
0.95361513 0.24484688 -1.3489137
0.95342374 0.24479772 -1.3242195
0.95288831 0.24466021 -1.2996327
0.96383697 0.24747138 -1.2909981
0.9627527 0.24719299 -1.2665318
0.95657617 0.24560709 -1.2333041
0.96567994 0.24794455 -1.2257184
0.96236867 0.24709438 -1.2026598
0.95753652 0.24585371 -1.1807961
0.96625155 0.2480913 -1.1732044
0.97489041 0.25030941 -1.1655616
0.97831076 0.25118759 -1.1492226
0.97389215 0.25005308 -1.1265466
0.95081496 0.24412787 -1.0807185
0.95333862 0.24477577 -1.0647676
0.94902903 0.24366933 -1.0415705
0.93556374 0.24021202 -1.0134193
0.56123108 0.15828368 -1.7240551
0.62172467 0.17534463 -1.7335548
0.64184779 0.18101995 -1.7148945
0.66153085 0.18657114 -1.7283425
0.67784405 0.19117194 -1.7215053
0.71062696 0.20041765 -1.7289424
0.72512114 0.20450546 -1.7224333
0.74349391 0.2096871 -1.7249197
0.76013505 0.21438037 -1.7280728
0.77869701 0.21961541 -1.7301733
0.78904599 0.22253411 -1.7140259
0.81609732 0.23016338 -1.7337559
0.82882953 0.23375426 -1.7272233
0.84330475 0.2378367 -1.7196426
0.86660397 0.24440776 -1.7296711
0.87927568 0.2479815 -1.7227534
0.9010731 0.25412908 -1.7333163
0.91377056 0.25771013 -1.7261254
0.94676632 0.26701587 -1.7298659
0.95461583 0.26922965 -1.713658
0.95742643 0.27002236 -1.6887932
0.95495164 0.26932436 -1.6554248
0.9403497 0.26520616 -1.606178
0.95213974 0.26853132 -1.5986621
0.94846666 0.26749536 -1.565681
0.94958049 0.26780954 -1.5412575
0.94878507 0.26758516 -1.5179937
0.94929391 0.26772872 -1.493741
0.93493754 0.26367974 -1.4435943
0.94009733 0.26513496 -1.4278727
0.94104773 0.26540303 -1.4028865
0.94165069 0.26557308 -1.377993
0.94190818 0.26564562 -1.3531967
0.93611366 0.26401147 -1.3204503
0.94139296 0.2655004 -1.3039129
0.94195575 0.26565909 -1.2783757
0.93951601 0.26497102 -1.2550697
0.9427349 0.26587886 -1.2397416
0.94580454 0.26674458 -1.2244186
0.94742393 0.26720133 -1.2102031
0.95015007 0.26797014 -1.1949506
0.95272756 0.26869702 -1.1797085
0.96135968 0.27113155 -1.1721241
0.96486133 0.2721191 -1.1558087
0.96061355 0.27092114 -1.1331034
0.96890336 0.27325907 -1.1254579
0.96950871 0.27342978 -1.1114355
0.95810455 0.27021351 -1.0816284
0.95287353 0.26873821 -1.0593922
0.94520962 0.26657677 -1.0394304
0.94614917 0.26684171 -1.0246936
0.64973748 0.19988549 -1.7313251
0.66236842 0.20377128 -1.726078
0.69667 0.21432382 -1.7329501
0.70931149 0.21821284 -1.7273275
0.72754115 0.22382103 -1.7299387
0.73621494 0.22648941 -1.7149606
0.75847495 0.23333748 -1.7263457
0.77691269 0.23900969 -1.7284042
0.79544228 0.24471013 -1.7302568
0.81406152 0.25043818 -1.731902
0.82669193 0.25432378 -1.7253405
0.83489698 0.25684804 -1.7097883
0.86060524 0.26475692 -1.7296711
0.87140697 0.26807994 -1.7237409
0.94265711 0.28999937 -1.716886
0.94727528 0.2914201 -1.6909595
0.94662869 0.29122111 -1.6564976
0.94377506 0.29034325 -1.623265
0.94051933 0.28934166 -1.5901587
0.94864643 0.29184186 -1.5730537
0.93943918 0.28900933 -1.5317727
0.9506036 0.29244396 -1.5242143
0.94956732 0.29212517 -1.5009944
0.94447374 0.29055819 -1.4684839
0.94438273 0.29053015 -1.4443799
0.94397169 0.29040372 -1.4203813
0.9418214 0.28974223 -1.3975414
0.94087034 0.28944963 -1.3737109
0.94665754 0.29122999 -1.3569909
0.94083381 0.2894384 -1.3242195
0.94742602 0.29146641 -1.3065341
0.94660103 0.29121259 -1.2820069
0.94543988 0.29085538 -1.2575955
0.94732863 0.29143649 -1.2432752
0.95163935 0.29276261 -1.2268139
0.95574814 0.29402661 -1.2103692
0.9584201 0.29484862 -1.1950294
0.96214372 0.29599413 -1.1786293
0.95939654 0.295149 -1.1547056
0.96265787 0.29615229 -1.1384127
0.95815337 0.29476655 -1.1158202
0.9738732 0.2996026 -1.1144098
0.95057708 0.2924358 -1.0688707
0.94523084 0.29079103 -1.0466992
0.95283371 0.29313001 -1.0391259
0.94705933 0.29135355 -1.0171487
0.67345417 0.22468147 -1.7299935
0.68964791 0.23008408 -1.7337378
0.70217144 0.23426226 -1.7281424
0.71645033 0.23902602 -1.7216171
0.74880511 0.24982046 -1.7172596
0.78357708 0.26142129 -1.7221398
0.80018157 0.26696092 -1.7247728
0.81087273 0.27052778 -1.7192149
0.82760412 0.27610976 -1.7215501
0.84874046 0.2831614 -1.7326163
0.8674767 0.28941229 -1.7335873
0.91310704 0.30463573 -1.7188171
0.93313712 0.31131822 -1.7298659
0.94087362 0.31389937 -1.713658
0.9388293 0.31321728 -1.6801769
0.94120455 0.31400973 -1.6554248
0.93174279 0.31085306 -1.6147215
0.93843317 0.31308508 -1.5986621
0.93481302 0.31187734 -1.565681
0.94261515 0.31448036 -1.5486053
0.93826604 0.31302938 -1.5158395
0.93501967 0.3119463 -1.4821699
0.94193184 0.31425235 -1.4652337
0.9378553 0.31289229 -1.431826
0.93728858 0.31270325 -1.4078732
0.93787342 0.31289837 -1.3829273
0.94370151 0.31484273 -1.366163
0.92536831 0.30872634 -1.3183253
