# .PCD v0.7 - Point Cloud Data file format
VERSION 0.7
FIELDS x y z
SIZE 4 4 4
TYPE F F F
COUNT 1 1 1
WIDTH 1455
HEIGHT 1
VIEWPOINT 0 0 0 1 0 0 0
POINTS 1455
DATA ascii
0.79144186 -0.099982277 -1.7354317
0.81300557 -0.10270642 -1.7473904
0.83668435 -0.10569773 -1.7582057
0.84313738 -0.10651295 -1.7328225
0.86953413 -0.10984758 -1.7531241
0.88016546 -0.11119066 -1.7365038
0.88414752 -0.11169372 -1.711931
0.91290838 -0.11532708 -1.7305773
0.9373244 -0.11841153 -1.7400579
0.96678329 -0.12213305 -1.7579857
0.9800576 -0.12380997 -1.7505023
1.0012678 -0.12648948 -1.7613527
1.0145971 -0.12817331 -1.7535862
1.0177102 -0.12856661 -1.728536
1.046175 -0.1321625 -1.746325
1.0716587 -0.13538192 -1.7540865
1.0973558 -0.13862823 -1.7615312
1.1125649 -0.14054956 -1.751812
1.1312007 -0.14290376 -1.7515888
1.1463225 -0.14481415 -1.7415723
1.1724705 -0.14811738 -1.7479916
1.2044441 -0.15215655 -1.7623175
1.2253551 -0.15479828 -1.7598416
1.2520847 -0.15817501 -1.7652662
1.2790006 -0.16157527 -1.7703533
1.3060991 -0.16499861 -1.7751002
1.3214176 -0.16693379 -1.7635443
1.35478 -0.17114843 -1.775635
1.3701013 -0.17308398 -1.7636509
1.4038717 -0.17735012 -1.7749904
1.4336282 -0.18110926 -1.7765161
1.4470292 -0.18280227 -1.7654432
1.5618645 -0.19730927 -1.7715949
1.6306554 -0.20599963 -1.7625625
1.6731703 -0.21137048 -1.7771673
1.6953846 -0.21417673 -1.7695761
1.7315019 -0.21873952 -1.7759937
1.8055788 -0.22809757 -1.7574857
1.8279225 -0.23092021 -1.7484207
1.8048571 -0.22800644 -1.7001774
1.8122009 -0.22893412 -1.6774733
1.8045585 -0.22796871 -1.6413711
1.8187003 -0.22975518 -1.6254358
1.8252231 -0.23057927 -1.602808
1.8314933 -0.2313713 -1.5801897
1.8223253 -0.23021314 -1.544711
1.8187042 -0.22975573 -1.5178692
1.8224472 -0.23022851 -1.4975249
1.8337514 -0.23165658 -1.4834387
1.8277891 -0.23090342 -1.4588937
1.8387752 -0.23229125 -1.4447999
1.8433363 -0.23286751 -1.4224921
1.8159324 -0.22940555 -1.3761767
1.850242 -0.23373994 -1.379989
1.83804 -0.23219833 -1.3460283
1.8415467 -0.23264138 -1.3240029
1.82181 -0.23014812 -1.282825
1.8164822 -0.22947501 -1.2554414
1.8272823 -0.23083936 -1.2394161
0.50472486 -0.051713031 -1.7478497
0.52559179 -0.053851005 -1.7625133
0.53793275 -0.055115443 -1.7482822
0.54820007 -0.05616742 -1.7345667
0.56751347 -0.05814622 -1.7493277
0.58395636 -0.059830945 -1.7543987
0.59725058 -0.06119303 -1.7498705
0.61192083 -0.062696107 -1.7553409
0.63050747 -0.064600445 -1.7593143
0.6492095 -0.066516615 -1.7630945
0.65742129 -0.067358032 -1.7386373
0.67591786 -0.069253124 -1.752923
0.68922848 -0.070616908 -1.7476777
0.71186733 -0.072936453 -1.7600924
0.72520089 -0.074302532 -1.7545832
0.7462967 -0.076464005 -1.7673693
0.75177115 -0.077024892 -1.7432462
0.76310503 -0.078186199 -1.7382628
0.78226161 -0.080148891 -1.7406156
0.7973423 -0.081694052 -1.7336872
0.81661546 -0.083668724 -1.7356666
0.84031487 -0.086096928 -1.7464415
0.84662485 -0.086743429 -1.7210758
0.86674792 -0.088805214 -1.7333382
0.87990403 -0.090153143 -1.7266272
0.89485955 -0.091685489 -1.7188427
0.92659396 -0.094936922 -1.7472295
0.93985391 -0.096295491 -1.7400579
0.96265554 -0.098631747 -1.7503046
0.97890103 -0.10029618 -1.7526534
0.99220073 -0.10165884 -1.7450798
1.0104144 -0.10352503 -1.7460657
1.0287308 -0.10540159 -1.7468554
1.057353 -0.10833422 -1.7646157
1.0636311 -0.10897741 -1.7490891
1.0874076 -0.11141358 -1.7578486
1.1007133 -0.11277685 -1.7494605
1.1193668 -0.11468805 -1.7493613
1.1434976 -0.11716045 -1.7574661
1.2017841 -0.12313236 -1.7784975
1.222839 -0.12528963 -1.7761102
1.2439433 -0.12745197 -1.7734883
1.2728432 -0.13041289 -1.7773471
1.2941062 -0.1325915 -1.7741783
1.3408334 -0.13737907 -1.7765677
1.3714732 -0.14051838 -1.7527739
1.4115093 -0.14462043 -1.7718991
1.4630502 -0.14990123 -1.7683363
1.4976286 -0.15344401 -1.7783318
1.6254534 -0.16654076 -1.7715151
1.6543864 -0.16950519 -1.7717713
1.690318 -0.17318662 -1.7788849
1.7694424 -0.18129344 -1.7709619
1.8041365 -0.1848482 -1.7783482
1.8266693 -0.18715687 -1.769393
1.8275131 -0.1872433 -1.7395504
1.8279792 -0.1872911 -1.7098286
1.8262597 -0.18711485 -1.6822197
1.8389701 -0.18841709 -1.668169
1.8367299 -0.18818767 -1.6407037
1.8324145 -0.18774553 -1.6153973
1.8521467 -0.1897672 -1.6078373
1.8415841 -0.18868507 -1.5741239
1.8305913 -0.18755874 -1.5407001
1.8269023 -0.18718067 -1.5138663
1.8367198 -0.18818668 -1.5018142
1.8325311 -0.18775746 -1.4751871
1.8436959 -0.18890145 -1.4610618
1.8154327 -0.1860055 -1.4162295
1.8261496 -0.18710366 -1.4022374
1.8462108 -0.18915913 -1.3921654
1.8422067 -0.18874887 -1.3640556
1.8378564 -0.18830308 -1.3361231
1.8412743 -0.18865328 -1.3141609
1.8458412 -0.18912129 -1.2902339
1.8227566 -0.18675612 -1.2534275
1.8322135 -0.18772493 -1.2394161
1.8512048 -0.18967073 -1.2288066
0.50011343 -0.039359715 -1.7494963
0.50775939 -0.039961424 -1.7264366
0.53247714 -0.04190677 -1.7607702
0.54881626 -0.043192696 -1.7661922
0.55729967 -0.043860327 -1.753024
0.57252914 -0.045058917 -1.7480789
0.58771503 -0.04625408 -1.7430007
0.60424721 -0.04755519 -1.7478912
0.62085772 -0.048862468 -1.7526402
0.63760591 -0.050180595 -1.7572252
0.65286887 -0.051381778 -1.751577
0.6716547 -0.052860271 -1.7551312
0.68133682 -0.053622317 -1.7406334
0.70762682 -0.055691313 -1.7624309
0.70965266 -0.055850785 -1.7292118
0.72854435 -0.057337593 -1.7321476
0.75545138 -0.059455227 -1.7532421
0.78083497 -0.061452936 -1.7748578
0.77982843 -0.061373722 -1.7315024
0.80741262 -0.063544668 -1.7518409
0.81835997 -0.064406231 -1.7356666
0.82908767 -0.065250531 -1.7194347
0.85474831 -0.067270055 -1.729098
0.87236738 -0.068656698 -1.7314333
0.88364589 -0.06954436 -1.7256689
0.91063881 -0.071668759 -1.7454227
0.92578876 -0.072861061 -1.737385
0.95997202 -0.075551309 -1.7643259
0.97335911 -0.07660494 -1.7569302
0.98860669 -0.077804901 -1.748343
1.0037791 -0.078999087 -1.7396226
1.0391511 -0.081782855 -1.765213
1.054468 -0.082988329 -1.7560495
1.074923 -0.084598161 -1.7552731
1.1060284 -0.087046213 -1.7712212
1.1160296 -0.087833352 -1.753044
1.1510752 -0.090591438 -1.7779818
1.1645607 -0.091652818 -1.7691236
1.1910383 -0.093736656 -1.7754552
1.2120763 -0.095392354 -1.7732093
1.2274565 -0.096602745 -1.7625319
1.2523955 -0.098565526 -1.7693758
1.2967156 -0.10205359 -1.7618779
1.3239754 -0.104199 -1.766446
1.3533529 -0.10651106 -1.769178
1.4106675 -0.11102182 -1.7749904
1.4405682 -0.11337508 -1.7765161
1.4623264 -0.11508746 -1.7715408
1.520805 -0.11968983 -1.7743807
1.6908923 -0.13307591 -1.7679574
1.7565254 -0.13824148 -1.773558
1.7931504 -0.14112402 -1.779212
1.8272218 -0.1438054 -1.7584597
1.8188304 -0.14314492 -1.7237939
1.824586 -0.14359792 -1.7030165
1.8209735 -0.14331366 -1.6774733
1.8115222 -0.1425698 -1.6433383
1.8314096 -0.14413495 -1.6360821
1.8288339 -0.14393218 -1.6088039
1.825923 -0.14370324 -1.5816936
1.8362039 -0.14451237 -1.5696722
1.8481127 -0.14544955 -1.5555462
1.8214592 -0.14335188 -1.5095154
1.8251759 -0.14364442 -1.489194
1.8131013 -0.14269415 -1.4564346
1.841374 -0.14491925 -1.452873
1.8381652 -0.14466664 -1.424472
1.8346035 -0.14438632 -1.3962387
1.8466805 -0.14533684 -1.3801262
1.8330256 -0.14426216 -1.3481861
1.8365937 -0.1445429 -1.3262469
1.8399204 -0.14480482 -1.3043482
1.8348154 -0.14440309 -1.2767929
1.8293723 -0.14397465 -1.2494271
1.8318832 -0.14417224 -1.2278104
0.51795417 -0.028504634 -1.7653642
0.53331667 -0.029350113 -1.7607702
0.54267514 -0.029865127 -1.7369547
0.56199574 -0.030928385 -1.7518002
0.57535064 -0.031663369 -1.7474464
0.59184074 -0.03257088 -1.7524736
0.60654151 -0.033379894 -1.7580082
0.62660861 -0.034484249 -1.772166
0.6386112 -0.035144817 -1.7572252
0.65040141 -0.035793673 -1.7422103
0.67629194 -0.037218492 -1.764467
0.68780828 -0.037852269 -1.7599962
0.69939739 -0.038490068 -1.744638
0.72024488 -0.039637368 -1.7577474
0.72977924 -0.040162068 -1.7429599
0.73910022 -0.040675025 -1.7281424
0.75836056 -0.041735005 -1.7415932
0.77163184 -0.04246537 -1.7357364
0.78672659 -0.04329611 -1.7289264
0.81020093 -0.044587951 -1.740111
0.82533228 -0.045420688 -1.7329638
0.84040082 -0.046249937 -1.7256845
0.85796368 -0.047216516 -1.7281692
0.89560544 -0.049288046 -1.7651802
0.89714968 -0.049373042 -1.7306601
0.92155123 -0.050715964 -1.7404227
0.93668109 -0.051548552 -1.7323024
0.96623302 -0.053174954 -1.7503046
0.98144728 -0.05401225 -1.7417934
1.0065526 -0.055393826 -1.7504809
1.0299823 -0.056683283 -1.7599783
1.0299066 -0.056679081 -1.7251608
1.0637711 -0.058542799 -1.7514176
1.0647043 -0.058594119 -1.7273886
1.1097161 -0.061071228 -1.7700002
1.1339113 -0.062402792 -1.7783283
1.1493632 -0.063253231 -1.7683505
1.1777158 -0.064813502 -1.7736079
1.1911883 -0.065554984 -1.7645602
1.2178471 -0.067022093 -1.7705526
1.2332281 -0.067868538 -1.7598416
1.2659365 -0.069668598 -1.773401
1.2813405 -0.070516355 -1.7622696
1.3612449 -0.074913748 -1.764738
1.4124496 -0.077731736 -1.762539
1.4403883 -0.079269238 -1.7656153
1.4703972 -0.080920823 -1.7667438
1.5224736 -0.083786733 -1.7618042
1.5641662 -0.086081214 -1.778447
1.7317711 -0.095305033 -1.7726493
1.7612408 -0.096926875 -1.7716196
1.7979299 -0.098945923 -1.7772332
1.8430817 -0.10143078 -1.7593355
1.841866 -0.10136391 -1.731518
1.8422042 -0.10138257 -1.7017945
1.8199712 -0.100159 -1.6520511
1.8342968 -0.10094745 -1.6360821
1.8409687 -0.10131451 -1.6134032
1.8398141 -0.10125097 -1.5842134
1.8366109 -0.10107478 -1.5571589
1.8330766 -0.10088023 -1.5302789
1.836985 -0.10109522 -1.5098561
1.8656179 -0.10267112 -1.5062964
1.8551883 -0.10209712 -1.4713098
1.860056 -0.10236499 -1.4489005
1.8329362 -0.10087249 -1.4022374
1.8450844 -0.10154107 -1.3861647
1.8651317 -0.10264436 -1.3759171
1.8446866 -0.1015192 -1.3361231
1.8399755 -0.10125986 -1.3083717
1.8335153 -0.10090432 -1.282825
1.8528579 -0.10196886 -1.2724069
1.8473066 -0.10166334 -1.2449991
1.8497521 -0.10179792 -1.2232963
0.50800198 -0.015964504 -1.7580043
0.51473743 -0.016176177 -1.7247561
0.54153401 -0.01701827 -1.7584229
0.55685079 -0.017499637 -1.7536279
0.56901574 -0.017881941 -1.7391956
0.58355236 -0.018338781 -1.7449155
0.5935936 -0.01865433 -1.7309531
0.62006545 -0.019486228 -1.7640972
0.63010788 -0.019801836 -1.7499062
0.64345992 -0.020221453 -1.7450359
0.65838242 -0.020690393 -1.7501441
0.67170501 -0.021109086 -1.7450691
0.68322712 -0.021471156 -1.729838
0.71147645 -0.022358935 -1.7508287
0.72480285 -0.022777777 -1.7453487
0.74202269 -0.023318898 -1.7489592
0.75533384 -0.023737263 -1.7432462
0.77075684 -0.024221878 -1.7474115
0.78819096 -0.024769764 -1.7505832
0.80151314 -0.025188457 -1.7445177
0.81906295 -0.025739979 -1.7473904
0.83667266 -0.026293378 -1.7501106
0.84563869 -0.026575159 -1.7346725
0.85696834 -0.02693118 -1.729098
0.87914157 -0.027628016 -1.7403581
0.89698994 -0.028188985 -1.7424736
0.90750015 -0.028519226 -1.7257259
0.94895649 -0.029822061 -1.7716355
0.94810009 -0.029795121 -1.7379926
0.95944923 -0.030151797 -1.7317472
0.99420464 -0.031244021 -1.7581186
1.0095016 -0.031724762 -1.7493714
1.0450113 -0.03284074 -1.7400497
1.0771869 -0.033851873 -1.7673206
1.0958971 -0.034439813 -1.7675474
1.1166149 -0.035090934 -1.7663634
1.1373953 -0.035743963 -1.7649517
1.1563277 -0.036338937 -1.7645639
1.1827805 -0.037170302 -1.7710304
1.1981828 -0.037654292 -1.7606363
1.3021573 -0.040921818 -1.7727696
1.3295481 -0.041782629 -1.7773452
1.3449999 -0.042268228 -1.7656695
1.3806851 -0.043389689 -1.7760422
1.5086001 -0.047409546 -1.7750431
1.5305659 -0.048099887 -1.7693655
1.6273688 -0.051141988 -1.7768385
1.6564382 -0.052055549 -1.7771896
1.6718761 -0.05254079 -1.7626598
1.7080163 -0.053676438 -1.7695761
1.7373971 -0.054599833 -1.7688612
1.8555591 -0.058313143 -1.7771887
1.8399628 -0.057822954 -1.7355382
1.8385203 -0.057777658 -1.7078071
1.8459623 -0.058011547 -1.6849504
1.830819 -0.057535607 -1.6420691
1.8432838 -0.057927448 -1.6280508
1.8498633 -0.058134217 -1.605343
1.8485805 -0.058093868 -1.5761584
1.8469304 -0.058042072 -1.5471196
1.8680737 -0.058706544 -1.5372878
1.840927 -0.057853367 -1.4914894
1.8538659 -0.058259994 -1.4753598
1.8509113 -0.058167189 -1.4468046
1.8476011 -0.05806312 -1.4184142
1.85192 -0.058198903 -1.396211
1.8559929 -0.058326874 -1.3740407
1.8436484 -0.057938971 -1.3401505
1.8485547 -0.058093049 -1.3161952
1.851771 -0.058194142 -1.2942789
1.8478938 -0.05807231 -1.2647196
1.849189 -0.058113139 -1.2449991
1.8419782 -0.057886466 -1.2197808
0.50795764 -0.0039894674 -1.7788937
0.51497281 -0.0040445738 -1.7456192
0.53892529 -0.0042326846 -1.7697575
0.55434811 -0.0043538017 -1.764987
0.56972873 -0.0044746203 -1.7600821
0.5894711 -0.0046296809 -1.7746556
0.5965398 -0.0046851747 -1.7511762
0.60990876 -0.0047901981 -1.7465647
0.62658042 -0.0049211495 -1.7512774
0.63802862 -0.0050110333 -1.7471389
0.66187143 -0.0051983395 -1.7703104
0.67012727 -0.0052631609 -1.7457954
0.68533599 -0.0053826091 -1.7398808
0.71363628 -0.0056048734 -1.7608781
0.73090267 -0.0057405038 -1.7646099
0.7443397 -0.0058460338 -1.7589839
0.75776404 -0.0059514749 -1.7532421
0.77324969 -0.006073128 -1.757398
0.78855574 -0.0061933212 -1.7505832
0.80380177 -0.0063130674 -1.7436349
0.81472105 -0.0063988096 -1.7275094
0.84714198 -0.0066534388 -1.7563616
0.85421556 -0.0067089912 -1.7418009
0.86747509 -0.0068131806 -1.735235
0.87992394 -0.006910963 -1.7177269
0.90878987 -0.0071376679 -1.7365626
0.93805039 -0.0073674726 -1.7550234
0.95812011 -0.0075251269 -1.7555481
0.97827005 -0.0076833474 -1.7558556
1.0015001 -0.0078658266 -1.7657394
1.0168703 -0.0079865558 -1.7569324
1.032163 -0.0081067197 -1.7479914
1.0628556 -0.00834776 -1.7646157
1.0729796 -0.0084272139 -1.7467524
1.1041061 -0.0086717112 -1.7627465
1.1194462 -0.0087921731 -1.753044
1.1363324 -0.0089247338 -1.7540722
1.1552087 -0.0090730302 -1.7536849
1.1741146 -0.009221565 -1.7531315
1.2043653 -0.0094591482 -1.7689022
1.246595 -0.0097907884 -1.7639459
1.2794672 -0.010049054 -1.7773471
1.3301635 -0.010447154 -1.7773452
1.353633 -0.010631511 -1.7721355
1.3813242 -0.010849008 -1.7760422
1.404894 -0.01103414 -1.7702404
1.4202881 -0.01115502 -1.7579128
1.443853 -0.011340093 -1.7515879
1.5215859 -0.011950621 -1.7777046
1.5808719 -0.012416253 -1.7790699
1.6116792 -0.012658309 -1.7512081
1.6610779 -0.013046274 -1.7735698
1.7068601 -0.013405809 -1.771454
1.7638515 -0.01385344 -1.7716196
1.8212675 -0.014304349 -1.770418
1.8347477 -0.014410208 -1.7564433
1.8262626 -0.014343573 -1.7218186
1.8320431 -0.014388992 -1.7010031
1.8523427 -0.014548436 -1.6937281
1.8411165 -0.014460282 -1.6614695
1.8537632 -0.014559704 -1.6473461
1.8587481 -0.014598686 -1.6265738
1.8711277 -0.014696081 -1.6123167
1.8757449 -0.014732203 -1.5915287
1.8511559 -0.014539087 -1.5430845
1.8413407 -0.01446202 -1.5078645
1.8450284 -0.014490989 -1.4874676
1.8500988 -0.014530807 -1.4651017
1.8549199 -0.014568716 -1.4427611
1.8674392 -0.014667005 -1.4265187
1.8478194 -0.014513049 -1.3861647
1.859845 -0.014607404 -1.3699863
1.8555237 -0.014573491 -1.3419833
1.8508564 -0.014536896 -1.3141609
1.8622537 -0.014626304 -1.2979587
1.848749 -0.014520269 -1.2647196
1.8680173 -0.014671606 -1.2541116
1.8454874 -0.014494701 -1.2157574
0.50269109 0.0078970063 -1.7179462
0.53212166 0.0083593326 -1.7613565
0.54449463 0.0085537322 -1.7470982
0.55591619 0.0087331422 -1.7434967
0.57422864 0.009020824 -1.7480789
0.58757341 0.0092304535 -1.7436377
0.60411888 0.0094903596 -1.7485566
0.62080407 0.009752471 -1.7533132
0.63415682 0.0099622197 -1.7485267
0.64905679 0.010196287 -1.7537163
0.6588999 0.010350931 -1.7393515
0.67575884 0.010615785 -1.7435989
0.68538153 0.010766941 -1.7290853
0.70420825 0.01106267 -1.7323014
0.73083609 0.011480976 -1.7537806
0.73825705 0.011597562 -1.7289424
0.75941443 0.011929948 -1.7415932
0.77458167 0.012168187 -1.7348992
0.80215883 0.012601425 -1.7553581
0.80050266 0.012575405 -1.7120564
0.83266807 0.013080735 -1.7410895
0.85222107 0.013387848 -1.7427392
0.8673948 0.013626265 -1.735235
0.88250256 0.013863581 -1.7275985
0.90953243 0.014288176 -1.7474114
0.91535652 0.014379697 -1.7217478
0.94465762 0.014839995 -1.7400578
0.96757573 0.015200008 -1.7503045
0.9839043 0.015456546 -1.7526534
1.0022336 0.015744496 -1.7537618
1.0155786 0.015954066 -1.7460657
1.0339887 0.016243327 -1.7468554
1.0524393 0.016533185 -1.7474835
1.0690674 0.016794372 -1.7490891
1.0771254 0.016920971 -1.7323725
1.1063391 0.017379869 -1.7494605
1.1304971 0.017759372 -1.7577716
1.2177086 0.019129384 -1.7596648
1.2928656 0.020310095 -1.7675366
1.3496389 0.021201959 -1.7750846
1.3885018 0.021812428 -1.7576084
1.4206709 0.022317877 -1.7703379
1.4788424 0.023231616 -1.7744254
1.4942688 0.023473907 -1.761451
1.6346632 0.025679398 -1.7570477
1.6755129 0.026321163 -1.7735736
1.8509377 0.029076984 -1.7682714
1.8444256 0.028974639 -1.731518
1.852114 0.029095398 -1.7085745
1.8484677 0.029038116 -1.6829509
1.8389421 0.028888566 -1.6487442
1.8439661 0.028967422 -1.6280508
1.8429949 0.02895222 -1.5987905
1.8492647 0.029050745 -1.5761584
1.8535987 0.029118694 -1.5555462
1.8345743 0.028819952 -1.5158846
1.8383507 0.028879259 -1.4955041
1.8435181 0.028960498 -1.4731606
1.8405706 0.028914124 -1.4446675
1.8531058 0.029110996 -1.4285486
1.8415834 0.028929975 -1.3942144
1.8391062 0.028891111 -1.3641676
1.8428565 0.02895 -1.3421779
1.8544974 0.029132806 -1.326043
1.8592457 0.029207429 -1.3020186
1.854055 0.029125888 -1.2744142
1.8388702 0.028887408 -1.2434313
1.8579814 0.029187636 -1.2328635
1.8602884 0.029223874 -1.2111453
0.50889605 0.01999468 -1.7472907
0.51745337 0.020330895 -1.734338
0.53945136 0.021195192 -1.7590176
0.55587673 0.021840563 -1.7643764
0.56315243 0.022126425 -1.7410542
0.57643515 0.022648323 -1.7366949
0.59099251 0.023220289 -1.7423514
0.60425401 0.023741324 -1.7377898
0.62422264 0.024525899 -1.7519544
0.63412869 0.024915088 -1.7377456
0.65088344 0.025573391 -1.7422103
0.66226333 0.026020516 -1.7379097
0.67548895 0.026540149 -1.7328042
0.69428563 0.027278651 -1.736123
0.71887761 0.028244901 -1.7585269
0.72840464 0.028619219 -1.7437624
0.74170321 0.029141713 -1.7381389
0.74907017 0.029431151 -1.7240729
0.77435035 0.030424405 -1.745725
0.77941477 0.030623423 -1.7215326
0.80928493 0.03179701 -1.7518409
0.8226428 0.032321859 -1.7455984
0.82971978 0.032599885 -1.7311563
0.84288901 0.033117283 -1.7247728
0.86049771 0.033809174 -1.7272233
0.87816274 0.03450324 -1.7295201
0.89134812 0.035021264 -1.7227513
0.9072482 0.035645951 -1.7257259
0.92981356 0.03653257 -1.736379
0.95930862 0.037691433 -1.7545102
0.95995259 0.037716765 -1.7198745
0.98975933 0.038887817 -1.7374878
1.0080173 0.039605219 -1.7385144
1.0434996 0.040999342 -1.7640657
1.053677 0.041399229 -1.746325
1.0759908 0.042275894 -1.7444073
1.0945977 0.043006945 -1.7445935
1.1024836 0.04331677 -1.7277597
1.150215 0.045192171 -1.7683505
1.1619886 0.045654763 -1.7486275
1.1940092 0.046912897 -1.7632474
1.2226064 0.048036445 -1.7678875
1.2494916 0.049092758 -1.7734883
1.2668442 0.049774516 -1.7611157
1.2821525 0.050375987 -1.7499849
1.3231918 0.051988412 -1.7693392
1.3446265 0.052830625 -1.7656695
1.4192368 0.055762101 -1.7579128
1.4599011 0.057359803 -1.7763442
1.4772717 0.058042336 -1.7619023
1.5120472 0.059408594 -1.771746
1.5293394 0.060088027 -1.7568183
1.571117 0.06172948 -1.7733248
1.6763445 0.0658639 -1.7717593
1.8270844 0.071786456 -1.7773882
1.8406078 0.072317831 -1.7633584
1.8448374 0.072484002 -1.7443969
1.8361322 0.07214193 -1.7098286
1.836223 0.072145447 -1.6802322
1.837751 0.072205588 -1.6487442
1.8410105 0.072333619 -1.6300454
1.8533797 0.072819568 -1.6159458
1.842917 0.072408535 -1.5821863
1.847288 0.072580256 -1.5616206
1.8591626 0.073046781 -1.5474426
1.8554398 0.072900452 -1.5205356
1.8420274 0.072373599 -1.4894955
1.8455311 0.072511166 -1.4691347
1.8346493 0.072083682 -1.4344914
1.8455285 0.072511166 -1.4204459
1.8578442 0.072994977 -1.4042743
1.8459409 0.072527312 -1.3701247
1.8497404 0.072676621 -1.3480647
1.8614248 0.073135637 -1.331859
1.8484308 0.072625183 -1.2983177
1.8446193 0.072475396 -1.2687501
1.8473283 0.072581723 -1.2470003
1.8331343 0.072024062 -1.2142615
0.50149012 0.031551201 -1.7596625
0.51114845 0.032158885 -1.736028
0.52624863 0.033108894 -1.7314924
0.54729003 0.034432698 -1.745906
0.55940115 0.035194654 -1.7315402
0.57761681 0.036340673 -1.7360697
0.5991925 0.037698109 -1.7498705
0.61440986 0.038655508 -1.7445648
0.6190269 0.038945992 -1.721682
0.63905287 0.040205915 -1.735654
0.65577173 0.041257758 -1.740075
0.66902828 0.042091805 -1.7350012
0.69321907 0.04361375 -1.7577386
0.70850134 0.044575263 -1.7516103
0.72184432 0.045414705 -1.7461324
0.73511481 0.046249617 -1.7405652
0.75421554 0.047451306 -1.7432462
0.77341866 0.048659492 -1.745725
0.7968508 0.050133724 -1.7571043
0.79763877 0.050183315 -1.7237325
0.81927067 0.051544238 -1.7356666
0.83682466 0.052648652 -1.7383476
0.84816164 0.053361941 -1.7328225
0.86579001 0.054471005 -1.735235
0.88353443 0.05558743 -1.7374628
0.90593147 0.056996513 -1.7484105
0.91177297 0.057364035 -1.7227534
0.93437588 0.058786053 -1.7333163
0.95235252 0.059917051 -1.7348874
0.98019052 0.061668474 -1.7537169
0.99351132 0.062506542 -1.7461753
1.0098956 0.063537382 -1.7482774
1.0333351 0.06501203 -1.7577236
1.0569463 0.066497527 -1.7669303
1.0775002 0.06779068 -1.7661535
1.1149617 0.070147566 -1.7663634
1.1230065 0.070653729 -1.7493613
1.1362897 0.071489379 -1.7407283
1.2211354 0.076827399 -1.7678875
1.242237 0.078155093 -1.7653155
1.2711508 0.079974167 -1.7692314
1.2885641 0.0810697 -1.7689347
1.3372501 0.084132783 -1.770052
1.3465222 0.084716074 -1.7503717
1.3740388 0.086447291 -1.7542647
1.4141843 0.088973038 -1.7734334
1.437783 0.09045779 -1.7672005
1.4722394 0.092625551 -1.7776479
1.6124135 0.10144465 -1.7747765
1.6617091 0.10454594 -1.7699416
1.6908637 0.10638022 -1.7697918
1.7201413 0.10822212 -1.7692659
1.7565637 0.11051368 -1.7754636
1.8456025 0.11611556 -1.7702736
1.8464115 0.11616646 -1.7403649
1.8376415 0.11561476 -1.7058156
1.8432292 0.11596631 -1.6849504
1.8429711 0.11594997 -1.6554192
1.8498293 0.11638145 -1.6326319
1.8488851 0.11632214 -1.6033069
1.8458434 0.11613075 -1.5761584
1.8272333 0.11495981 -1.5362625
1.8465682 0.11617628 -1.5286232
1.8487781 0.1163154 -1.5101622
1.8446788 0.11605743 -1.4834387
1.8575283 0.1168659 -1.4672527
1.8718022 0.11776391 -1.4489264
1.8510247 0.11645672 -1.4103351
1.853716 0.11662605 -1.3901564
1.857711 0.11687734 -1.367973
1.8600065 0.11702182 -1.3478435
1.8635366 0.11724385 -1.3257394
1.8586364 0.11693557 -1.2979587
1.8712529 0.11772927 -1.2796297
1.8657418 0.11738266 -1.2520895
1.8612379 0.1170993 -1.222694
0.51215035 0.044357155 -1.7354637
0.53304458 0.046166796 -1.7500377
0.54823911 0.047482777 -1.745302
0.5664705 0.049061764 -1.749944
0.58166295 0.050377596 -1.7449155
0.60005462 0.051970471 -1.7492094
0.62189054 0.053861696 -1.7627395
0.63037723 0.054596711 -1.7384313
0.6524452 0.056507993 -1.751577
0.66385245 0.057496 -1.7472533
0.6826489 0.059123952 -1.750684
0.69972372 0.060602743 -1.743879
0.71298456 0.061751265 -1.738459
0.7377615 0.063897215 -1.7606035
0.74721593 0.064716026 -1.7457033
0.7724663 0.066902958 -1.7674048
0.78397417 0.067899607 -1.7622923
0.79926562 0.069224052 -1.7553581
0.8060559 0.069812164 -1.7301733
0.81676853 0.07073997 -1.7140259
0.84477031 0.073165163 -1.7337559
0.8642664 0.074853703 -1.735235
0.8865025 0.076779559 -1.7463728
0.89245117 0.077294722 -1.720801
0.92140949 0.079802766 -1.7394067
0.9507581 0.082344733 -1.7576343
0.95634282 0.082828417 -1.731747
0.99098563 0.085828774 -1.7581185
0.9912889 0.085855022 -1.7233906
1.0276936 0.089008056 -1.7599782
1.0461402 0.090605728 -1.7606479
1.0698553 0.092659645 -1.7696677
1.0832711 0.093821578 -1.7614259
1.1072502 0.095898382 -1.7700002
1.1313916 0.097989254 -1.7783283
1.1429631 0.098991446 -1.7708576
1.145455 0.099207208 -1.745334
1.2093773 0.10474359 -1.774524
1.3739382 0.11899608 -1.7651442
1.4396334 0.12468588 -1.7765161
1.6076618 0.1392387 -1.7765236
1.8630017 0.16135351 -1.7629776
1.8398685 0.15935002 -1.7146111
1.8454912 0.15983699 -1.6937281
1.8490993 0.1601495 -1.6748685
1.8561357 0.1607589 -1.6519736
1.8478919 0.16004495 -1.6159458
1.8618705 0.16125558 -1.5996982
1.8646508 0.16149633 -1.5809795
1.8536578 0.16054431 -1.5474426
1.849946 0.16022274 -1.5205356
1.8537161 0.16054937 -1.5000201
1.8572567 0.16085598 -1.4795686
1.86062 0.16114733 -1.4591178
1.8558584 0.1607348 -1.4326386
1.8682431 0.16180745 -1.4163282
1.8484775 0.1600956 -1.3760817
1.8684243 0.16182318 -1.3657248
1.8721222 0.16214356 -1.343491
1.8592671 0.16103007 -1.3098072
1.8623794 0.1612996 -1.2877985
1.8501178 0.16023763 -1.2525922
1.8609375 0.16117479 -1.236339
1.86326 0.16137595 -1.2145451
0.5015322 0.055369783 -1.7382461
0.51659036 0.057032216 -1.7337767
0.52974904 0.05848496 -1.729753
0.54884511 0.060593162 -1.7447056
0.56822884 0.062733196 -1.7594546
0.58031464 0.064067438 -1.7449155
0.60189962 0.066450469 -1.7586646
0.61190689 0.067555264 -1.7445648
0.62661183 0.069178723 -1.7499062
0.63644952 0.070264801 -1.735654
0.66012281 0.072878353 -1.7587855
0.66630274 0.07356064 -1.7350012
0.68498951 0.075623676 -1.7383815
0.69815123 0.077076748 -1.7222787
0.72073072 0.079569563 -1.7345362
0.73388922 0.081022218 -1.7289424
0.75701123 0.083574943 -1.7515848
0.77430069 0.085483722 -1.7548649
0.77940774 0.086047515 -1.7306412
0.80918932 0.089335464 -1.7609178
0.82254565 0.090809993 -1.754643
0.83341563 0.092010036 -1.7383476
0.84218329 0.092978045 -1.7229284
0.86155969 0.095117196 -1.7244035
0.88102543 0.097266272 -1.7256689
0.90981507 0.10044463 -1.7444332
0.91552144 0.10107462 -1.7187507
0.94760156 0.10461627 -1.7467703
0.97047263 0.10714131 -1.7569301
0.98868847 0.10915234 -1.7581185
1.0019879 0.11062064 -1.7504808
1.0183706 0.11242925 -1.7524785
1.0418209 0.11501824 -1.7617831
1.0448524 0.11535291 -1.7366281
1.0736531 0.11853256 -1.7540864
1.1027484 0.12174471 -1.7712212
1.1234194 0.1240268 -1.7699002
1.1260077 0.12431256 -1.744435
1.1391994 0.12576894 -1.7357439
1.1855959 0.13089113 -1.776747
1.2046338 0.13299291 -1.7758577
1.2256659 0.13531487 -1.7734241
1.269806 0.14018802 -1.7664485
1.2968692 0.14317583 -1.771336
1.3260223 0.1463943 -1.774439
1.3768727 0.15200828 -1.7730243
1.4045743 0.15506659 -1.7765206
1.4199301 0.15676181 -1.7641214
1.4478225 0.15984111 -1.7670205
1.4976202 0.16533898 -1.7641419
1.5914737 0.17570041 -1.7743847
1.6510974 0.18228297 -1.7735698
1.676284 0.18506353 -1.7771673
1.7207906 0.18997715 -1.7617288
1.8499136 0.20423244 -1.7431605
1.8630747 0.20568548 -1.7289147
1.8540846 0.20469294 -1.6943644
1.8520591 0.20446943 -1.6667541
1.8664459 0.20605771 -1.6504304
1.8731675 0.20679973 -1.6274451
1.8627619 0.20565091 -1.5935575
1.8671674 0.20613734 -1.5727979
1.8560544 0.20491037 -1.5393094
1.842896 0.2034578 -1.5081245
1.8697923 0.20642713 -1.506441
1.8655726 0.20596126 -1.4796346
1.8688829 0.20632669 -1.4591455
1.8656574 0.20597062 -1.4305587
1.854122 0.20469716 -1.3961483
1.8661615 0.20602623 -1.3798169
1.8685371 0.20628849 -1.3595638
1.8706913 0.20652625 -1.3393881
1.8563876 0.20494719 -1.3077544
1.8676602 0.20619161 -1.2914064
1.8705502 0.20651074 -1.2693681
1.8649122 0.20588829 -1.2418584
1.8685879 0.20629413 -1.217958
0.50384581 0.067675069 -1.7371411
0.52270508 0.070208184 -1.7523556
0.53406084 0.071733467 -1.7488663
0.55025578 0.073908709 -1.7542394
0.5696559 0.076514475 -1.7689651
0.57360774 0.077045262 -1.7360697
0.5931567 0.079671048 -1.7505193
0.61103415 0.08207228 -1.7654464
0.61768401 0.082965448 -1.7418619
0.63086307 0.084735647 -1.7370468
0.64935362 0.087219253 -1.740785
0.6715287 0.090197705 -1.7536572
0.6811229 0.09148638 -1.7391382
0.70358384 0.094503246 -1.7516103
0.72062707 0.096792422 -1.7553711
0.73190904 0.098307833 -1.7397542
0.74898076 0.10060079 -1.7432462
0.76427406 0.10265498 -1.7474115
0.78563213 0.10552376 -1.7597008
0.79477167 0.10675131 -1.7445177
0.81404734 0.10934035 -1.7465026
0.81623375 0.10963403 -1.7122332
0.84663892 0.11371799 -1.7418009
0.85978079 0.11548312 -1.735235
0.88190162 0.11845432 -1.7463728
0.89964372 0.12083738 -1.7484105
0.91286421 0.12261309 -1.7414204
0.93821383 0.126018 -1.7617815
0.93723154 0.12588607 -1.7281926
0.95512152 0.12828894 -1.7296487
0.9877274 0.13266851 -1.7570411
1.0010107 0.13445272 -1.7493713
1.0311933 0.13850667 -1.7663398
1.0445153 0.14029603 -1.7583529
1.0493449 0.14094476 -1.7320248
1.0957416 0.14717661 -1.7736373
1.1057239 0.14851744 -1.755482
1.1262535 0.1512749 -1.7540722
1.134058 0.15232314 -1.7369831
1.1637005 0.15630464 -1.7531315
1.188105 0.15958254 -1.7606363
1.220235 0.16389816 -1.7747575
1.2681187 0.17032973 -1.7773471
1.2986685 0.17443316 -1.754746
1.3257936 0.17807643 -1.7591646
1.3652288 0.18337326 -1.7790517
1.3805636 0.18543296 -1.7669632
1.4038862 0.18856566 -1.7610073
1.493976 0.20066617 -1.7767017
1.5157632 0.20359258 -1.7710483
1.6319158 0.2191938 -1.7734725
1.6898199 0.22697137 -1.7732999
1.7050925 0.22902267 -1.7583537
1.7551996 0.23575293 -1.778706
1.8552527 0.24919175 -1.7609204
1.8539687 0.24901925 -1.7329999
1.8468997 0.24806975 -1.6964145
1.8762754 0.25201541 -1.6934222
1.8685173 0.25097337 -1.6570321
1.8602742 0.24986611 -1.6209091
1.8666651 0.25072452 -1.5979983
1.8651887 0.25052622 -1.5686959
1.8753246 0.25188771 -1.5563451
1.8793589 0.25242952 -1.5355419
1.8754123 0.25189951 -1.5085671
1.871194 0.25133285 -1.4817102
1.8823398 0.25283006 -1.4672673
1.8681697 0.25092664 -1.4366204
1.8710712 0.25131646 -1.4161682
1.8832482 0.25295201 -1.3996397
1.8711891 0.25133225 -1.365424
1.8748461 0.25182351 -1.3431072
1.87826 0.25228193 -1.3208303
1.8732519 0.2516093 -1.29295
1.8583034 0.2496015 -1.2617478
1.8691453 0.25105771 -1.2453376
1.8728591 0.25155655 -1.2213182
0.5189594 0.082195245 -1.7738165
0.52079731 0.082486331 -1.7314924
0.5445804 0.086253174 -1.7554466
0.56085038 0.088830136 -1.7606976
0.57222009 0.090630911 -1.7569433
0.58543873 0.092724539 -1.7524736
0.60188937 0.095330052 -1.7573392
0.61180305 0.09690021 -1.7432175
0.62832522 0.09951707 -1.7478282
0.64336598 0.10189928 -1.7422103
0.6618973 0.10483436 -1.7457954
0.67329937 0.10664026 -1.7305766
0.69003254 0.10929053 -1.723807
0.71058714 0.11254607 -1.7368935
0.74285591 0.11765694 -1.7665565
0.75223392 0.11914229 -1.7515848
0.76941425 0.12186336 -1.7548649
0.77667546 0.12301345 -1.7406156
0.79393011 0.12574629 -1.7436349
0.81124538 0.12848876 -1.7465026
0.81586528 0.1292205 -1.7221398
0.83315396 0.13195874 -1.7247728
0.848683 0.13441832 -1.7281692
0.87510097 0.13860251 -1.74831
0.87918192 0.13924889 -1.723731
0.90596747 0.14349125 -1.7434256
0.91440916 0.14482827 -1.7275648
0.93688977 0.14838888 -1.7379925
0.94810462 0.15016516 -1.731747
0.96597672 0.15299584 -1.7330843
0.9956646 0.1576979 -1.7504808
1.0157179 0.16087402 -1.750239
1.0238346 0.16215958 -1.7337435
1.0490235 0.16614915 -1.7417072
1.0900738 0.17265083 -1.7748326
1.0947524 0.17339183 -1.7482426
1.1205015 0.1774701 -1.7553006
1.1573217 0.18330182 -1.7787375
1.1523334 0.18251179 -1.7460864
1.1840154 0.18752973 -1.7606363
1.2331699 0.19531505 -1.7625959
1.2656527 0.20045982 -1.7759615
1.2867604 0.20380299 -1.7727696
1.2960731 0.2052779 -1.753327
1.3350835 0.21145664 -1.7736229
1.356375 0.21482883 -1.7696598
1.3715762 0.21723644 -1.7576084
1.4095353 0.22324853 -1.7781367
1.5605987 0.24717461 -1.7664473
1.7383677 0.27533042 -1.7754636
1.85414 0.29366708 -1.7698375
1.8620783 0.29492438 -1.746592
1.8697578 0.29614061 -1.7233417
1.8624556 0.29498407 -1.6867552
1.8695046 0.29610053 -1.6636338
1.8745426 0.29689845 -1.6425716
1.8735797 0.29674599 -1.6129911
1.8646711 0.29533491 -1.5771426
1.8705587 0.29626748 -1.5542637
1.8898953 0.29933009 -1.5460587
1.8783242 0.29749736 -1.5127107
1.8741122 0.29683033 -1.4858315
1.8774532 0.2973595 -1.465178
1.872699 0.29660651 -1.4385489
1.8898655 0.29932538 -1.4321007
1.8926708 0.29976967 -1.411501
1.8712614 0.29637882 -1.3733683
1.8735352 0.29673883 -1.353038
1.9093977 0.30241898 -1.3536406
1.8884331 0.29909858 -1.3140626
1.8914988 0.29958412 -1.2917358
1.8778518 0.29742268 -1.2584164
1.8803433 0.29781726 -1.2363307
1.900566 0.30102018 -1.2229617
0.50197726 0.091677472 -1.7365811
0.52257711 0.09543965 -1.7512008
0.5375905 0.09818159 -1.7464985
0.55860186 0.10201896 -1.7606976
0.56749326 0.10364281 -1.7366949
0.59192759 0.10810534 -1.7599815
0.60511541 0.11051383 -1.7553409
0.62349534 0.11387058 -1.7593143
0.63857448 0.11662453 -1.7537163
0.65174389 0.11902972 -1.7487029
0.6629889 0.12108339 -1.7443292
0.68328774 0.12479066 -1.7577386
0.70204604 0.12821649 -1.7608781
0.7077384 0.12925614 -1.7368935
0.7207495 0.13163234 -1.7313558
0.74155426 0.13543196 -1.7440629
0.76069129 0.13892703 -1.757398
0.7657938 0.13985892 -1.7332048
0.78886068 0.14407168 -1.7445177
0.80195653 0.14646341 -1.7383366
0.82961214 0.15151422 -1.7582057
0.83785468 0.15301953 -1.731902
0.86407995 0.15780912 -1.7521592
0.87460339 0.15973102 -1.7355272
0.88575876 0.16176842 -1.7296711
0.89871061 0.1641338 -1.7227534
0.93501496 0.17076419 -1.759712
0.95293164 0.17403637 -1.7611736
0.96614802 0.17645012 -1.7537169
0.98902196 0.18062763 -1.7635502
0.99049962 0.18089749 -1.7396225
1.0185311 0.1860169 -1.7577235
1.0386481 0.18969096 -1.757193
1.0620635 0.19396733 -1.7661533
1.1232258 0.20513757 -1.7624648
1.1545748 0.21086292 -1.7774684
1.1772012 0.21499525 -1.7741404
1.2244084 0.22361682 -1.7775601
1.2453338 0.22743849 -1.7747719
1.2663041 0.23126833 -1.7717474
1.3123716 0.23968177 -1.774439
1.3354489 0.24389635 -1.769178
1.3626984 0.24887304 -1.7730243
1.4688931 0.26826763 -1.7756085
1.6341003 0.29843986 -1.7735698
1.8538643 0.3385759 -1.7766973
1.8671709 0.3410061 -1.7622391
1.8585588 0.33943325 -1.7274677
1.8659998 0.3407923 -1.7042315
1.8622113 0.34010032 -1.6785114
1.8765498 0.34271899 -1.6619279
1.8683254 0.34121695 -1.6257095
1.8671525 0.34100267 -1.5962013
1.8732002 0.34210727 -1.573208
1.8866342 0.34456077 -1.5565312
1.8768483 0.34277347 -1.5210346
1.8820893 0.3437306 -1.4981622
1.8855091 0.3443552 -1.4773879
1.880865 0.34350708 -1.4506376
1.8695809 0.34144619 -1.4159737
1.8816651 0.34365323 -1.399335
1.8696364 0.34145644 -1.3650886
1.8798474 0.34332117 -1.3505199
1.8818491 0.34368679 -1.3301969
1.8688205 0.34130731 -1.2965411
1.8621811 0.34009483 -1.2708331
1.8812348 0.34357461 -1.2597667
1.8837157 0.34402767 -1.2376025
1.8776518 0.34292021 -1.2101359
0.50894904 0.10539842 -1.7546401
0.51633352 0.10692763 -1.7314924
0.53512812 0.11081983 -1.7464985
0.55303764 0.11452872 -1.7511803
0.56731558 0.11748556 -1.7569433
0.58042091 0.12019951 -1.7524736
0.59031415 0.12224831 -1.7384431
0.61172473 0.12668224 -1.7519544
0.62667221 0.12977771 -1.7464362
0.641572 0.1328633 -1.740785
0.65995216 0.13666965 -1.7443292
0.6748327 0.13975127 -1.7383815
0.69147432 0.14319761 -1.7423426
0.71009386 0.1470535 -1.7453487
0.71931195 0.14896245 -1.7305491
0.74390006 0.15405445 -1.7524211
0.75303304 0.15594579 -1.7374182
0.77405012 0.16029821 -1.7497288
0.78712529 0.16300593 -1.7436349
0.80244106 0.16617768 -1.7473904
0.81734234 0.16926359 -1.7401727
0.83649319 0.1732295 -1.7418009
0.85385633 0.17682527 -1.7441795
0.87318325 0.18082769 -1.7454089
0.89712679 0.18578614 -1.7552911
0.90748543 0.18793134 -1.738405
0.9298169 0.19255595 -1.7488461
0.9333753 0.1932929 -1.7240499
0.95105696 0.19695459 -1.7254273
0.98338878 0.20365013 -1.7526759
0.99154687 0.20533966 -1.7363094
1.0126302 0.20970573 -1.7468553
1.0458571 0.21658669 -1.7731816
1.048867 0.21721004 -1.7479123
1.0891014 0.22554217 -1.7458203
1.1146449 0.230832 -1.7528214
1.1457947 0.2372828 -1.767838
1.1736884 0.24305929 -1.7728444
1.1943482 0.24733771 -1.7705525
1.2150577 0.25162649 -1.7680267
1.2358147 0.255925 -1.7652662
1.2774608 0.26454961 -1.7590359
1.3120548 0.27171367 -1.770052
1.3331083 0.27607363 -1.7662122
1.3832971 0.28646725 -1.7640934
1.4464139 0.29953802 -1.7760247
1.6123596 0.33390385 -1.7734725
1.6608803 0.34395194 -1.7679574
1.6896057 0.34990072 -1.7673998
1.7905033 0.37079549 -1.7773882
1.8179029 0.37646979 -1.7771887
1.8644993 0.38611937 -1.7409635
1.8610775 0.38541079 -1.7150652
1.8683355 0.38691378 -1.6917802
1.8753377 0.38836393 -1.6684968
1.8672067 0.38667998 -1.6322124
1.8735889 0.38800177 -1.609074
1.8721694 0.38770774 -1.5795773
1.8822526 0.38979587 -1.5670302
1.8786542 0.38905069 -1.5397719
1.8900994 0.39142087 -1.5250945
1.8860016 0.39057228 -1.4980158
1.8971347 0.39287785 -1.4832824
1.8940839 0.3922461 -1.4543003
1.8797685 0.38928142 -1.4237382
1.890371 0.39147714 -1.4090219
1.8849329 0.39035091 -1.3825897
1.8952273 0.39248285 -1.3678342
1.8987979 0.39322224 -1.3451924
1.8845249 0.39026651 -1.3134525
1.8699118 0.3872402 -1.2819808
1.879432 0.38921186 -1.267379
1.8819722 0.38973787 -1.2451445
1.8925406 0.39192638 -1.2283256
0.50071323 0.11605927 -1.7563361
0.50717223 0.11755635 -1.7230661
0.53339654 0.12363482 -1.7566452
0.54830974 0.12709151 -1.7518002
0.56133944 0.13011162 -1.7474464
0.57930475 0.13427578 -1.7518207
0.59601599 0.1381492 -1.7459036
0.61229229 0.14192183 -1.7505873
0.62344074 0.14450592 -1.7464362
0.63982022 0.1483025 -1.7508674
0.65633142 0.15212958 -1.7551312
0.67291337 0.15597306 -1.7592498
0.68420404 0.15859012 -1.743879
0.70643914 0.16374393 -1.7561696
0.71754521 0.16631816 -1.7405652
0.73618942 0.17063968 -1.7432462
0.75309283 0.17455767 -1.7465625
0.77595288 0.17985635 -1.7579672
0.77857482 0.1804641 -1.7237325
0.80989784 0.18772434 -1.7528334
0.81865615 0.18975441 -1.7374393
0.83587968 0.19374667 -1.7399331
0.84440792 0.19572337 -1.7244035
0.8749913 0.20281227 -1.7533275
0.87715513 0.20331375 -1.7296711
0.90554631 0.20989449 -1.7482362
0.9343189 0.21656366 -1.7664224
0.94930005 0.22003604 -1.7579856
0.95941174 0.22237982 -1.7407115
0.97904408 0.22693036 -1.7407111
0.99874926 0.23149778 -1.7404909
1.0185248 0.23608147 -1.7400496
1.0466664 0.24260433 -1.7576212
1.0615684 0.24605851 -1.7481784
1.0887197 0.25235179 -1.7542542
1.1123157 0.25782108 -1.7624648
1.1414856 0.26458228 -1.7787374
1.1638657 0.26976973 -1.7754551
1.223823 0.28366709 -1.7693757
1.3705479 0.31767613 -1.7686945
1.4842376 0.344028 -1.7760303
1.5701004 0.36392987 -1.7782968
1.8908324 0.43827152 -1.774703
1.8768612 0.43503326 -1.7309645
1.9024354 0.440961 -1.7315868
1.8785838 0.43543246 -1.6837224
1.8984263 0.44003174 -1.6754849
1.8811074 0.43601742 -1.6346937
1.8931985 0.43881986 -1.6199186
1.8884391 0.43771681 -1.5944598
1.8926872 0.43870154 -1.5733011
1.8967044 0.43963262 -1.5522033
1.900545 0.44052282 -1.5311005
1.8964474 0.43957302 -1.5039489
1.8982478 0.43999031 -1.4851139
1.9108008 0.44290003 -1.468053
1.9075085 0.44213685 -1.4390365
1.8959699 0.43946239 -1.4043401
1.8998867 0.44037011 -1.3815224
1.8955628 0.43936792 -1.3530328
1.8989464 0.4401522 -1.3303639
1.8926221 0.43868628 -1.3042761
1.8955027 0.43935403 -1.2817714
1.8981453 0.43996653 -1.2593148
1.9005512 0.44052419 -1.2369089
0.51082987 0.13115895 -1.7523556
0.53136641 0.13643184 -1.7667869
0.54332685 0.13950278 -1.7524083
0.55323368 0.14204642 -1.7385784
0.56918389 0.14614169 -1.7436377
0.58204824 0.14944473 -1.739105
0.59814131 0.15357672 -1.7438867
0.61430943 0.15772799 -1.7485267
0.62386584 0.16018166 -1.7342529
0.65415663 0.16795902 -1.7652106
0.66551197 0.17087457 -1.7499416
0.685763 0.17607416 -1.7523775
0.69868857 0.17939286 -1.7469265
0.71160293 0.18270873 -1.7413611
0.73211241 0.18797465 -1.7540743
0.7411778 0.19030224 -1.7390918
0.76380533 0.19611202 -1.7505832
0.77857292 0.19990368 -1.7436349
0.79741275 0.2047409 -1.7455984
0.81265056 0.20865335 -1.7491891
0.82554877 0.21196504 -1.7427392
0.84275025 0.21638159 -1.745122
0.85122985 0.21855883 -1.7295201
0.86846459 0.22298397 -1.7316314
0.87491345 0.22463976 -1.716876
0.90129662 0.23141374 -1.736379
0.91876709 0.2358994 -1.7379925
0.94569451 0.24281316 -1.7569301
0.95867574 0.24614628 -1.7494149
0.98795474 0.25366381 -1.7666918
0.99116373 0.25448775 -1.7416172
1.030744 0.26465023 -1.7755075
1.045712 0.26849332 -1.7661533
1.0606004 0.27231604 -1.7566646
1.1040848 0.28348094 -1.7636993
1.1349353 0.29140192 -1.7787374
1.1757677 0.30188596 -1.7745239
1.2036637 0.30904847 -1.7789274
1.2224075 0.31386101 -1.7775295
1.2373853 0.31770661 -1.7664484
1.2580132 0.32300308 -1.7632843
1.2786814 0.32830971 -1.7598825
1.3111467 0.33664539 -1.7721355
1.473828 0.37841487 -1.7777046
1.5360173 0.39438236 -1.7612534
1.6051902 0.41214293 -1.7771896
1.6619009 0.42670381 -1.7767694
1.7566044 0.45101953 -1.7783482
1.8877058 0.48468065 -1.7510144
1.8933614 0.48613274 -1.7294384
1.8859771 0.48423678 -1.6926324
1.8633864 0.47843644 -1.6431037
1.8828834 0.48344246 -1.6348191
1.8782995 0.48226544 -1.6092889
1.8826596 0.48338488 -1.5880905
1.8792425 0.48250762 -1.5606838
1.8907434 0.48546043 -1.5458065
1.8868297 0.48445567 -1.5185769
1.8733828 0.48100302 -1.4875056
1.8997874 0.48778269 -1.4847478
1.9029335 0.48859033 -1.4637703
1.9074161 0.4897413 -1.4406655
1.902306 0.48842922 -1.4138843
1.8904546 0.48538646 -1.3793771
1.9020416 0.48836139 -1.3622924
1.9214901 0.49335495 -1.350732
1.9006199 0.48799643 -1.3111459
1.8954295 0.48666367 -1.2830063
1.9224942 0.49361274 -1.2766999
1.8991262 0.48761281 -1.2401425
1.909536 0.49028555 -1.2229849
0.51037174 0.14393985 -1.7619313
0.52329063 0.14758335 -1.7578356
0.54203689 0.15287036 -1.7726891
0.54724354 0.15433878 -1.749944
0.56007338 0.15795718 -1.7455565
0.57601345 0.16245271 -1.7505193
0.58884668 0.16607209 -1.7459036
0.60817945 0.17152451 -1.7599992
0.61594152 0.17371362 -1.7464362
0.63550425 0.1792309 -1.7602302
0.6571818 0.18534458 -1.773065
0.66851145 0.18853989 -1.7577386
0.67781901 0.19116487 -1.7431056
0.69059479 0.194768 -1.7376835
0.71832466 0.20258866 -1.7690018
0.72945261 0.20572706 -1.7640791
0.73464775 0.20719223 -1.7399322
0.75529546 0.21301548 -1.7522994
0.77399439 0.21828912 -1.754475
0.79092777 0.22306485 -1.7573489
0.80383432 0.22670491 -1.7510154
0.81609732 0.23016338 -1.7337559
0.83312398 0.23496537 -1.7361727
0.84584439 0.23855291 -1.7295201
0.87182099 0.2458791 -1.7493917
0.88282216 0.24898173 -1.7434256
0.89559436 0.25258386 -1.736379
0.91295445 0.25747994 -1.7379925
0.93036103 0.26238906 -1.7394482
0.95261049 0.26866412 -1.7494149
0.97022778 0.27363271 -1.7504808
0.98123366 0.27673668 -1.7438456
0.99403512 0.28034708 -1.7360009
1.0217015 0.28814974 -1.7537377
1.0497147 0.29605031 -1.7711163
1.0524672 0.2968266 -1.7457968
1.1023239 0.31088769 -1.7720978
1.1277548 0.31805992 -1.7787374
1.1498657 0.32429582 -1.7754551
1.2128142 0.34204915 -1.7666306
1.2877141 0.36317307 -1.7715241
1.392619 0.39275938 -1.7749513
1.4093379 0.39747447 -1.7606479
0.50042909 0.15395224 -1.753502
0.51880598 0.15960571 -1.7685775
0.53065354 0.16325049 -1.7542394
0.54640901 0.16809751 -1.7594546
0.55619645 0.17110851 -1.7455565
0.57383633 0.17653522 -1.7498705
0.58840978 0.18101859 -1.7445648
0.60619748 0.18649083 -1.7485267
0.62561083 0.19246317 -1.762376
0.63504416 0.19536522 -1.7479849
0.64941961 0.19978768 -1.752923
0.6604836 0.20319143 -1.7376348
0.68217039 0.20986316 -1.7500573
0.6912604 0.2126596 -1.7353199
0.71137869 0.21884879 -1.7481549
0.73175335 0.22511686 -1.7607553
0.73681176 0.22667302 -1.736585
0.75126809 0.23112039 -1.7297918
0.7638849 0.23500182 -1.7237325
0.78642499 0.24193604 -1.7347629
0.80503547 0.24766143 -1.7365142
0.82190764 0.25285196 -1.7390037
0.85609972 0.26337084 -1.7770281
0.84719425 0.26063114 -1.7256689
0.87487841 0.2691479 -1.7444332
0.89210415 0.2744472 -1.7462041
0.91851699 0.2825729 -1.7653835
0.92212141 0.28368175 -1.7404932
0.94887471 0.29191211 -1.7592112
0.95510757 0.29382959 -1.7439994
0.97745228 0.30070376 -1.7535861
0.98715436 0.3036885 -1.7360009
1.02143 0.31423309 -1.7611184
1.0461391 0.32183456 -1.7687327
1.0710524 0.32949892 -1.7760284
1.08913 0.33506036 -1.7758464
1.1039006 0.33960432 -1.7658348
1.1291895 0.34738418 -1.7723304
1.1439291 0.3519187 -1.7619532
1.2452073 0.38307598 -1.7727695
1.3203007 0.40617767 -1.7760421
0.50571346 0.16871892 -1.7506249
0.50989515 0.17011403 -1.7178673
0.53101426 0.17715991 -1.7422795
0.54660362 0.18236093 -1.7474464
0.55923045 0.18657351 -1.7430007
0.57052016 0.19034006 -1.7283453
0.59119695 0.19723837 -1.7418619
0.60525274 0.20192775 -1.7471389
0.6196925 0.20674519 -1.7415044
0.63749409 0.21268426 -1.7450691
0.66237402 0.22098483 -1.7670388
0.6662873 0.2222904 -1.7330748
0.68609554 0.22889893 -1.7461324
0.69870883 0.23310703 -1.7405652
0.71883726 0.2398224 -1.7532421
0.72588646 0.24217419 -1.7390918
0.73456109 0.24506827 -1.7240827
0.75889975 0.25318831 -1.7453845
0.7894299 0.26337385 -1.7745519
0.79178214 0.26415864 -1.7401727
0.80434918 0.26835141 -1.7337559
0.81689811 0.27253798 -1.7272233
0.83547151 0.27873456 -1.7285527
0.86726922 0.28934306 -1.7562815
0.88439488 0.29505661 -1.7580919
0.8881017 0.29629329 -1.7333163
0.92347467 0.30809462 -1.7699356
0.93164736 0.31082124 -1.7537169
0.95370442 0.31818002 -1.7635502
0.97413683 0.3249968 -1.7742419
0.99178886 0.33088598 -1.7749561
1.0046018 0.3351607 -1.7669302
1.0290853 0.34332898 -1.7746855
1.0437369 0.34821716 -1.7651509
1.1333127 0.37810192 -1.7754551
1.153331 0.3847805 -1.7732092
1.2284871 0.4098545 -1.778437
1.2767491 0.42595589 -1.778025
1.325384 0.44218177 -1.7763536
1.3400382 0.44707072 -1.7640933
1.4011811 0.46746954 -1.7760246
1.4299124 0.47705501 -1.7767016
1.4860137 0.4957718 -1.778447
0.50519037 0.18187989 -1.7494577
0.51877218 0.1867696 -1.7554466
0.53606337 0.19299482 -1.7600821
0.54751867 0.19711898 -1.7455565
0.56488341 0.20337069 -1.7498705
0.5818702 0.20948632 -1.7647783
0.59136707 0.21290541 -1.7505873
0.6057179 0.21807201 -1.7450359
0.62002271 0.22322205 -1.7393515
0.63411134 0.22829428 -1.7443292
0.65006822 0.23403911 -1.7484384
0.67328864 0.24239896 -1.7600924
0.68051231 0.24499968 -1.7461324
0.69849956 0.25147545 -1.7489592
0.70908123 0.25528508 -1.7332436
0.73676842 0.26525313 -1.7640048
0.74761534 0.26915824 -1.758842
0.75630492 0.27228671 -1.7436349
0.76879543 0.27678353 -1.7374533
0.78940785 0.28420445 -1.7491891
0.80607104 0.29020357 -1.7517223
0.82883769 0.2984001 -1.7620685
0.82867265 0.29834068 -1.7285527
0.85405886 0.30748025 -1.7484105
0.86660933 0.31199872 -1.7414204
0.88176787 0.31745613 -1.7441636
0.90780795 0.32683113 -1.7632828
0.92962265 0.33468494 -1.7733266
0.92375332 0.3325718 -1.7309464
0.94735682 0.34106961 -1.7396225
0.97416741 0.35072201 -1.7577235
0.99825406 0.35939372 -1.7657646
1.0225462 0.36813945 -1.7734915
1.0420547 0.37516293 -1.7724205
1.0845335 0.39045623 -1.7792501
1.0991008 0.39570078 -1.7691234
1.1439456 0.41184589 -1.7732092
1.2588485 0.45321351 -1.7715241
1.2848176 0.46256295 -1.7756349
1.3069804 0.4705421 -1.7699978
1.3273364 0.47787067 -1.7656208
1.3595941 0.48948416 -1.776516
1.3879404 0.49968943 -1.7776477
0.51959717 0.20101714 -1.7536279
0.53094828 0.20540856 -1.7391956
0.55104005 0.21318148 -1.7531139
0.56528717 0.21869326 -1.7478912
0.5794912 0.22418839 -1.7425354
0.59826803 0.23145258 -1.7565321
0.6107738 0.23629071 -1.751577
0.62834835 0.24308977 -1.7551312
0.64602709 0.24992917 -1.7584893
0.66208243 0.25614059 -1.7516103
0.67812032 0.26234514 -1.7553711
0.69785637 0.26998043 -1.7681931
0.7104423 0.27484959 -1.7624214
0.72118503 0.27900559 -1.757398
0.7260226 0.28087711 -1.7332048
0.74789149 0.28933758 -1.7445177
0.76426715 0.29567283 -1.7473904
0.7744261 0.29960302 -1.7311563
0.80080605 0.30980864 -1.7507793
0.81323647 0.31461763 -1.7441795
0.82141387 0.31778124 -1.7285527
0.85087496 0.32917887 -1.7572857
0.85465771 0.33064228 -1.7325807
0.87404394 0.33814228 -1.7441636
0.90433276 0.34986016 -1.7720553
0.91240096 0.35298148 -1.7558554
0.93866819 0.3631435 -1.7744375
0.95129168 0.36802712 -1.7666918
0.94790745 0.36671793 -1.7340962
0.96976924 0.3751756 -1.7434709
1.0063626 0.38933247 -1.7782167
1.0158889 0.39301792 -1.7602291
1.1698295 0.452573 -1.7707559
1.2699472 0.49130565 -1.7786098
0.50310951 0.20839493 -1.7470982
0.5164699 0.213929 -1.753024
0.52596152 0.21786056 -1.7391956
0.54881525 0.22732687 -1.7625902
0.56476134 0.23393196 -1.7566788
0.57846481 0.23960811 -1.7620631
0.58773273 0.24344701 -1.7478282
0.59680563 0.24720514 -1.7335548
0.61232364 0.25363293 -1.7379097
0.62790972 0.26008886 -1.7421203
0.65057892 0.26947874 -1.7539179
0.65941137 0.27313727 -1.7392448
0.67882115 0.2811771 -1.7521819
0.69478565 0.28778982 -1.7557192
0.69800091 0.2891216 -1.732427
0.71773136 0.29729423 -1.7448719
0.73382771 0.30396155 -1.748
0.74615157 0.30906627 -1.7418771
0.75620747 0.31323159 -1.7257277
0.76834571 0.31825936 -1.7194347
