# .PCD v0.7 - Point Cloud Data file format
VERSION 0.7
FIELDS x y z
SIZE 4 4 4
TYPE F F F
COUNT 1 1 1
WIDTH 1436
HEIGHT 1
VIEWPOINT 0 0 0 1 0 0 0
POINTS 1436
DATA ascii
0.69035202 -0.4933328 -1.71118
0.5060221 -0.34389222 -1.7459036
0.51704592 -0.35138398 -1.7411757
0.53245592 -0.36185664 -1.7450359
0.54658693 -0.37146002 -1.7386373
0.56355894 -0.38299423 -1.7521747
0.57153916 -0.3884176 -1.7376348
0.58714628 -0.39902413 -1.7516104
0.59976625 -0.40760067 -1.7453488
0.60910064 -0.4139443 -1.7297534
0.63160962 -0.42924139 -1.7615962
0.63938147 -0.43452317 -1.7465626
0.65719068 -0.44662631 -1.7588421
0.66136664 -0.44946426 -1.7345536
0.67738879 -0.4603529 -1.736554
0.68989658 -0.46885321 -1.7293408
0.70288503 -0.47768012 -1.7328227
0.71536499 -0.48616153 -1.7253406
0.72401953 -0.49204314 -1.7088269
0.50437307 -0.3256695 -1.7498705
0.51159114 -0.33033019 -1.7257046
0.52995223 -0.34218577 -1.7391261
0.54403043 -0.35127595 -1.7436272
0.55080539 -0.35565048 -1.7192224
0.56645012 -0.36575216 -1.7227477
0.58371496 -0.37689993 -1.736123
0.59166634 -0.38203406 -1.7215054
0.61240017 -0.39542174 -1.7437625
0.63017958 -0.40690178 -1.7565321
0.6346997 -0.40982035 -1.7324271
0.64762008 -0.41816294 -1.7365851
0.66380191 -0.4286114 -1.738896
0.68360871 -0.4414005 -1.75007
0.68762755 -0.44399548 -1.7257278
0.70598084 -0.45584601 -1.7374394
0.71340251 -0.46063817 -1.7219958
0.73196131 -0.47262138 -1.7333384
0.74847907 -0.4832868 -1.7345642
0.76667297 -0.49503443 -1.7345759
0.50212967 -0.3077054 -1.7537625
0.50799412 -0.31129915 -1.730299
0.52654159 -0.32266504 -1.7438867
0.53658092 -0.32881716 -1.7290344
0.55376381 -0.33934689 -1.7429254
0.56814617 -0.34816039 -1.7472533
0.57170391 -0.35034057 -1.7242146
0.58605087 -0.35913241 -1.7283425
0.60693288 -0.3719289 -1.7508289
0.62321705 -0.38190785 -1.7537807
0.63126397 -0.38683903 -1.7389542
0.64417875 -0.39475322 -1.7324271
0.66747379 -0.40902841 -1.7531613
0.67694867 -0.41483462 -1.7371681
0.69707203 -0.42716622 -1.7482905
0.70269573 -0.43061244 -1.7230473
0.71709764 -0.43943796 -1.714866
0.73585415 -0.450932 -1.7262906
0.75319707 -0.46155968 -1.7384351
0.77234721 -0.47329488 -1.7493918
0.77574486 -0.47537702 -1.7247425
0.7966361 -0.48817921 -1.7343448
0.80791724 -0.49509227 -1.7271519
0.50046051 -0.29069054 -1.7360697
0.51354176 -0.2982887 -1.7309531
0.52904654 -0.30729464 -1.7459036
0.54349399 -0.3156864 -1.7505873
0.55967605 -0.3250857 -1.7544178
0.56982988 -0.33098346 -1.7393515
0.58606732 -0.34041491 -1.7428547
0.60074019 -0.3489376 -1.7469269
0.6057567 -0.35185146 -1.7230377
0.61710286 -0.35844183 -1.7176448
0.63519633 -0.36895132 -1.7305492
0.64840752 -0.376625 -1.7348837
0.66681284 -0.38731569 -1.7474116
0.67834425 -0.39401364 -1.7414656
0.68783915 -0.39952874 -1.7254721
0.69919902 -0.40612704 -1.719355
0.71964282 -0.41800171 -1.7302569
0.74030387 -0.43000269 -1.7408756
0.74791467 -0.43442333 -1.7253406
0.76713997 -0.44559032 -1.7365038
0.77296686 -0.44897485 -1.7217851
0.81118631 -0.47117448 -1.7323024
0.83096498 -0.48266286 -1.742594
0.84408283 -0.4902823 -1.7341417
0.50384998 -0.27699381 -1.7373283
0.51941878 -0.28555283 -1.7524736
0.52416033 -0.28815955 -1.7189008
0.54909348 -0.30186665 -1.7512774
0.56080908 -0.30830735 -1.7464362
0.57105613 -0.31394073 -1.731426
0.59374952 -0.32641652 -1.7536572
0.60223252 -0.33108008 -1.7391382
0.61714798 -0.33927989 -1.7431056
0.62878025 -0.34567478 -1.7376837
0.6489256 -0.35674983 -1.7606037
0.64686406 -0.35561645 -1.7181396
0.67762476 -0.3725273 -1.7573981
0.69103801 -0.37990129 -1.7505833
0.70439857 -0.38724631 -1.7436351
0.71976113 -0.39569199 -1.7465028
0.73901951 -0.40627936 -1.7582058
0.73919916 -0.40637815 -1.7247729
0.74682152 -0.41056857 -1.7093247
0.76057047 -0.41812712 -1.7126303
0.78003651 -0.42882866 -1.7237312
0.80380148 -0.44189352 -1.7434257
0.8154304 -0.44828662 -1.7363791
0.83709067 -0.46019441 -1.7457378
0.85729098 -0.47129965 -1.7558556
0.88102192 -0.48434585 -1.7635503
0.89888072 -0.49416384 -1.7633535
0.50520152 -0.26243111 -1.7391956
0.51865071 -0.26941741 -1.7341614
0.52915287 -0.27487284 -1.719547
0.54841 -0.28487611 -1.7331163
0.56181037 -0.29183707 -1.7276573
0.5734874 -0.29790279 -1.7227786
0.59787846 -0.31057295 -1.7551312
0.60325378 -0.31336516 -1.7313251
0.61659378 -0.32029474 -1.736123
0.63001496 -0.32726651 -1.7299935
0.64859593 -0.33691853 -1.74296
0.65173483 -0.33854905 -1.719746
0.66690302 -0.3464283 -1.7232609
0.68579262 -0.35624069 -1.7357365
0.69920814 -0.36320949 -1.7289265
0.71463126 -0.37122113 -1.7319345
0.73016244 -0.37928897 -1.734763
0.74188262 -0.38537711 -1.7284371
0.7575112 -0.3934955 -1.7309645
0.7715255 -0.40077534 -1.7342801
0.77920389 -0.40476394 -1.7186936
0.79903561 -0.41506571 -1.7296712
0.81656599 -0.42417204 -1.7305773
0.86475527 -0.44920433 -1.7579857
0.86959666 -0.45171922 -1.732008
0.89015138 -0.46239653 -1.7418152
0.93524069 -0.48581856 -1.758353
0.95345032 -0.49527776 -1.7576213
0.50545132 -0.24761802 -1.7518002
0.51633883 -0.25295174 -1.7373283
0.53113705 -0.26020133 -1.7423514
0.54305542 -0.26604006 -1.7377898
0.55967855 -0.27418363 -1.7418619
0.57470977 -0.28154737 -1.7464362
0.58837414 -0.28824145 -1.740785
0.59875721 -0.29332805 -1.7256733
0.61887693 -0.3031846 -1.7383815
0.63585871 -0.31150389 -1.741565
0.64776868 -0.31733853 -1.7361141
0.66317695 -0.32488698 -1.7397543
0.6822173 -0.33421475 -1.7524213
0.69956803 -0.34271479 -1.7548651
0.7115947 -0.34860659 -1.7488587
0.71771789 -0.35160634 -1.7237326
0.74486125 -0.36490369 -1.7537466
0.76248658 -0.37353826 -1.7554439
0.780195 -0.38221356 -1.7569315
0.78583241 -0.38497528 -1.7314334
0.79525071 -0.38958925 -1.7148459
0.82372522 -0.40353873 -1.7434257
0.86558568 -0.42404595 -1.7524116
0.91554892 -0.44852272 -1.7438457
0.94297969 -0.46196091 -1.760648
0.99844587 -0.48913351 -1.7579119
1.0104846 -0.49503121 -1.7493613
0.50836694 -0.23436031 -1.7422795
0.52500832 -0.24203211 -1.7468219
0.53537971 -0.24681337 -1.7430007
0.54618788 -0.25179601 -1.7283453
0.56598288 -0.2609216 -1.7418619
0.57349771 -0.264386 -1.7175856
0.59500176 -0.2742995 -1.740785
0.60877472 -0.28064889 -1.7350012
0.61915457 -0.2854341 -1.7197891
0.63787067 -0.29406232 -1.7330748
0.65854967 -0.30359545 -1.7453487
0.67419547 -0.3108083 -1.7489593
0.68817949 -0.31725502 -1.7532423
0.70396966 -0.32453436 -1.7565603
0.71987355 -0.33186617 -1.7597009
0.72066212 -0.33222973 -1.7263458
0.73860145 -0.34049988 -1.7392319
0.75456375 -0.34785861 -1.7419897
0.75866336 -0.34974855 -1.7176163
0.78266847 -0.36081505 -1.7380571
0.79641265 -0.3671512 -1.7304702
0.81254238 -0.37458712 -1.7326164
0.83126241 -0.38321716 -1.7444333
0.84334844 -0.38878888 -1.737385
0.87959647 -0.40549946 -1.7383844
0.90231788 -0.41597417 -1.7472515
0.92697096 -0.4273394 -1.7547096
0.94375181 -0.43507549 -1.7554606
0.95762777 -0.44147238 -1.746325
0.98095465 -0.45222625 -1.7540865
1.0013698 -0.46163774 -1.7518702
1.0183986 -0.46948814 -1.751812
1.0421683 -0.4804461 -1.7587088
1.0800732 -0.49792051 -1.7549692
1.08362 -0.49955553 -1.728066
1.079002 -0.49742672 -1.5838944
1.0804878 -0.49811167 -1.557572
1.076064 -0.49607223 -1.5234495
0.51374733 -0.22231828 -1.7422795
0.52768129 -0.22834803 -1.7373283
0.53985453 -0.23361583 -1.7328821
0.55498481 -0.24016331 -1.7377898
0.56233829 -0.24334545 -1.7243719
0.58872002 -0.25476182 -1.7565321
0.59631866 -0.25805002 -1.7321415
0.61016834 -0.26404339 -1.7264054
0.6289897 -0.27218807 -1.7398808
0.64115012 -0.27745035 -1.734603
0.65330088 -0.28270847 -1.7292118
0.66894412 -0.28947788 -1.7329501
0.69369322 -0.30018777 -1.7540745
0.70400953 -0.30465207 -1.7382629
0.72372299 -0.31318289 -1.7505833
0.74540007 -0.32256338 -1.7617979
0.74773705 -0.32357466 -1.7275095
0.77174151 -0.33396232 -1.7482804
0.78222632 -0.33849955 -1.7427393
0.79852509 -0.34555256 -1.7451221
0.79824466 -0.34543127 -1.7116901
0.81445003 -0.35244393 -1.7138712
0.85036641 -0.36798638 -1.7611256
0.86700416 -0.37518612 -1.7628214
0.89783955 -0.38852978 -1.7558556
0.91640431 -0.39656347 -1.7559444
0.93216705 -0.40338466 -1.7460657
0.95079923 -0.4114475 -1.7457353
1.0168566 -0.44003305 -1.7603333
1.0291771 -0.44536462 -1.751812
1.0531982 -0.45575953 -1.7587088
1.0915043 -0.47233605 -1.7549692
1.1003033 -0.47614372 -1.7362949
1.1036062 -0.47757301 -1.7094085
1.097526 -0.47494182 -1.6650428
1.0983541 -0.47530022 -1.6396976
1.0879315 -0.47079 -1.5983934
1.0919942 -0.47254804 -1.5826077
1.0919234 -0.4725174 -1.557572
1.0802882 -0.46748245 -1.5168512
0.50297815 -0.20372708 -1.7476865
0.51531816 -0.20872527 -1.7434967
0.52765632 -0.21372275 -1.7391956
0.54407734 -0.22037396 -1.7543987
0.55824661 -0.22611311 -1.7492094
0.57546729 -0.2330882 -1.7533132
0.59279662 -0.2401073 -1.7572252
0.59872878 -0.24251007 -1.7335548
0.61099404 -0.24747801 -1.7285661
0.62656438 -0.25378466 -1.7328042
0.64569265 -0.26153237 -1.7461619
0.66330099 -0.26866448 -1.7492715
0.68100852 -0.27583683 -1.7521819
0.69881332 -0.28304848 -1.7548913
0.71119869 -0.28806505 -1.7490898
0.72911608 -0.29532239 -1.7514492
0.74325454 -0.30104902 -1.7445178
0.7533918 -0.30515498 -1.7284043
0.76785988 -0.31101519 -1.7320684
0.78823578 -0.31926832 -1.7436606
0.80053908 -0.32425159 -1.7371235
0.82120341 -0.33262151 -1.7483101
0.82078034 -0.33245021 -1.7148459
0.85700476 -0.34712258 -1.7621433
0.86423779 -0.35005227 -1.7353549
0.88269895 -0.35752982 -1.7359191
0.89217705 -0.36136883 -1.7188172
0.92904139 -0.37630045 -1.7537618
0.95073283 -0.38508639 -1.7633535
0.96495908 -0.39084858 -1.754335
0.97911191 -0.39658108 -1.745183
1.0077958 -0.40819931 -1.7614259
1.0251753 -0.41523865 -1.7615312
1.039384 -0.4209938 -1.751812
1.0636433 -0.43081981 -1.7587088
1.0988809 -0.4450925 -1.7454091
1.1041578 -0.44722992 -1.7172422
1.1019573 -0.44633859 -1.6822817
1.0992767 -0.4452529 -1.6474953
1.0906378 -0.44175377 -1.6048249
1.0853385 -0.43960732 -1.5717461
1.0924077 -0.44247067 -1.5535009
1.0935986 -0.44295302 -1.5273293
0.51653326 -0.19518161 -1.7447056
0.5289945 -0.19989032 -1.7404335
0.5413965 -0.20457663 -1.7360697
0.56465507 -0.21336532 -1.7593293
0.57588243 -0.2176078 -1.7445648
0.59470135 -0.22471887 -1.7586163
0.60723114 -0.22945349 -1.7537163
0.61487663 -0.23234248 -1.7292899
0.63061517 -0.23828954 -1.7335347
0.64996648 -0.24560179 -1.736123
0.66766548 -0.25228968 -1.7392448
0.68546462 -0.25901541 -1.7421679
0.70336199 -0.26577827 -1.7448908
0.72154605 -0.27264947 -1.7582474
0.7340982 -0.27739251 -1.7522995
0.74269038 -0.28063923 -1.7371681
0.75904447 -0.28681892 -1.7401111
0.77143741 -0.29150185 -1.7338717
0.77973139 -0.29463586 -1.7185193
0.80204159 -0.30306619 -1.7290981
0.82881194 -0.31318182 -1.7483101
0.84126145 -0.31788617 -1.7415016
0.85804582 -0.32422841 -1.7434257
0.8811003 -0.33293998 -1.7529727
0.90615869 -0.34240878 -1.7611737
0.92508054 -0.34955871 -1.7613729
0.93942368 -0.35497853 -1.752676
1.0207255 -0.3856999 -1.7590495
1.1214657 -0.42376649 -1.748467
1.1125412 -0.42039421 -1.7064351
1.0976479 -0.41476655 -1.6565137
1.1275493 -0.4260653 -1.6705391
1.106274 -0.41802603 -1.6128893
1.0953943 -0.41391501 -1.5717461
1.0953099 -0.41388306 -1.5468022
1.1161458 -0.42175633 -1.5549726
0.53393835 -0.18750574 -1.7613209
0.53776228 -0.18884861 -1.7284524
0.55320787 -0.1942727 -1.7335279
0.56745994 -0.19927768 -1.7283453
0.58802593 -0.20649995 -1.7418619
0.60057223 -0.21090589 -1.7370468
0.61485147 -0.2159204 -1.731426
0.63248432 -0.22211264 -1.7350012
0.65022266 -0.22834188 -1.7383815
0.66447812 -0.23334804 -1.7431056
0.67700249 -0.2377463 -1.7376835
0.70051891 -0.24600466 -1.7597883
0.7131623 -0.25044471 -1.7540743
0.72397882 -0.2542432 -1.7490898
0.74042964 -0.26002026 -1.7522995
0.76269203 -0.2678383 -1.7635657
0.77496099 -0.27214685 -1.7465028
0.78345472 -0.27512962 -1.7311565
0.79588968 -0.27949649 -1.7247729
0.82514626 -0.28977066 -1.7540715
0.82743013 -0.29057273 -1.7304702
0.84851724 -0.29797798 -1.7415016
0.86544639 -0.30392307 -1.7434257
0.88242388 -0.30988511 -1.7451932
0.88770133 -0.31173843 -1.7194201
0.9138537 -0.32092255 -1.7383844
0.932796 -0.32757458 -1.7385588
0.95654583 -0.33591494 -1.7471638
0.97266901 -0.34157696 -1.7371356
1.0015923 -0.35173407 -1.7537378
1.0277326 -0.3609139 -1.7602292
1.0472212 -0.3677578 -1.759114
1.0685633 -0.37525263 -1.7565472
1.0863746 -0.38150758 -1.756201
1.098981 -0.38593459 -1.7473681
1.1133262 -0.39097223 -1.7371371
1.0990177 -0.3859475 -1.6869216
1.1020081 -0.3869977 -1.6603346
1.088158 -0.38213381 -1.6094365
1.0902431 -0.38286608 -1.5831562
1.0976077 -0.38545236 -1.5649867
1.0990623 -0.38596317 -1.538829
0.50246024 -0.16325919 -1.7416314
0.52257586 -0.16979511 -1.7560421
0.53238922 -0.17298371 -1.7422795
0.54504061 -0.17709439 -1.7379494
0.56861508 -0.18475419 -1.7612901
0.58007556 -0.18847793 -1.7465647
0.59593177 -0.19362991 -1.7512774
0.62981808 -0.20464025 -1.7595031
0.63734853 -0.20708704 -1.7457954
0.64999354 -0.21119565 -1.7406334
0.66796803 -0.21703593 -1.743879
0.68241584 -0.22173026 -1.7376835
0.69502944 -0.22582868 -1.7321476
0.70757371 -0.22990456 -1.7265234
0.73358858 -0.23835732 -1.7582474
0.74246287 -0.24124078 -1.7431729
0.75903916 -0.24662675 -1.7462631
0.76947457 -0.25001734 -1.7301735
0.78612542 -0.2554276 -1.7329639
0.80464721 -0.26144561 -1.7346727
0.82144088 -0.26690227 -1.7371235
0.82114863 -0.26680729 -1.7037103
0.85966575 -0.27932227 -1.7503868
0.87236655 -0.28344896 -1.7434257
0.90574592 -0.29429466 -1.7359191
0.93120801 -0.30256775 -1.7439337
0.95037442 -0.30879527 -1.7439995
0.96961248 -0.31504607 -1.7438457
0.98712516 -0.32073632 -1.7445952
1.0309458 -0.33497453 -1.7517257
1.0555948 -0.34298348 -1.759114
1.1130435 -0.36164972 -1.7556889
1.12044 -0.36405298 -1.738413
1.1240174 -0.3652153 -1.7116083
1.0998758 -0.35737133 -1.6439766
1.0951751 -0.35584399 -1.6107037
1.1068535 -0.35963848 -1.6018537
1.0974774 -0.356592 -1.5594825
1.0989313 -0.3570644 -1.5333803
0.51161039 -0.15300387 -1.7398978
0.53010035 -0.15853353 -1.7548392
0.53995734 -0.1614814 -1.7410542
0.55269301 -0.16529016 -1.7366949
0.56665075 -0.16946445 -1.7423514
0.5856635 -0.17515042 -1.7566788
0.58885884 -0.17610607 -1.7236971
0.60801023 -0.18183354 -1.7377456
0.62588072 -0.18717796 -1.7415044
0.64041698 -0.19152522 -1.7357373
0.6549046 -0.19585793 -1.729838
0.67294079 -0.20125189 -1.7330748
0.68561411 -0.20504202 -1.7276547
0.70941991 -0.21216148 -1.7497745
0.71841335 -0.2148511 -1.7348835
0.73880583 -0.22094972 -1.7474115
0.75945216 -0.22712429 -1.7597009
0.77814656 -0.23271509 -1.7617979
0.77649939 -0.23222248 -1.7184649
0.7949996 -0.23775522 -1.7203338
0.81782734 -0.24458219 -1.7309645
0.8390578 -0.25093138 -1.7422731
0.8535924 -0.2552782 -1.7345642
0.87071377 -0.26039857 -1.7365627
0.93261981 -0.2789124 -1.74712
0.9519273 -0.28468654 -1.7472515
0.96649921 -0.28904447 -1.7385144
0.99075878 -0.29629961 -1.7468554
1.0280244 -0.30744436 -1.7467524
1.0673877 -0.31921655 -1.7446159
1.0923866 -0.32669279 -1.7515888
1.1069894 -0.33105993 -1.7415723
1.1161419 -0.3337971 -1.7231387
1.1070231 -0.33107007 -1.6812176
1.1045512 -0.33033076 -1.6464957
1.0904571 -0.32611573 -1.5956665
1.1037565 -0.33009312 -1.5856735
1.0998752 -0.32893243 -1.5514438
1.0996652 -0.32886952 -1.5266569
0.50774556 -0.13890339 -1.7422112
0.52526116 -0.1436951 -1.7470982
0.53812808 -0.1472151 -1.7428843
0.543118 -0.14858019 -1.7201879
0.56989866 -0.15590656 -1.7531139
0.6076408 -0.16623163 -1.760693
0.61543417 -0.16836368 -1.7471389
0.62672913 -0.1714536 -1.7321415
0.65168434 -0.17828061 -1.7544011
0.67568618 -0.18484673 -1.7338338
0.69763696 -0.19085179 -1.7461324
0.70477033 -0.19280328 -1.7213441
0.73461711 -0.2009684 -1.7515848
0.74540949 -0.20392089 -1.7357364
0.76613766 -0.20959146 -1.7480001
0.78950286 -0.2159835 -1.7257278
0.79797566 -0.21830134 -1.7104325
0.82762873 -0.2264135 -1.7399333
0.84291786 -0.23059614 -1.7432197
0.8531611 -0.23339842 -1.7266272
0.86945564 -0.2378561 -1.7178683
0.8929944 -0.24429558 -1.7275649
0.93065232 -0.2545976 -1.7632829
0.95016265 -0.25993502 -1.7635263
0.95725846 -0.2618762 -1.7363977
0.98940486 -0.27067047 -1.7633535
0.99255085 -0.27153108 -1.7382501
1.0270878 -0.28097931 -1.7634459
1.0349823 -0.28313908 -1.7467524
1.0529432 -0.28805256 -1.7469792
1.077973 -0.29489994 -1.7542543
1.092698 -0.29892826 -1.744435
1.102016 -0.30147734 -1.7261437
1.1057159 -0.30248952 -1.6995271
1.1199791 -0.30639151 -1.6894588
1.0826613 -0.29618251 -1.6067733
1.1073298 -0.30293107 -1.6132121
1.1022352 -0.30153736 -1.58008
1.0909795 -0.29845816 -1.5390862
1.13857 -0.31147742 -1.5771937
0.52850074 -0.13128018 -1.7470982
0.54327708 -0.13495065 -1.7422795
0.55618715 -0.13815753 -1.7379494
0.57525438 -0.14289385 -1.7524736
0.58003449 -0.14408122 -1.7296532
0.59932905 -0.14887406 -1.7438867
0.6173948 -0.15336159 -1.7478282
0.63370317 -0.15741265 -1.752296
0.64322674 -0.15977828 -1.7379097
0.68154073 -0.16929553 -1.7546911
0.73740685 -0.18317275 -1.763258
0.76532209 -0.19010691 -1.7505832
0.77605575 -0.19277318 -1.7345536
0.78474224 -0.19493093 -1.719355
0.81239706 -0.20180042 -1.7501107
0.82535744 -0.20501976 -1.7436606
0.83824009 -0.20821984 -1.7371235
0.85987759 -0.21359466 -1.7483101
0.87279367 -0.21680297 -1.7415016
0.90109384 -0.22383277 -1.7601218
0.92056918 -0.22867052 -1.7607563
0.95687306 -0.23768844 -1.7515702
1.0209647 -0.25360888 -1.7594924
1.0408802 -0.25855589 -1.7587829
1.0557359 -0.26224607 -1.7493566
1.1104943 -0.27584812 -1.7369831
1.1233193 -0.27903381 -1.7282054
1.1179129 -0.27769092 -1.6957767
1.1139178 -0.27669859 -1.6622349
1.1038886 -0.27420729 -1.6206913
1.1062839 -0.27480227 -1.594434
1.1066717 -0.27489859 -1.5694931
1.1083763 -0.27532199 -1.5434053
0.51001453 -0.11400169 -1.7433555
0.52113903 -0.11648831 -1.7398978
0.55188191 -0.12336014 -1.7404335
0.58461833 -0.13067761 -1.7397542
0.59615481 -0.1332563 -1.7250339
0.61896068 -0.13835406 -1.7485267
0.63538504 -0.14202531 -1.7530016
0.65188217 -0.14571284 -1.7573324
0.65956575 -0.14743032 -1.7435989
0.67438972 -0.15074389 -1.7376348
0.69100904 -0.15445875 -1.741565
0.70020753 -0.15651484 -1.7268794
0.72635639 -0.16235982 -1.7481549
0.74121672 -0.1656815 -1.7415932
0.7621268 -0.17035545 -1.7540072
0.79600954 -0.17792915 -1.7491741
0.80667442 -0.18031301 -1.7329639
0.82568038 -0.18456136 -1.7346727
0.84042209 -0.18785651 -1.7272234
0.85767496 -0.19171299 -1.7295202
0.86606532 -0.19358845 -1.7138712
0.889754 -0.19888349 -1.7237411
0.90718699 -0.20278023 -1.7255411
0.94536436 -0.21131386 -1.7611737
0.95554936 -0.21359049 -1.7439337
0.97521687 -0.21798672 -1.7439995
0.99988335 -0.22350033 -1.7524786
1.0266564 -0.22948478 -1.7594924
1.0416018 -0.2328255 -1.7502451
1.107147 -0.24747656 -1.7553008
1.116685 -0.24960859 -1.7369831
1.1151165 -0.24925797 -1.702024
1.1075287 -0.24756186 -1.6589736
1.1104546 -0.2482159 -1.632599
1.1039613 -0.24676456 -1.6006175
1.0873778 -0.24305767 -1.5513325
1.1005481 -0.24600157 -1.5415503
1.1019735 -0.24632019 -1.5156124
0.50882733 -0.10121195 -1.7444916
0.52475941 -0.10438106 -1.7500377
0.53971779 -0.10735646 -1.745302
0.55160427 -0.10972081 -1.7309228
0.56763816 -0.11291018 -1.7360697
0.58884114 -0.11712771 -1.7498705
0.5972681 -0.11880395 -1.7257046
0.62352675 -0.1240271 -1.7586163
0.63172531 -0.1256579 -1.7342529
0.64654446 -0.12860559 -1.7285661
0.66658539 -0.13259198 -1.7421203
0.68326199 -0.13590918 -1.7461619
0.69818109 -0.13887675 -1.7400161
0.71117687 -0.14146177 -1.7345362
0.72801286 -0.14481069 -1.7381389
0.74491441 -0.1481726 -1.7415932
0.75607806 -0.1503932 -1.736585
0.77496982 -0.15415101 -1.7388959
0.79809368 -0.15875064 -1.7500699
0.80040395 -0.15921016 -1.7158104
0.82363844 -0.16383179 -1.7266091
0.84527391 -0.16813536 -1.7380571
0.86011755 -0.17108791 -1.7304702
0.88391519 -0.17582159 -1.7405117
0.91357303 -0.1817209 -1.7245179
0.94535369 -0.18804248 -1.7524116
0.96031642 -0.19101875 -1.7439337
0.98008192 -0.19495039 -1.7439995
0.99497116 -0.19791199 -1.7352128
1.0298799 -0.20485578 -1.760648
1.0226983 -0.20342727 -1.7183729
1.0833577 -0.21549313 -1.7506567
1.1036059 -0.21952079 -1.7493613
1.1112913 -0.2210495 -1.7323594
1.098876 -0.2185799 -1.6808017
1.1059436 -0.2199858 -1.6639096
1.1110456 -0.22100066 -1.6482525
1.1138594 -0.22156028 -1.6219212
1.0837762 -0.21557641 -1.5456247
1.1085107 -0.22049642 -1.5520906
1.1042253 -0.21964401 -1.5180721
0.51670671 -0.090179667 -1.7427799
0.52978593 -0.092462376 -1.7387286
0.54098499 -0.094416916 -1.7351716
0.55403614 -0.096694723 -1.7309228
0.56702518 -0.098961666 -1.726583
0.58001089 -0.10122801 -1.7221324
0.59759748 -0.10429738 -1.7371238
0.61063194 -0.10657226 -1.7324464
0.63230073 -0.11035408 -1.7457427
0.64728403 -0.11296909 -1.740075
0.65865785 -0.11495413 -1.7249508
0.69937408 -0.12206022 -1.7407979
0.7124629 -0.1243446 -1.7353199
0.72933936 -0.12729 -1.7389541
0.75026971 -0.13094296 -1.7515848
0.75141758 -0.13114329 -1.7183052
0.78246182 -0.13656135 -1.748
0.80161232 -0.13990368 -1.7500699
0.80393279 -0.14030866 -1.7158104
0.83402681 -0.14556091 -1.7455118
0.84024799 -0.14664666 -1.720139
0.87281585 -0.15233065 -1.7483101
0.87422317 -0.15257628 -1.7138712
0.89813495 -0.15674959 -1.7237411
0.92974854 -0.16226698 -1.7519524
1.0111994 -0.17648245 -1.7513509
1.0174327 -0.17757036 -1.736001
1.1156737 -0.1947162 -1.7565472
1.1107985 -0.19386525 -1.7239904
1.1182936 -0.1951734 -1.7069935
1.116346 -0.19483347 -1.6721877
1.0970941 -0.19147341 -1.6128616
1.1091803 -0.19358285 -1.6043206
1.1057421 -0.19298275 -1.5700294
1.1018 -0.19229484 -1.535923
1.1090935 -0.19356772 -1.5180721
0.52244651 -0.078546241 -1.7416314
0.54040921 -0.081246823 -1.7464985
0.55961591 -0.084134407 -1.7613209
0.56981742 -0.085668117 -1.7474464
0.57981217 -0.087170795 -1.7335279
0.59747875 -0.0898268 -1.7485566
0.61585629 -0.092589743 -1.7526402
0.63095737 -0.094860122 -1.7471389
0.65295672 -0.098167546 -1.7602302
0.65726793 -0.098815724 -1.7371914
0.68119359 -0.10241277 -1.7599962
0.68709946 -0.10330071 -1.736123
0.70956385 -0.10667805 -1.7484962
0.72658503 -0.10923708 -1.7521819
0.72809857 -0.1094646 -1.7189502
0.75085008 -0.11288516 -1.7307746
0.77791226 -0.11695377 -1.7514491
0.79712701 -0.11984257 -1.7536037
0.80802107 -0.12148045 -1.7374533
0.82298374 -0.12373002 -1.7302568
0.84661168 -0.12728228 -1.7408756
0.86417878 -0.12992339 -1.7432197
0.87730145 -0.13189627 -1.7365038
0.8995353 -0.13523899 -1.7474115
0.9238655 -0.1388969 -1.7570658
0.93427444 -0.14046179 -1.7400579
0.96551812 -0.14515905 -1.7569302
0.98064286 -0.147433 -1.748343
1.0075101 -0.15147232 -1.7558131
1.0207236 -0.15345888 -1.7479914
1.0529941 -0.15831049 -1.7634459
1.0662638 -0.16030551 -1.7552731
1.0866199 -0.16336589 -1.7542716
1.1017171 -0.16563566 -1.7446159
1.12752 -0.169515 -1.7515888
1.1152577 -0.16767146 -1.6999078
1.1151944 -0.16766192 -1.675897
1.1054975 -0.16620405 -1.6342127
1.1121455 -0.1672035 -1.6174285
1.1186328 -0.16817881 -1.6006175
1.103515 -0.16590598 -1.5501064
1.1093355 -0.1667811 -1.5334793
0.51185048 -0.064661659 -1.7557698
0.52225184 -0.065975651 -1.7422112
0.53731549 -0.067878664 -1.7375512
0.5584079 -0.070543207 -1.7518002
0.57667041 -0.072850324 -1.7563155
0.58359569 -0.073725179 -1.7328821
0.5999518 -0.075791433 -1.7377898
0.61977828 -0.078296103 -1.7519544
0.62961376 -0.079538628 -1.7377456
0.64811927 -0.081876412 -1.7415044
0.66486359 -0.083991751 -1.7457954
0.69123596 -0.087323323 -1.735358
0.7137872 -0.090172179 -1.7477061
0.73660433 -0.09305463 -1.7597883
0.74974775 -0.094715104 -1.7432462
0.77097797 -0.097397067 -1.7557068
0.78424078 -0.099072523 -1.7497288
0.80579531 -0.1017955 -1.7617978
0.81255364 -0.10264932 -1.7365539
0.84048796 -0.10617826 -1.7563616
0.85566199 -0.10809515 -1.7489018
0.86184001 -0.10887562 -1.7234495
0.87938899 -0.11109258 -1.725669
0.89245105 -0.11274265 -1.7188427
0.92688143 -0.11709223 -1.7570658
0.94679236 -0.11960761 -1.7576344
0.98873889 -0.1249067 -1.7570412
1.0039132 -0.12682365 -1.7482775
1.1049709 -0.13959019 -1.7566884
1.1201378 -0.14150621 -1.7469022
1.1243037 -0.14203249 -1.7202814
1.0893857 -0.13762139 -1.6356035
1.1167339 -0.14107622 -1.6531796
1.1083841 -0.14002137 -1.6104281
1.0953287 -0.13837209 -1.5585917
1.1087809 -0.14007151 -1.548898
0.53033912 -0.054337423 -1.7506249
0.57701153 -0.059119355 -1.7461851
0.59665924 -0.061132442 -1.7606421
0.62713575 -0.064254977 -1.7499062
0.63539654 -0.0651014 -1.7255819
0.66449034 -0.068082251 -1.7573324
0.67422932 -0.069080129 -1.7428547
0.69478548 -0.071186282 -1.756219
0.698735 -0.071590945 -1.7222787
0.72329277 -0.074107066 -1.7445502
0.74231672 -0.076056227 -1.7473354
0.76144385 -0.078015961 -1.7499191
0.78473806 -0.08040259 -1.761426
0.7999993 -0.081966229 -1.754475
0.80907381 -0.082896039 -1.7392318
0.83084184 -0.085126348 -1.7510154
0.83354187 -0.08540298 -1.7275167
0.85103434 -0.087195233 -1.7300397
0.87689805 -0.089845166 -1.7393901
0.89196444 -0.091388866 -1.7316315
0.9209162 -0.094355203 -1.7502601
0.94360518 -0.096679844 -1.7607563
0.97403085 -0.099797174 -1.7439337
0.99103057 -0.101539 -1.7342285
1.117761 -0.11452349 -1.7385037
1.116393 -0.1143833 -1.7035795
1.1145049 -0.11418988 -1.6688138
1.1120996 -0.1139435 -1.6342127
1.105705 -0.11328828 -1.6022116
1.1080891 -0.11353257 -1.5761184
1.1159172 -0.11433461 -1.5582222
0.51248294 -0.040333178 -1.7354637
0.52856785 -0.041599106 -1.7410587
0.54777491 -0.043110739 -1.7560421
0.56609094 -0.044552248 -1.7606976
0.59986353 -0.047210198 -1.7599815
0.61515188 -0.048413407 -1.7546636
0.62847555 -0.049462002 -1.7499062
0.65059638 -0.051202934 -1.7630945
0.66590989 -0.05240811 -1.7573324
0.67754948 -0.053324204 -1.7421203
0.69819444 -0.054948997 -1.75545
0.71343964 -0.056148838 -1.7492715
0.73634088 -0.057951193 -1.7614038
0.78831422 -0.062041562 -1.7605712
0.80776429 -0.063572355 -1.7626897
0.81694114 -0.064294532 -1.7473904
0.8345052 -0.065676846 -1.7501106
0.84781826 -0.066724643 -1.7436604
0.85031962 -0.066921487 -1.7201389
0.89387 -0.070348963 -1.7316315
1.0213996 -0.080385782 -1.7524786
1.1290467 -0.088857777 -1.7565472
1.1169099 -0.08790262 -1.7048125
1.1021765 -0.086743072 -1.6546247
1.1147255 -0.087730721 -1.6461442
1.1159089 -0.08782389 -1.6210905
1.1035899 -0.086854301 -1.5809636
1.1040183 -0.086888038 -1.5561794
1.1041613 -0.086899303 -1.5314622
0.50938404 -0.028033014 -1.7574532
0.52754509 -0.02903245 -1.7625133
0.53905189 -0.02966569 -1.7590176
0.55246258 -0.030403774 -1.7548392
0.56581044 -0.031138342 -1.7505682
0.57600832 -0.03169952 -1.7366949
0.61229795 -0.033696663 -1.7560055
0.62565303 -0.034431677 -1.7512774
0.63556659 -0.034977239 -1.7370468
0.65960276 -0.036300045 -1.7494303
0.67121243 -0.036938947 -1.7342749
0.68629819 -0.03776915 -1.7283425
0.71641409 -0.039426547 -1.7593169
0.73366308 -0.04037584 -1.7630111
0.76045984 -0.041850518 -1.7515848
0.76972574 -0.042360496 -1.736585
0.81060845 -0.044610392 -1.7509494
0.81538123 -0.04487307 -1.7266266
0.83039486 -0.04569931 -1.7194347
0.85166025 -0.046869617 -1.7201389
0.86473513 -0.047589108 -1.7135835
0.88960111 -0.048957568 -1.7345641
0.91859937 -0.050553482 -1.7532883
0.93103075 -0.051237624 -1.7353549
0.95091867 -0.052332144 -1.7359191
0.96600819 -0.053162586 -1.7275422
0.99208426 -0.054597627 -1.7472515
1.1185654 -0.061558321 -1.7168349
1.1334823 -0.062379196 -1.7069935
1.1091021 -0.061037499 -1.639075
1.1119949 -0.061196703 -1.6128616
1.116784 -0.061460275 -1.5973467
1.0941802 -0.06021633 -1.5398843
1.1117533 -0.061183415 -1.5395652
0.50531232 -0.015879972 -1.7275437
0.52903378 -0.016625445 -1.7517838
0.54726738 -0.017198455 -1.7566452
0.56562585 -0.017775428 -1.7613209
0.57659525 -0.018120121 -1.7366949
0.58981776 -0.018535657 -1.7322446
0.61151528 -0.019217562 -1.7459036
0.6233325 -0.019588901 -1.7310901
0.64187729 -0.020171683 -1.7349601
0.66641796 -0.02094291 -1.7256733
0.69617826 -0.021878194 -1.7569739
0.70579761 -0.022180449 -1.7423426
0.72673965 -0.022838634 -1.7553711
0.74202269 -0.023318898 -1.7489592
0.75724924 -0.023797434 -1.7424141
0.77241814 -0.024274122 -1.7357364
0.79996288 -0.02513973 -1.7562252
0.81525064 -0.025620144 -1.749174
0.82187033 -0.025828255 -1.7239379
0.85002029 -0.026712876 -1.7436604
0.86140859 -0.027070772 -1.738057
0.87201726 -0.027404143 -1.7215501
0.9099791 -0.028597157 -1.7582719
0.91780758 -0.028843177 -1.731588
1.0163999 -0.031941544 -1.7569324
1.0297943 -0.032362472 -1.7491074
1.0719832 -0.033688378 -1.7587829
1.1112722 -0.034923028 -1.7579119
1.126563 -0.035403561 -1.7481426
1.1088322 -0.03484638 -1.6880987
1.1290759 -0.0354826 -1.6866621
1.1025532 -0.034649033 -1.620116
1.1166422 -0.035091776 -1.6104281
1.119109 -0.035169385 -1.5842848
1.1036869 -0.034684744 -1.533875
0.50927293 -0.0039998107 -1.7472907
0.52738273 -0.0041420269 -1.7523556
0.53672361 -0.0042154021 -1.7285861
0.55788434 -0.0043815789 -1.7428843
0.56927907 -0.0044711051 -1.7391956
0.58951414 -0.004630011 -1.7430007
0.607988 -0.0047751181 -1.7472342
0.62321168 -0.0048946855 -1.7418619
0.64183867 -0.0050409846 -1.7457427
0.65351546 -0.0051327171 -1.7307198
0.67220736 -0.0052794935 -1.7342749
0.69470596 -0.0054562502 -1.7469269
0.70803964 -0.0055609164 -1.741565
0.72513831 -0.005695235 -1.7453487
0.74034107 -0.0058146534 -1.7389541
0.75548744 -0.0059336247 -1.732427
0.77465343 -0.0060841264 -1.7348992
0.80223298 -0.0063007879 -1.7553581
0.80294979 -0.0063063628 -1.7219847
0.83516562 -0.0065593831 -1.7510154
0.83726293 -0.0065758955 -1.7166966
0.87005877 -0.0068334751 -1.745122
0.88787305 -0.0069733672 -1.7473501
0.8874104 -0.0069697332 -1.7138711
0.93038404 -0.0073072417 -1.7590997
0.94569898 -0.0074275546 -1.7509135
1.0232815 -0.0080368631 -1.7416173
1.0743818 -0.0084382398 -1.7576213
1.0949681 -0.0086000068 -1.7566648
1.112722 -0.0087393653 -1.7217065
1.1277038 -0.0088570248 -1.7119305
1.1240338 -0.0088282386 -1.6783533
1.1199471 -0.0087961731 -1.6449137
1.1114593 -0.0087294783 -1.6022116
1.0833107 -0.0085084084 -1.5364784
1.108344 -0.0087049846 -1.5432104
1.10996 -0.0087176813 -1.5173374
0.50241971 0.0078927772 -1.7596625
0.51492512 0.0080892034 -1.7456192
0.53013688 0.0083281286 -1.7410587
0.54641509 0.0085838623 -1.7464985
0.56470239 0.0088711567 -1.7511803
0.58311266 0.0091603892 -1.7556752
0.59517485 0.0093498714 -1.7410569
0.61504841 0.0096620815 -1.7553409
0.63182616 0.0099256532 -1.7599992
0.63832879 0.010027784 -1.736357
0.6586262 0.01034664 -1.7501441
0.67387193 0.010586131 -1.7443292
0.71357024 0.011209776 -1.7608781
0.72890753 0.011450756 -1.7545832
0.74810612 0.011752297 -1.7573557
0.75941443 0.011929948 -1.7415932
0.77865851 0.012232263 -1.7440301
0.79611266 0.012506474 -1.7471256
0.80941325 0.012715388 -1.7410021
0.81841207 0.01285674 -1.7257277
0.84025615 0.013199913 -1.7374393
0.84908938 0.013338702 -1.7219957
0.87566859 0.013756264 -1.742273
0.89083737 0.013994503 -1.7345641
0.93986201 0.014764626 -1.7540072
0.95033103 0.014929104 -1.7369651
1.0071951 0.015822399 -1.7624437
1.0155786 0.015954066 -1.7460657
1.1196789 0.017589439 -1.7409508
1.1091919 0.017424688 -1.7000853
1.1239837 0.017657086 -1.6903399
1.1124161 0.017475348 -1.6378721
1.1135401 0.017492991 -1.6128616
1.1183358 0.01756827 -1.5973467
1.1130928 0.017486013 -1.5643269
1.1132983 0.017489171 -1.5395652
1.1190857 0.017580068 -1.5229702
0.50209427 0.019727457 -1.7596625
0.5174191 0.020329583 -1.7552105
0.53270447 0.02093013 -1.7506249
0.56740367 0.022293467 -1.7606976
0.58273494 0.022895832 -1.7556752
0.59991437 0.023570824 -1.7498705
0.61657828 0.024225522 -1.7546636
0.6486364 0.025485087 -1.7537163
0.66009164 0.025935192 -1.7494303
0.67703676 0.026600976 -1.7536572
0.69405413 0.027269561 -1.7577386
0.70560169 0.027723271 -1.7423426
0.74562758 0.02929591 -1.7473354
0.76484001 0.030050773 -1.7499191
0.78630233 0.030894 -1.7622923
0.7914533 0.031096388 -1.738026
0.81310201 0.031946976 -1.7500699
0.8202576 0.032228101 -1.7356666
0.846515 0.033259738 -1.7563616
0.86428547 0.033957977 -1.7588227
0.86426103 0.033957023 -1.7253405
0.89294016 0.035083789 -1.7444273
0.90811723 0.035680164 -1.7365626
0.93735611 0.036828954 -1.7550234
0.96781909 0.038025815 -1.7383842
1.033319 0.040599365 -1.7468554
1.0640072 0.041805077 -1.7634459
1.1297649 0.0443887 -1.7577716
1.1212502 0.044054136 -1.7156216
1.106656 0.043480679 -1.6653595
1.1305088 0.044417903 -1.6734327
1.118826 0.043958943 -1.6330022
1.1198403 0.043998759 -1.6079869
1.1147349 0.043798186 -1.5749121
1.1150564 0.043810822 -1.5501064
0.50447804 0.031739179 -1.7483977
0.52061701 0.032754589 -1.7540767
0.53001744 0.033345986 -1.730338
0.54807878 0.034482319 -1.7351716
0.57438284 0.036137212 -1.7582031
0.5896737 0.037099231 -1.7531139
0.60818946 0.038264174 -1.7573392
0.64021289 0.040278871 -1.7565321
0.65198141 0.041019309 -1.7415044
0.66712385 0.04197197 -1.7357373
0.68400478 0.043034066 -1.7398808
0.70468581 0.044335205 -1.7531549
0.7180407 0.045175422 -1.7477061
0.74099374 0.046619464 -1.7597883
0.75233245 0.047332842 -1.7440629
0.7755723 0.048794974 -1.7557068
0.78671479 0.049496014 -1.7397499
0.80641878 0.050735671 -1.7527163
0.82165301 0.051694144 -1.7455984
0.82815289 0.052103031 -1.7203337
0.85193264 0.053599138 -1.7309644
0.87853074 0.055272598 -1.7512077
0.89641607 0.056397874 -1.7533275
1.0187181 0.06409245 -1.7547095
1.1024023 0.069357388 -1.7506567
1.1230065 0.070653729 -1.7493613
1.1199011 0.070458338 -1.7156216
1.1181934 0.07035087 -1.6808017
1.1159658 0.07021068 -1.6461442
1.1171507 0.070285238 -1.6210905
1.104818 0.069509365 -1.5809636
1.1069539 0.069643714 -1.5549607
1.1145881 0.070124008 -1.5371324
0.51118582 0.044273619 -1.7461755
0.51968956 0.045010109 -1.7332041
0.54901469 0.047549952 -1.7345667
0.57027268 0.049391109 -1.7486993
0.58545417 0.050705958 -1.7436377
0.59868628 0.051851977 -1.739105
0.61523938 0.053285617 -1.7438867
0.63719213 0.055186946 -1.7572252
0.65400481 0.056643087 -1.7616665
0.66740245 0.057803441 -1.7565969
0.67884207 0.058794249 -1.7521747
0.69774139 0.060431052 -1.75545
0.71486211 0.061913926 -1.7484962
0.73389888 0.063562624 -1.7513857
0.75304008 0.065220468 -1.7540743
0.76423907 0.066190377 -1.7382628
0.78973079 0.0683982 -1.7597008
0.80499959 0.069720648 -1.7527163
0.81829429 0.070872113 -1.7465026
0.82481045 0.07143645 -1.7212451
0.85105592 0.073709533 -1.7418009
0.87063152 0.075404987 -1.7432196
0.88575387 0.076714709 -1.7355272
0.91928697 0.079618953 -1.7631427
0.95457619 0.08267539 -1.755548
0.98796517 0.085567169 -1.7483429
1.013109 0.087744854 -1.7569323
1.1324128 0.0980777 -1.7419592
1.1180774 0.096836135 -1.6915749
1.1253567 0.097466573 -1.674656
1.1155132 0.096614048 -1.6330022
1.1165245 0.0967016 -1.6079869
1.1097357 0.096113659 -1.5761184
1.1117548 0.096288539 -1.5501064
1.119298 0.096941806 -1.5322449
0.507074 0.055981625 -1.7574532
0.53748333 0.059338812 -1.7482822
0.55866683 0.061677504 -1.7625513
0.59234136 0.065395229 -1.7619463
0.61946714 0.068389967 -1.7418619
0.63644952 0.070264801 -1.735654
0.66816843 0.073766604 -1.7342749
0.71127254 0.078525357 -1.7600924
0.72651219 0.080207817 -1.7537806
0.74560016 0.082315139 -1.756532
0.76479089 0.084433816 -1.7590809
0.78597653 0.086772762 -1.7605712
0.79518926 0.087789819 -1.7453845
0.80418742 0.088783249 -1.7301733
0.82586849 0.091176853 -1.7419896
0.83284551 0.091947123 -1.7275167
0.85032332 0.093876675 -1.7300397
0.87426376 0.096519724 -1.7403581
0.9011153 0.099484198 -1.7602539
0.94092238 0.10387894 -1.7617815
1.0012361 0.11053764 -1.7624435
1.0418209 0.11501824 -1.7617831
1.0845772 0.11973857 -1.7590495
1.0979112 0.12121066 -1.7506567
1.111151 0.1226723 -1.7421812
1.1134928 0.12293087 -1.7168349
1.1099907 0.12254418 -1.6832421
1.1042699 0.12191264 -1.6510074
1.1055584 0.12205488 -1.6259592
1.1139363 0.12297986 -1.6079869
1.122087 0.12387965 -1.589992
1.1183611 0.12346835 -1.5557711
1.1065787 0.12216756 -1.5149121
0.51320958 0.068932794 -1.7552105
0.53125793 0.071357019 -1.7601912
0.54837406 0.073655955 -1.7548392
0.55857086 0.075025558 -1.7410542
0.5817889 0.078144155 -1.7543987
0.60016704 0.080612622 -1.7586646
0.62055314 0.08335086 -1.7620631
0.63236952 0.084937975 -1.7471389
0.6509372 0.08743193 -1.7508674
0.66773522 0.089688204 -1.7551312
0.68098307 0.091467582 -1.7499416
0.69791412 0.093741737 -1.7539179
0.7621665 0.10237189 -1.7374182
0.78534484 0.1054851 -1.7488586
0.8008216 0.10756391 -1.7527163
0.80982953 0.10877381 -1.7374533
0.85536718 0.1148903 -1.7597576
0.85978079 0.11548312 -1.735235
0.88377404 0.11870582 -1.7454089
0.89425027 0.12011297 -1.7286958
0.91849232 0.12336908 -1.738405
0.93823111 0.12602033 -1.7390345
1.0369014 0.13927342 -1.7629346
1.0572414 0.14200543 -1.7622925
1.1211196 0.15058531 -1.7335844
1.1141174 0.14964484 -1.6903399
1.1286945 0.15160276 -1.6804658
1.1319227 0.15203638 -1.654006
1.1045381 0.14835815 -1.58795
1.1050261 0.1484237 -1.5631018
1.1010265 0.14788646 -1.5290421
1.1083139 0.14886525 -1.5112509
0.503874 0.079805918 -1.7574532
0.52183855 0.082651235 -1.7625133
0.5464865 0.086555101 -1.7548392
0.56273186 0.089128099 -1.7600821
0.59431028 0.094129644 -1.7599815
0.60428464 0.095709398 -1.7459036
0.64457345 0.10209056 -1.7630945
0.67299438 0.10659196 -1.7521747
0.68075109 0.10782053 -1.7275858
0.70120502 0.1110601 -1.7407979
0.72761083 0.11524235 -1.7622149
0.75787628 0.12003591 -1.7490897
0.79616117 0.12609966 -1.7536037
0.81124538 0.12848876 -1.7465026
0.83483016 0.13222422 -1.757292
0.8480739 0.13432179 -1.7507793
0.87198442 0.13810889 -1.7610987
0.88900369 0.14080445 -1.7523545
0.90678835 0.14362134 -1.7542827
1.0131317 0.16046442 -1.7633533
1.1336918 0.17955925 -1.7465971
1.1267179 0.17845471 -1.7032793
1.1190854 0.17724587 -1.6602203
1.1294965 0.17889474 -1.6408029
1.1132783 0.17632608 -1.5912323
1.1079485 0.17548192 -1.5582221
1.1121747 0.17615134 -1.5427696
1.1119971 0.17612311 -1.518072
0.50752395 0.09269046 -1.7557698
0.51881754 0.094753034 -1.7523556
0.53195018 0.097151496 -1.7482822
0.55291563 0.10098045 -1.7625513
0.56003344 0.10228039 -1.7391956
0.58929795 0.10762504 -1.7397542
0.60749424 0.11094828 -1.7438867
0.62205356 0.11360728 -1.749212
0.64389604 0.11759644 -1.762376
0.65549541 0.11971484 -1.7472533
0.67386174 0.12306916 -1.7614949
0.68531239 0.12516041 -1.7461619
0.70582354 0.12890641 -1.7593169
0.7321707 0.13371821 -1.7481549
0.75108224 0.13717209 -1.7507596
0.78733492 0.14379303 -1.7562252
0.80840993 0.147642 -1.7573489
0.81736666 0.14927779 -1.7419896
0.83041286 0.15166043 -1.7356018
0.85218078 0.155636 -1.7470161
0.87159258 0.15918116 -1.74831
0.89561439 0.16356836 -1.7582719
0.91067433 0.16631879 -1.75026
0.99092889 0.18097587 -1.7624435
1.0010653 0.18282713 -1.7449477
1.127472 0.20591311 -1.7357438
1.1258538 0.20561756 -1.7007865
1.1070334 0.20218034 -1.6412495
1.1080937 0.20237397 -1.6161908
1.1071206 0.20219631 -1.592451
1.1092541 0.20258594 -1.5663378
1.1226581 0.20503387 -1.5564381
1.118319 0.20424145 -1.5223823
0.50330859 0.10423035 -1.7563361
0.52112997 0.10792097 -1.7613565
0.53616124 0.11103377 -1.7566452
0.54815638 0.11351787 -1.7422795
0.58545506 0.12124207 -1.7612901
0.59537405 0.12329617 -1.7472342
0.65784323 0.13623293 -1.7558709
0.70262611 0.14550702 -1.7376835
0.74390006 0.15405445 -1.7524211
0.75884652 0.15714969 -1.745725
0.79269367 0.1641591 -1.7410021
0.80754077 0.16723381 -1.7338716
0.84454322 0.17489658 -1.7489018
0.86637616 0.17941804 -1.7601424
1.0464687 0.21671338 -1.7611184
1.1071451 0.22927891 -1.7577715
1.1261358 0.23321171 -1.7211421
1.1297783 0.23396598 -1.694509
1.1312555 0.23427187 -1.6692146
1.1099132 0.2298521 -1.6112605
1.1276096 0.23351686 -1.6107036
1.093588 0.22647133 -1.5371323
1.1092235 0.22970924 -1.5378416
0.50539708 0.11714488 -1.7444916
0.52592456 0.12190291 -1.7590176
0.55273038 0.12811616 -1.7398205
0.57370198 0.1329771 -1.7537625
0.6080972 0.1409495 -1.7627395
0.61972755 0.14364527 -1.7478282
0.62929434 0.14586273 -1.7335548
0.66935301 0.15514781 -1.7499416
0.68420404 0.15859012 -1.743879
0.74582529 0.17287315 -1.7607553
0.75493354 0.17498432 -1.745725
0.77595288 0.17985635 -1.7579672
0.79308009 0.18382622 -1.7609178
0.81496155 0.18889807 -1.7392685
0.83646941 0.19388331 -1.7507793
0.87311268 0.20237674 -1.7543141
0.89250064 0.20687063 -1.7552911
1.1329845 0.26261187 -1.736514
1.1312295 0.26220509 -1.7015194
1.1216568 0.25998619 -1.6597269
1.1115013 0.25763232 -1.6182058
1.1064967 0.25647229 -1.5850511
1.1239761 0.26052371 -1.5844257
1.1141905 0.2582556 -1.5421685
1.1155159 0.2585628 -1.5161693
0.5182308 0.13305917 -1.7500377
0.53300309 0.13685209 -1.745302
0.54773474 0.14063452 -1.7404335
0.56857133 0.14598444 -1.7543987
0.58151525 0.14930788 -1.7498705
0.59445488 0.1526302 -1.7452298
0.61576933 0.15810284 -1.7586163
0.6339826 0.16277918 -1.762376
0.63665932 0.16346644 -1.7292899
0.66533285 0.17082857 -1.7607526
0.68751478 0.17652391 -1.7624309
0.69499183 0.17844369 -1.7376835
0.72097719 0.18511559 -1.7589839
0.76316309 0.19594713 -1.7289264
0.78408074 0.20131783 -1.7410021
0.80292678 0.20615672 -1.7429022
0.82610065 0.21210675 -1.7535872
0.8452034 0.21701153 -1.7550319
0.85379511 0.21921746 -1.73939
0.87550819 0.22479244 -1.7503867
0.89295292 0.22927152 -1.7522755
0.91689873 0.23541971 -1.7617815
0.93707514 0.24060012 -1.727542
0.99541175 0.25557843 -1.7622244
1.0568858 0.27136225 -1.7590494
1.1207876 0.28776947 -1.7524337
1.1193348 0.28739649 -1.7173795
1.1228536 0.28829998 -1.6907344
1.1149142 0.28626141 -1.6477623
1.1063356 0.28405881 -1.6050645
1.1068355 0.2841872 -1.5800799
1.1029156 0.28318077 -1.5458931
1.1043158 0.28354022 -1.5198984
0.54061353 0.15246893 -1.741663
0.56128901 0.15830001 -1.7556752
0.57912701 0.16333084 -1.7599815
0.60675001 0.17112131 -1.7499062
0.62662071 0.17672545 -1.7530016
0.64474964 0.18183836 -1.7565969
0.77984095 0.21993805 -1.7626897
0.78232801 0.22063945 -1.7284042
0.80150461 0.22604783 -1.7410895
0.8287828 0.23374103 -1.7607056
0.84784299 0.23911659 -1.7620685
0.85823143 0.24204643 -1.7454089
1.1320285 0.31926522 -1.7397071
1.1229895 0.31671602 -1.6976999
1.1133722 0.31400356 -1.6559601
1.1066231 0.31210014 -1.6119487
1.1144624 0.31431103 -1.5937635
1.1106311 0.31323048 -1.5594823
1.0989114 0.3099252 -1.5186639
0.50676364 0.15590099 -1.7410587
0.53980517 0.16606589 -1.7511803
0.55555826 0.17091218 -1.7563155
0.5714469 0.17580017 -1.7612901
0.57798731 0.17781225 -1.7377898
0.5988996 0.18424569 -1.7512774
0.60510069 0.1861534 -1.7276573
0.62285441 0.19161519 -1.731426
0.64416152 0.1981701 -1.7443292
0.66220844 0.20372204 -1.7476777
0.68395978 0.21041363 -1.7600924
0.70229113 0.2160531 -1.7630111
0.72593254 0.22332613 -1.7415932
0.74043107 0.2277865 -1.7348992
0.76101279 0.23411827 -1.7471256
0.77959555 0.23983507 -1.749174
0.78592569 0.24178247 -1.7239379
0.80265057 0.24692772 -1.726609
0.82978719 0.25527602 -1.7460777
0.83998942 0.25841466 -1.7295201
0.88034451 0.27082947 -1.7414204
0.9020797 0.27751613 -1.7519523
0.92126429 0.28341806 -1.7524115
0.94741797 0.29146397 -1.7255572
1.1223924 0.34529313 -1.740979
1.1314571 0.3480818 -1.7224238
1.1310784 0.34796524 -1.6861737
1.1211642 0.34491527 -1.6445134
1.123602 0.34566525 -1.618034
1.1086284 0.34105876 -1.5675209
1.1085358 0.34103024 -1.5426427
0.52633357 0.17559831 -1.7333604
0.54066229 0.18037874 -1.7284524
0.56104815 0.18717994 -1.7423514
0.57052016 0.19034006 -1.7283453
0.60381091 0.20144671 -1.7370468
0.62485003 0.20846589 -1.7501441
0.63910192 0.21322069 -1.7551312
0.64484787 0.21513766 -1.7313251
0.67333055 0.22464021 -1.7624309
0.68789434 0.22949906 -1.7561696
0.71131015 0.23731114 -1.7348835
0.76429939 0.25498971 -1.742764
0.77691483 0.25919858 -1.7365539
0.80362386 0.26810938 -1.7563616
0.81393683 0.27155006 -1.7399331
0.82472187 0.27514821 -1.73428
0.84156108 0.28076616 -1.7365037
0.85850894 0.28642038 -1.7385412
0.88177472 0.29418248 -1.7482362
0.90073931 0.30050954 -1.7488461
0.94356823 0.31479833 -1.7581185
1.124555 0.37518007 -1.7575597
1.1229423 0.37464204 -1.7224238
1.1280158 0.37633464 -1.6943589
1.130965 0.37731859 -1.6676476
1.1168065 0.37259495 -1.616761
1.1244968 0.37516069 -1.5983933
1.1205343 0.37383869 -1.5640483
1.120294 0.37375849 -1.5391055
1.1313969 0.37746266 -1.5300533
0.50615978 0.18222889 -1.7596008
0.53788394 0.19365028 -1.7594546
0.56975663 0.20512515 -1.7586646
0.58731538 0.2114467 -1.7627395
0.61107337 0.2200001 -1.7429254
0.64126641 0.23087028 -1.7413719
0.67511439 0.24305628 -1.7376835
0.69125044 0.24886562 -1.7413611
0.71672052 0.25803542 -1.7624214
0.74166834 0.26701722 -1.7397499
0.76202804 0.27434713 -1.7518409
0.77460599 0.27887547 -1.7455984
0.79118836 0.28484556 -1.7482803
0.80788279 0.29085585 -1.7507793
0.82463038 0.29688537 -1.753124
0.84755439 0.30513853 -1.7632192
0.86199927 0.31033897 -1.7552911
0.88080466 0.31710935 -1.7560537
1.0230446 0.36831889 -1.7614257
1.1260816 0.40541446 -1.7619532
1.1190875 0.4028964 -1.7185509
1.1294914 0.40664208 -1.6986145
1.1269039 0.40571046 -1.6637267
1.1127037 0.40059808 -1.6128892
1.122612 0.40416527 -1.6051145
1.1187119 0.40276119 -1.5707217
1.10859 0.39911714 -1.5286051
1.1152898 0.40152916 -1.5103981
0.53494763 0.20695581 -1.758835
0.58394933 0.22591312 -1.7620631
0.61254114 0.23697442 -1.7508674
0.62654817 0.24239333 -1.7558709
0.66380805 0.25680816 -1.7616494
0.74821693 0.28946346 -1.7553581
0.76465142 0.29582152 -1.7582371
0.77491695 0.29979295 -1.7419896
0.79544401 0.30773425 -1.7535872
0.80968565 0.31324393 -1.7460777
0.82809067 0.32036427 -1.7473501
1.0002669 0.38697425 -1.7587827
1.1251088 0.43527192 -1.7189149
1.1282076 0.43647075 -1.6920522
1.1326625 0.43819422 -1.6639295
1.1183423 0.43265414 -1.6131401
1.1145415 0.4311837 -1.5786949
1.1216539 0.43393525 -1.5602859
1.1055204 0.42769372 -1.5103981
0.51293528 0.21246491 -1.7542394
0.59264898 0.24548338 -1.7565321
0.65578347 0.27163458 -1.7624309
0.68239385 0.28265697 -1.7614038
0.69656879 0.28852838 -1.7548912
0.76060921 0.31505483 -1.7455984
0.78921664 0.32690442 -1.7418009
0.82981795 0.34372205 -1.7533275
0.85248983 0.35311306 -1.7631427
1.0063475 0.41684297 -1.7602291
1.1232004 0.46524501 -1.712299
1.1315485 0.46870291 -1.6935216
1.1248916 0.46594551 -1.6492463
1.1198748 0.46386752 -1.6158921
1.1160353 0.46227714 -1.5814123
1.1344147 0.46989012 -1.5787041
1.1283233 0.46736693 -1.5457537
0.50678182 0.22404607 -1.7440974
0.54330713 0.24019375 -1.7625902
0.55735421 0.24640389 -1.7573392
0.74986744 0.33151314 -1.7582371
0.76780945 0.33944517 -1.7600414
0.78182775 0.34564263 -1.7526484
0.80394846 0.35542208 -1.7630206
0.83020973 0.36703205 -1.7484105
1.1232096 0.49656588 -1.6787561
1.1111386 0.49122936 -1.6013008
1.1238769 0.49686089 -1.5906382
1.1252208 0.49745506 -1.5641344
1.1090773 0.49031812 -1.5143101
0.51792985 0.24371949 -1.7486993
0.59109676 0.27814922 -1.7415044
0.61132872 0.2876696 -1.7544011
0.62848353 0.29574206 -1.7577386
0.696208 0.32761076 -1.7590809
0.70637286 0.332394 -1.7431728
0.76132202 0.35825109 -1.7591319
0.77346754 0.36396638 -1.7526484
0.80339634 0.37804982 -1.7473501
0.82724911 0.38927406 -1.7562815
0.52965528 0.26465392 -1.7632424
0.54047799 0.2700617 -1.7485566
0.55241936 0.27602851 -1.7438867
0.58240646 0.29101217 -1.7530016
0.63334322 0.31646386 -1.7523775
0.69494206 0.34724301 -1.7448719
0.71595573 0.357743 -1.7562252
0.7316888 0.36560434 -1.7591375
0.7398634 0.36968896 -1.7437981
0.75173932 0.37562305 -1.7374393
0.7715115 0.38550264 -1.7489018
0.78173435 0.39061069 -1.7432196
0.79360503 0.39654213 -1.7365037
0.81540871 0.40743685 -1.746426
0.52327311 0.27705902 -1.7632424
0.65430814 0.34643847 -1.7389541
0.68000251 0.36004299 -1.7590809
0.71439564 0.37825322 -1.7635655
0.73978758 0.39169753 -1.7501106
0.74549109 0.3947174 -1.7247728
0.77062017 0.40802258 -1.7441795
0.78975868 0.41815591 -1.7444273
0.81547558 0.43177223 -1.7631427
0.5060758 0.28341627 -1.7461851
0.61105561 0.34220776 -1.75545
0.62770176 0.35153005 -1.7585269
0.686575 0.38450068 -1.7622923
0.71700096 0.40154004 -1.7573489
0.75131768 0.42075831 -1.7607056
0.77028638 0.43138129 -1.7610987
0.78764379 0.44110191 -1.7622277
0.80507678 0.45086485 -1.7631427
0.51130944 0.30238774 -1.7625902
0.53481829 0.31629086 -1.7425354
0.56697714 0.33530954 -1.7501441
0.59456033 0.35162216 -1.7592498
0.60291165 0.35656115 -1.744638
0.62254632 0.36817306 -1.7569532
0.64884448 0.38372576 -1.7440629
0.69909447 0.41344351 -1.7617978
0.71230125 0.42125395 -1.754643
0.72379953 0.42805403 -1.7482803
0.74995196 0.44352055 -1.7333382
0.82471967 0.48773801 -1.755548
0.54755151 0.34148431 -1.7551284
