# .PCD v0.7 - Point Cloud Data file format
VERSION 0.7
FIELDS x y z
SIZE 4 4 4
TYPE F F F
COUNT 1 1 1
WIDTH 1468
HEIGHT 1
VIEWPOINT 0 0 0 1 0 0 0
POINTS 1468
DATA ascii
0.48822206 1.1529756 -1.0436411
0.49111134 1.1597989 -1.1566229
0.49291927 1.1640683 -1.2531462
0.48816535 1.1528416 -1.3484253
0.47745433 1.1275467 -1.4528165
0.094949558 0.21028996 1.208165
0.11386182 0.25217599 1.1984751
0.13152149 0.29128784 1.1773927
0.15238141 0.3374874 1.1834197
0.17414747 0.38569388 1.1868079
0.19571611 0.43346316 1.1883622
0.21204492 0.46962744 1.1607701
0.23684296 0.52454901 1.1767981
0.26561102 0.58826321 1.1857053
0.29513472 0.65365094 1.1906872
0.32693392 0.72407842 1.1890016
0.35769865 0.79221469 1.1854736
0.38636476 0.85570306 1.1698267
0.41628298 0.92196459 1.1611588
0.42969701 0.95167339 1.0907695
0.43742922 0.96879834 1.0153745
0.44200492 0.97893238 0.94404614
0.44693735 0.98985654 0.88342011
0.45390654 1.0052916 0.82931167
0.45984253 1.0184383 0.7751956
0.46474466 1.0292953 0.72122371
0.47042409 1.0418739 0.66000003
0.47844225 1.0596322 0.60363293
0.48086971 1.0650084 0.54646277
0.48107722 1.065468 0.49622855
0.48972443 1.0846194 0.44347587
0.50077868 1.1091019 0.39688006
0.4987326 1.1045703 0.34465984
0.50791574 1.1249087 0.29916906
0.51224387 1.1344944 0.25185046
0.51988888 1.1514262 0.20575048
0.52315396 1.1586576 0.14907229
0.52138931 1.1547493 0.087219745
0.51839662 1.1481212 0.026123613
0.52247274 1.1571488 -0.030474886
0.52126938 1.1544837 -0.091354467
0.51906788 1.1496079 -0.14788565
0.52016389 1.1520354 -0.20160404
0.51996434 1.1515933 -0.25994188
0.51466304 1.1398522 -0.31616277
0.50932056 1.1280199 -0.36368048
0.50601399 1.1206968 -0.4218868
0.51239711 1.1348338 -0.49517816
0.51402837 1.1384466 -0.56268483
0.51502764 1.1406597 -0.62740886
0.50656438 1.1219157 -0.68760282
0.51090091 1.1315202 -0.76827234
0.51212054 1.1342212 -0.83742148
0.51188618 1.1337022 -0.90790522
0.51349384 1.1372628 -1.0014776
0.5131045 1.1364005 -1.0958639
0.51640838 1.1437179 -1.1908534
0.51457977 1.1396679 -1.2808063
0.51154792 1.132953 -1.3835953
0.48557523 1.0754299 -1.4377995
0.099065572 0.20630358 1.1983426
0.11879767 0.2473956 1.1887314
0.14061566 0.29283145 1.1966941
0.16029023 0.33380365 1.1834197
0.18318599 0.38148397 1.1868079
0.20587409 0.4287318 1.1883622
0.23156704 0.48223728 1.1738501
0.25606877 0.53326201 1.1800256
0.28732544 0.59835392 1.209883
0.30876881 0.6430096 1.1930215
0.33713579 0.70208371 1.1992989
0.35919574 0.74802345 1.1768769
0.39358181 0.81963229 1.1930199
0.42070928 0.8761251 1.1816549
0.4455134 0.92777956 1.1455754
0.45006099 0.9372499 1.0672899
0.46395051 0.96617472 1.0060598
0.46981904 0.97839594 0.93108082
0.47373286 0.98654646 0.85697329
0.47575119 0.9907496 0.78394902
0.48577985 1.0116342 0.73226637
0.49041924 1.0212958 0.6773802
0.50504893 1.0517621 0.63845289
0.50748426 1.0568335 0.58451915
0.50812751 1.0581732 0.53495431
0.50858504 1.0591259 0.48217592
0.52045327 1.0838416 0.43910807
0.51909119 1.081005 0.38674614
0.52093422 1.084843 0.33799851
0.53048694 1.1047366 0.29281521
0.53493935 1.1140088 0.2458138
0.54715967 1.1394575 0.20162609
0.54621434 1.1374887 0.14376809
0.54845017 1.1421449 0.087219745
0.54530221 1.1355892 0.026123613
0.54088968 1.1264002 -0.034073334
0.54819208 1.1416074 -0.09548822
0.54557765 1.1361629 -0.156138
0.53744119 1.1192187 -0.214724
0.54081297 1.1262405 -0.27839482
0.54275846 1.1302919 -0.34329757
0.53613412 1.1164968 -0.39496198
0.52858877 1.1007836 -0.44594783
0.53068882 1.1051569 -0.51565254
0.53354949 1.1111143 -0.57476085
0.53136742 1.1065701 -0.63051665
0.52810419 1.0997745 -0.68673301
0.531129 1.1060736 -0.75372612
0.53628141 1.1168035 -0.82779962
0.53580797 1.1158175 -0.89931142
0.53417152 1.1124097 -0.97062123
0.53422976 1.1125309 -1.0494158
0.54043561 1.1254547 -1.1390264
0.53664744 1.1175658 -1.2209244
0.53622258 1.116681 -1.3196927
0.52822131 1.1000185 -1.4037598
0.10033563 0.19691975 1.1998147
0.12105849 0.23759066 1.1905022
0.1427561 0.28017464 1.189127
0.16459014 0.32302633 1.185818
0.18859228 0.37013322 1.1895522
0.21072288 0.41356692 1.1821414
0.23229274 0.45590016 1.1732839
0.26328424 0.51672441 1.1857812
0.29342625 0.57588148 1.1966041
0.32616198 0.64012897 1.2016045
0.35713911 0.70092493 1.1941758
0.39374954 0.77277702 1.1992402
0.42100587 0.82627052 1.1789957
0.45283163 0.88873208 1.1601719
0.46752736 0.91757411 1.1043441
0.47497749 0.93219584 1.0326216
0.47911951 0.94032496 0.96495259
0.48163539 0.94526273 0.89811236
0.48969534 0.96108121 0.84464276
0.49700925 0.97543561 0.78994125
0.50277811 0.98675764 0.73649406
0.50742453 0.99587679 0.68326408
0.52285844 1.0261675 0.64498001
0.5215233 1.0235471 0.5869112
0.52465451 1.0296924 0.52666044
0.52919662 1.0386069 0.47837925
0.53305066 1.0461708 0.42881647
0.54009455 1.0599953 0.38367671
0.54634827 1.0722688 0.33799851
0.54753578 1.0745995 0.28816736
0.55213135 1.0836188 0.24191199
0.56125474 1.1015245 0.18476176
0.56444323 1.1077822 0.12931529
0.56207705 1.1031382 0.068959363
0.55839199 1.095906 0.0094026951
0.55795377 1.0950459 -0.049619507
0.55638826 1.0919734 -0.10452808
0.55821258 1.0955539 -0.1605006
0.55886668 1.0968376 -0.21706022
0.55833435 1.0957929 -0.27404487
0.55221236 1.0837778 -0.32876644
0.55737758 1.0939151 -0.39595437
0.54944962 1.0783557 -0.446491
0.54970652 1.0788598 -0.4999842
0.54889375 1.0772645 -0.55418104
0.54699653 1.073541 -0.60893703
0.55192596 1.0832157 -0.67388535
0.54930377 1.0780693 -0.7432577
0.54991496 1.0792689 -0.81509024
0.55106449 1.081525 -0.89818239
0.55343682 1.0861809 -0.9893527
0.55315953 1.0856367 -1.0827315
0.55342209 1.0861521 -1.1849041
0.55616832 1.0915418 -1.3051105
0.54771328 1.0749478 -1.4156615
0.10038637 0.18604857 1.1913893
0.12291978 0.22781034 1.192222
0.14561844 0.2698783 1.1911595
0.17215487 0.31905895 1.185818
0.20068291 0.37193069 1.1976202
0.22769195 0.42198721 1.1867954
0.25205725 0.46714407 1.1647505
0.28610286 0.53024167 1.1857018
0.31972498 0.59255433 1.1931283
0.34982646 0.64834219 1.1904931
0.38484219 0.7132377 1.1902893
0.41481265 0.76878273 1.1698306
0.45367068 0.84079933 1.1693329
0.47570139 0.88162935 1.1298398
0.482703 0.89460564 1.061875
0.49135709 0.91064441 1.0014464
0.49501121 0.91741675 0.93451083
0.50427657 0.93458849 0.8812772
0.50858402 0.94257158 0.82182795
0.51535624 0.95512265 0.76879692
0.52096462 0.96551681 0.71587235
0.52983314 0.98195314 0.66711682
0.53737038 0.99592209 0.61925131
0.54395556 1.0081266 0.5711332
0.54958147 1.0185531 0.52288586
0.55131394 1.021764 0.46319678
0.5605948 1.0389645 0.41083607
0.56949353 1.0554568 0.35240355
0.56718206 1.0511727 0.29366717
0.57750785 1.0703099 0.24191199
0.57765782 1.0705878 0.18180558
0.5858593 1.0857878 0.12423319
0.58791071 1.0895897 0.068959363
0.5887869 1.0912136 0.013526034
0.58367169 1.0817335 -0.045608085
0.58669186 1.0873308 -0.1053779
0.58361542 1.0816292 -0.16453421
0.5838657 1.082093 -0.22511245
0.58268917 1.0799124 -0.28611609
0.58481699 1.083856 -0.34877667
0.58133233 1.0773978 -0.40665314
0.58025706 1.075405 -0.47212905
0.57046813 1.0572629 -0.52236128
0.56914544 1.0548116 -0.57649463
0.57054472 1.0574049 -0.6371606
0.57500625 1.0656735 -0.70264345
0.5738945 1.0636132 -0.764377
0.57135874 1.0589135 -0.82695311
0.56839156 1.0534143 -0.90401834
0.57578611 1.0671189 -0.99731016
0.57167703 1.0595034 -1.0839915
0.57516301 1.0659641 -1.1928571
0.57510525 1.0658571 -1.3044549
0.56527454 1.0476376 -1.4030397
0.11053686 0.19379175 1.1892545
0.13404056 0.23499812 1.1896256
0.16420455 0.28788123 1.205264
0.18920779 0.3317166 1.1797307
0.21842679 0.38294291 1.1910267
0.24269289 0.42548594 1.1825658
0.27411062 0.48056707 1.1764008
0.30462769 0.53406918 1.1906184
0.3384667 0.59339529 1.2105463
0.36631441 0.64221758 1.2006125
0.39087215 0.68527186 1.1806868
0.42390826 0.74319029 1.1830342
0.45755222 0.80217445 1.1820161
0.48214597 0.84529185 1.1546068
0.49695468 0.87125427 1.1018403
0.50991768 0.89398092 1.0496105
0.51454484 0.90209317 0.96843767
0.5203948 0.91234922 0.89510226
0.52406234 0.91877913 0.82268071
0.53243595 0.93345964 0.76652789
0.53864878 0.94435185 0.71278119
0.54748905 0.95985049 0.66561455
0.55534196 0.97361815 0.61811244
0.56219751 0.98563719 0.5703975
0.56806874 0.99593049 0.52251351
0.568367 0.99645346 0.47078592
0.57243246 1.0035809 0.42195541
0.59126383 1.0365958 0.37198937
0.58933151 1.0332081 0.31316039
0.59525496 1.043593 0.26360026
0.60538006 1.0613443 0.21133702
0.60462475 1.06002 0.15390429
0.60264719 1.056553 0.094403945
0.6040678 1.0590435 0.043918002
0.60443658 1.0596901 -0.010646373
0.59854078 1.0493537 -0.06859827
0.60135239 1.0542829 -0.12354289
0.5978201 1.0480902 -0.18032748
0.59770441 1.0478874 -0.2399611
0.59131193 1.0366802 -0.29756394
0.59837776 1.049068 -0.35916644
0.58915085 1.0328914 -0.41669717
0.59772062 1.0479158 -0.48435777
0.59090674 1.0359699 -0.54193711
0.59155226 1.0371015 -0.6083473
0.58827025 1.0313475 -0.66321975
0.58798629 1.0308497 -0.72368562
0.59038949 1.035063 -0.79055977
0.5946461 1.0425255 -0.86598873
0.58954442 1.0335814 -0.92964882
0.594248 1.0418277 -1.0130965
0.59661233 1.0459728 -1.0985876
0.59658712 1.0459286 -1.1858404
0.59679687 1.0462964 -1.2832371
0.59357637 1.0406501 -1.3965366
0.12746587 0.21172012 1.194708
0.15489413 0.25727829 1.1824617
0.18416144 0.30589113 1.1770366
0.21798046 0.36206433 1.1976202
0.24931404 0.41410923 1.1852241
0.26968673 0.44794816 1.1573727
0.30311799 0.50347733 1.1819602
0.33537889 0.55706245 1.1944884
0.36325768 0.603369 1.186756
0.40090498 0.66590095 1.1883817
0.43628657 0.72466958 1.177713
0.47314876 0.78589749 1.174136
0.49860302 0.8281768 1.1469604
0.5103991 0.84777004 1.0870504
0.52000469 0.86372495 1.0281898
0.52487618 0.87181646 0.96147859
0.5348081 0.88831335 0.8954215
0.53872371 0.89481705 0.82339495
0.54663622 0.90795976 0.76999867
0.55523449 0.92224145 0.71083426
0.56222051 0.93384516 0.65172184
0.57011408 0.94695634 0.60485011
0.58349454 0.96918118 0.55481702
0.57984734 0.9631232 0.49906987
0.59558135 0.98925728 0.45194343
0.60052365 0.99746644 0.39665097
0.60907161 1.0116646 0.34418967
0.6065377 1.0074557 0.28503507
0.61756516 1.0257723 0.23410365
0.62264717 1.0342135 0.17638847
0.62116158 1.0317459 0.11729763
0.61819726 1.0268222 0.058891669
0.62410057 1.0366275 0.0013304643
0.61826259 1.0269307 -0.056255769
0.62129307 1.0319644 -0.11464895
0.61263514 1.0175836 -0.17088524
0.62366784 1.0359088 -0.22545826
0.62286687 1.0345784 -0.28157458
0.61593914 1.0230715 -0.33398166
0.61252344 1.017398 -0.39014921
0.618146 1.0267371 -0.44956255
0.611902 1.0163658 -0.50663257
0.60425764 1.0036685 -0.56349099
0.61409146 1.0200025 -0.63638562
0.60557091 1.00585 -0.68640345
0.6090132 1.0115675 -0.75221944
0.60648721 1.0073719 -0.81380296
0.6106497 1.0142858 -0.88810545
0.61274886 1.0177724 -0.96414632
0.61212385 1.0167342 -1.0430512
0.60984474 1.0129488 -1.122018
0.61974436 1.029392 -1.2307189
0.61477977 1.0211457 -1.3354427
0.12822595 0.20205177 1.1962998
0.15454951 0.24353106 1.1957036
0.17889743 0.28189725 1.1838199
0.20627394 0.32503572 1.1892446
0.23045202 0.36313426 1.1736803
0.25835177 0.40709728 1.1749154
0.28886488 0.4551782 1.1829497
0.31457075 0.49568418 1.171086
0.35050827 0.55231267 1.1923484
0.38495594 0.60659349 1.2016045
0.42151698 0.66420448 1.1941758
0.45428807 0.71584344 1.1886086
0.48413366 0.76287258 1.1721946
0.51118046 0.80549151 1.1445427
0.52998805 0.83512759 1.1009426
0.53286582 0.83966219 1.0275804
0.53857315 0.84865546 0.96011609
0.54176921 0.8536917 0.89453709
0.55848557 0.88003242 0.84216195
0.56379431 0.88839769 0.78037524
0.57748669 0.90997344 0.72695076
0.58060604 0.9148888 0.66240102
0.591205 0.93158996 0.60845441
0.60038447 0.94605452 0.55409324
0.61393768 0.96741098 0.49969649
0.60874331 0.95922595 0.44465402
0.61739206 0.9728542 0.400976
0.62144834 0.9792459 0.34493405
0.62439692 0.98389208 0.28650457
0.63630199 1.0026515 0.23218477
0.6415382 1.0109024 0.17494266
0.64529681 1.0168251 0.11729763
0.64221734 1.0119727 0.058891669
0.64835 1.0216361 0.0013304643
0.64238018 1.0122292 -0.052343264
0.64582175 1.0176522 -0.10676275
0.63730663 1.0042346 -0.15922666
0.63774997 1.0049331 -0.21790886
0.63663185 1.0031713 -0.27703303
0.63928401 1.0073504 -0.33787739
0.63494116 1.0005072 -0.39791331
0.63895595 1.0068336 -0.46521133
0.63115317 0.99453825 -0.52596521
0.63125145 0.9946931 -0.5954051
0.62684441 0.98774874 -0.65346652
0.62674367 0.98759007 -0.71327287
0.62509733 0.98499578 -0.7739746
0.62136942 0.97912157 -0.83673239
0.62491119 0.98470241 -0.91117901
0.63447827 0.99977785 -1.0001907
0.63334686 0.9979949 -1.0783682
0.63374168 0.99861705 -1.1647899
0.63808733 1.0054648 -1.2686548
0.62798357 0.98954374 -1.3661771
0.12826943 0.19196878 1.1877689
0.15589292 0.23331025 1.1975658
0.18265368 0.27336055 1.1956218
0.2078692 0.31109825 1.1822048
0.24085496 0.36046493 1.1830697
0.2742722 0.41047734 1.170121
0.30523238 0.4568125 1.1782001
0.33435991 0.50040495 1.1748184
0.37534314 0.5617407 1.2033141
0.40566906 0.60712665 1.1944999
0.43614009 0.65272975 1.183269
0.47317979 0.70816362 1.1858352
0.50750124 0.75952923 1.1771396
0.53209937 0.79634297 1.1414062
0.54406738 0.8142544 1.0828575
0.55049366 0.82387203 1.0171487
0.55152863 0.82542098 0.94413787
0.56335068 0.84311384 0.89123237
0.57626319 0.86243886 0.83247823
0.58290941 0.87238556 0.76756763
0.58955342 0.88232905 0.71576691
0.59725934 0.89386177 0.65718526
0.6081239 0.9101218 0.60362542
0.6125465 0.91674066 0.54522777
0.62547934 0.93609601 0.49537843
0.63197637 0.9458195 0.44094375
0.63773149 0.95443267 0.38269672
0.64184922 0.96059525 0.32447857
0.64434445 0.9643296 0.2664369
0.65630174 0.98222494 0.21095553
0.66116899 0.98950928 0.15403546
0.66433346 0.99424529 0.10068472
0.66077459 0.98891908 0.03893571
0.65552574 0.9810636 -0.014148347
0.66006529 0.98785746 -0.067464419
0.65758246 0.98414165 -0.12308749
0.65903622 0.9863174 -0.18124384
0.65889156 0.98610085 -0.2399313
0.65173733 0.97539383 -0.29655579
0.6537115 0.97834837 -0.35832363
0.64264864 0.96179163 -0.41816217
0.65391058 0.9786464 -0.47702429
0.65150619 0.97504789 -0.53751397
0.65233195 0.97628373 -0.60310286
0.64151943 0.96010166 -0.65996796
0.64193153 0.96071845 -0.73610044
0.63956273 0.95717323 -0.79673016
0.63997418 0.957789 -0.8641026
0.65138465 0.97486603 -0.95154309
0.65099299 0.97427982 -1.029848
0.64882421 0.97103405 -1.1082509
0.65590411 0.98162991 -1.2092528
0.65213555 0.97598988 -1.2979456
0.62278885 0.93206936 -1.3568275
0.13985789 0.19899765 1.1955081
0.17034616 0.24237806 1.1937902
0.19802605 0.28176257 1.191216
0.22582705 0.3213194 1.1866996
0.2602126 0.3702451 1.1866373
0.28831369 0.41022888 1.1777043
0.32502097 0.46245804 1.1817758
0.36517209 0.51958734 1.1912928
0.40565374 0.57718688 1.1976645
0.44095433 0.62741458 1.1951194
0.47598016 0.67725128 1.190493
0.50794625 0.72273439 1.1749662
0.54351878 0.77334905 1.1646968
0.55661803 0.79198736 1.1062696
0.56860179 0.80903852 1.0329804
0.57200253 0.81387728 0.95646054
0.57969135 0.8248173 0.89784986
0.5901053 0.8396349 0.84598404
0.5990923 0.85242212 0.79408121
0.60668194 0.86322111 0.74221724
0.60804904 0.86516625 0.68510127
0.6131565 0.87243342 0.63284987
0.63388669 0.90192956 0.58924592
0.63184559 0.89902532 0.53002322
0.64044708 0.91126406 0.47278467
0.65734702 0.93531018 0.42601618
0.65669858 0.93438762 0.36832964
0.65441757 0.93114197 0.31162843
0.66738409 0.94959152 0.26262996
0.67926055 0.96648997 0.21095553
0.67830372 0.9651286 0.15662335
0.68184346 0.97016513 0.099845685
0.67814291 0.96489978 0.038608517
0.67845744 0.96534729 -0.014148347
0.67167413 0.95569563 -0.06633056
0.67501837 0.96045399 -0.1194923
0.67674029 0.96290404 -0.1758932
0.67110848 0.95489073 -0.23215748
0.66951019 0.95261663 -0.29030627
0.66753447 0.94980544 -0.34112665
0.6689769 0.95185786 -0.3991698
0.6625374 0.94269532 -0.45822456
0.67007279 0.95341718 -0.52952629
0.66091013 0.94037998 -0.58564776
0.66020119 0.93937129 -0.6512419
0.662274 0.94232059 -0.72320467
0.65720785 0.93511218 -0.79103923
0.65155971 0.92707574 -0.85580403
0.66346693 0.94401801 -0.94273096
0.66816187 0.95069814 -1.025784
0.66943806 0.95251399 -1.1120566
0.66403151 0.94482124 -1.2063478
0.66892242 0.95178032 -1.3207031
0.1348538 0.18257743 1.1885201
0.16904397 0.22886725 1.1966386
0.19764531 0.26759034 1.1945425
0.22640787 0.30653176 1.1904948
0.25526008 0.34559456 1.1844858
0.28493512 0.3857713 1.1759645
0.31553754 0.42720369 1.175599
0.35444438 0.47987932 1.1998688
0.38915521 0.52687407 1.2032714
0.42145965 0.57061076 1.1953557
0.46179259 0.6252172 1.1883817
0.50254774 0.68039525 1.177713
0.54271656 0.73477948 1.1771396
0.56501848 0.76497388 1.1209233
0.58141685 0.78717548 1.0563661
0.58394879 0.79060346 0.98287845
0.59631383 0.80734444 0.9177171
0.60642046 0.82102764 0.85268271
0.61900884 0.83807105 0.79408121
0.61996037 0.83935922 0.72389591
0.62219709 0.84238756 0.66396832
0.63166213 0.8552022 0.61849189
0.65272617 0.88372058 0.57496649
0.66196156 0.89622432 0.52104586
0.67055523 0.90785921 0.46319261
0.67126727 0.90882331 0.40427768
0.67633462 0.91568393 0.34669068
0.67391813 0.91241223 0.28677207
0.69296288 0.93819672 0.23598585
0.69853932 0.94574666 0.18359236
0.69706082 0.94374496 0.12590355
0.69970775 0.94732857 0.073332287
0.70099229 0.94906771 0.016743081
0.69479746 0.94068056 -0.03573006
0.69890171 0.94623733 -0.092581734
0.69545782 0.94157463 -0.14891478
0.69626307 0.94266486 -0.20664133
0.69536573 0.94144994 -0.26483691
0.69274092 0.93789625 -0.32335845
0.68861741 0.93231344 -0.38078564
0.68806803 0.93156964 -0.4431031
0.68552643 0.9281286 -0.50619239
0.68848634 0.932136 -0.56675309
0.68317026 0.92493868 -0.62758815
0.67731732 0.91701436 -0.68500066
0.68069166 0.92158282 -0.75116175
0.67768711 0.91751504 -0.81173038
0.67760319 0.91740137 -0.87910676
0.68912441 0.93299985 -0.96680862
0.6907993 0.93526745 -1.0400342
0.68308491 0.92482311 -1.1126982
0.69843221 0.94560164 -1.2280188
0.68978971 0.93390065 -1.3093967
0.1490767 0.19218852 1.1955081
0.17918561 0.2310047 1.1947508
0.20699936 0.26686195 1.182724
0.23643075 0.30480468 1.1784713
0.26807722 0.34560308 1.1816485
0.30496055 0.39315277 1.1793345
0.33908847 0.43715024 1.1764008
0.3740274 0.48219323 1.1817331
0.42354721 0.5460338 1.2060493
0.45866355 0.59130549 1.1832099
0.49910223 0.6434387 1.1876378
0.53774464 0.6932562 1.1669732
0.58168435 0.7499029 1.1615889
0.58361673 0.75239414 1.066862
0.59447616 0.76639408 0.99565971
0.60588878 0.78110707 0.93400776
0.60942876 0.78567088 0.86816925
0.61975592 0.79898453 0.8170228
0.62860048 0.81038684 0.76585549
0.63091344 0.81336868 0.70914006
0.63669449 0.82082158 0.65861374
0.64633733 0.83325303 0.61346346
0.66250449 0.85409564 0.56569284
0.67178869 0.86606479 0.5125736
0.67322969 0.86792248 0.45779076
0.68591624 0.88427788 0.4045634
0.68530828 0.88349414 0.34451509
0.68871278 0.88788313 0.28799
0.708395 0.91325736 0.23777628
0.70851558 0.91341281 0.18050677
0.71910173 0.92706037 0.12590355
0.70959795 0.91480815 0.072089374
0.7109006 0.91648751 0.016459299
0.70444036 0.90815902 -0.038870677
0.71470326 0.92138988 -0.095603481
0.71106887 0.91670442 -0.15144008
0.71182913 0.91768461 -0.20869648
0.70487243 0.90871608 -0.26417786
0.70830858 0.91314596 -0.32320806
0.70380515 0.90734017 -0.38143432
0.70232201 0.90542805 -0.44703901
0.70515692 0.90908283 -0.51373345
0.7024793 0.90563089 -0.56987327
0.70223939 0.90532154 -0.6351006
0.69458228 0.89545012 -0.69614983
0.69002867 0.88957965 -0.76296031
0.68318087 0.88075149 -0.83044606
0.68821454 0.88724083 -0.91742271
0.69893754 0.90106487 -1.0200336
0.70532876 0.90930438 -1.1259559
0.7130993 0.91932207 -1.2394904
0.69836748 0.90032989 -1.3282278
0.15602586 0.19164783 1.194708
0.19115376 0.23479572 1.192154
0.22298504 0.27389434 1.1782018
0.2553069 0.31359553 1.1827832
0.28815573 0.35394403 1.185154
0.31900498 0.3918364 1.1760527
0.35443428 0.4353545 1.1836143
0.38772994 0.47625184 1.1797245
0.4306857 0.52901471 1.1996055
0.46843955 0.57538807 1.1989967
0.50403535 0.6191107 1.1864023
0.54261243 0.66649526 1.1802355
0.58157873 0.71435785 1.1711358
0.59634191 0.73249161 1.1132979
0.6006934 0.73783654 1.0406078
0.6075983 0.74631786 0.97505587
0.6214413 0.7633214 0.92393243
0.62896419 0.77256179 0.86599791
0.63517308 0.78018826 0.80744129
0.64909315 0.79728639 0.7625041
0.65657759 0.80647951 0.71140474
0.66661876 0.8188132 0.65020329
0.67878377 0.83375555 0.59749836
0.69044161 0.84807497 0.54079497
0.69144946 0.84931296 0.49047446
0.69285703 0.85104185 0.43367839
0.70440781 0.86522985 0.38417041
0.70266223 0.86308569 0.32703051
0.71175915 0.87425947 0.27325678
0.72495568 0.8904689 0.22450924
0.73092145 0.89779669 0.16915944
0.7349661 0.9027648 0.11722003
0.73767042 0.90608656 0.06123307
0.73234785 0.89954877 0.0088675823
0.72555643 0.8912068 -0.042641707
0.74230123 0.91177464 -0.10027897
0.73872924 0.90738708 -0.15273444
0.7274605 0.89354563 -0.20316836
0.73332441 0.90074825 -0.25882018
0.73072934 0.89756078 -0.31689006
0.72654712 0.89242375 -0.37391058
0.72117984 0.885831 -0.42848933
0.71997344 0.88434917 -0.48699564
0.71688908 0.8805607 -0.54615283
0.71743715 0.88123387 -0.61058235
0.70444804 0.8652792 -0.66711682
0.70750874 0.8690387 -0.7347129
0.71501172 0.87825471 -0.80593234
0.71006554 0.87217921 -0.86689693
0.71382946 0.8768025 -0.95502084
0.72042012 0.88489783 -1.0341908
0.71292025 0.87568569 -1.1193835
0.72770339 0.89384395 -1.2495962
0.69983351 0.85961115 -1.3151813
0.1549807 0.18145908 1.206629
0.19141215 0.22411484 1.2044642
0.22801125 0.26696688 1.1996831
0.26262426 0.30749351 1.1827832
0.30381945 0.35572687 1.1914496
0.33480072 0.39200127 1.1715987
0.36845267 0.43140265 1.1696727
0.41855928 0.49006996 1.2089415
0.45718116 0.53529036 1.2101445
0.49295166 0.57717222 1.2001128
0.5325309 0.62351358 1.1958853
0.56870067 0.66586292 1.1807227
0.60569209 0.70917434 1.1620278
0.61200851 0.7165699 1.0888402
0.6200915 0.72603387 1.0238951
0.62862587 0.73602635 0.95535058
0.64126724 0.75082749 0.89102995
0.65146911 0.76277232 0.82690167
0.65762931 0.76998496 0.76651603
0.67614734 0.79166681 0.7273159
0.68562365 0.80276215 0.66932291
0.69309926 0.81151497 0.61152011
0.70557225 0.82611895 0.55506331
0.71021813 0.83155859 0.49406537
0.7178241 0.84046406 0.44096336
0.72459692 0.84839398 0.38417041
0.72326291 0.84683204 0.32460165
0.7327342 0.85792154 0.26957589
0.74573368 0.87314194 0.22450924
0.75829667 0.88785136 0.17060524
0.75603104 0.88519859 0.11722003
0.75232726 0.88086206 0.060709707
0.74685812 0.87445855 0.0050178058
0.74615443 0.87363458 -0.050162297
0.75019932 0.87837058 -0.10614188
0.74602807 0.87348664 -0.16144079
0.74667448 0.8742435 -0.21696909
0.74537069 0.87271696 -0.27420375
0.74984825 0.87795949 -0.32697812
0.74576545 0.87317914 -0.38143432
0.74001241 0.86644316 -0.43595627
0.7434181 0.87043077 -0.50217503
0.73854518 0.86472535 -0.56542116
0.73708624 0.86301708 -0.63396007
0.73045892 0.85525751 -0.69091558
0.73439497 0.85986608 -0.75557554
0.73032618 0.85510206 -0.81702149
0.72996402 0.85467803 -0.88406903
0.7322495 0.85735404 -0.95872557
0.73187286 0.85691297 -1.034873
0.73335332 0.85864639 -1.1193835
0.74942118 0.87745947 -1.2347196
0.73297173 0.85819966 -1.3243284
0.15966007 0.17825677 1.1962998
0.19346751 0.21600199 1.1850374
0.22716205 0.25362113 1.1923397
0.25736776 0.28734514 1.1784713
0.29413268 0.3283923 1.1910267
0.32680935 0.36487502 1.1825658
0.35584006 0.39728713 1.1635896
0.39724404 0.44351372 1.1780885
0.44225627 0.49376887 1.1989586
0.47849801 0.5342319 1.1906872
0.51492929 0.57490659 1.1800128
0.55919349 0.62432653 1.183224
0.59704804 0.66659027 1.1662294
0.62548876 0.69834369 1.1322455
0.62197065 0.69441581 1.0444803
0.62888569 0.70213628 0.98036087
0.6444611 0.71952581 0.92873704
0.65767294 0.73427653 0.87789762
0.65896273 0.73571658 0.81418014
0.67192024 0.75018334 0.75719756
0.68128943 0.76064378 0.70346695
0.69593781 0.77699834 0.65180069
0.70887065 0.79143757 0.59960735
0.71414834 0.79733002 0.54245466
0.71745211 0.8010186 0.48583093
0.73122919 0.81640035 0.43725777
0.73807544 0.82404405 0.38091475
0.73660803 0.82240576 0.32180336
0.75274324 0.84042037 0.26957589
0.76706165 0.85640651 0.21698914
0.76651627 0.85579759 0.16019768
0.77076149 0.86053729 0.10489184
0.76666868 0.85596776 0.04514879
0.76724881 0.85661548 -0.0062622102
0.75284016 0.84052855 -0.060360696
0.76995361 0.85963535 -0.11746701
0.75883251 0.84721887 -0.16998082
0.76610035 0.85533321 -0.2244892
0.77098995 0.86079234 -0.28409684
0.76174265 0.85046798 -0.3354882
0.76359731 0.85253865 -0.39267924
0.76154822 0.8502509 -0.45827696
0.75926793 0.84770501 -0.51711553
0.75964475 0.8481257 -0.58482701
0.75739443 0.84561324 -0.65375215
0.75558507 0.84359318 -0.71626937
0.74440646 0.83111256 -0.77763164
0.73106599 0.81621814 -0.83888644
0.75130475 0.83881426 -0.94489777
0.75903666 0.84744674 -1.0379294
0.7581175 0.84642059 -1.1264236
0.76900136 0.85857213 -1.2495962
0.73954982 0.82569021 -1.3151813
0.14591174 0.15538022 1.2012355
0.18403359 0.19597587 1.2002604
0.22146729 0.23583871 1.2074072
0.25284714 0.26925486 1.1941818
0.28930202 0.30807534 1.1976202
0.32567355 0.34680709 1.1775235
0.36904019 0.39298788 1.1829497
0.41554344 0.44250882 1.1946169
0.4664526 0.49672157 1.222984
0.50970531 0.54278105 1.2091274
0.55210721 0.58793443 1.192942
0.59767097 0.63645494 1.1826303
0.64008009 0.68161607 1.1729012
0.65602326 0.6985938 1.1146749
0.6652571 0.70842689 1.0490302
0.6631456 0.70617837 0.96873629
0.66788226 0.71122235 0.90387833
0.68062693 0.72479409 0.85294813
0.68692553 0.7315014 0.79463136
0.69613361 0.74130702 0.74395019
0.69804376 0.74334115 0.68780726
0.70671147 0.75257128 0.6311065
0.71932918 0.76600778 0.57948041
0.73020583 0.77759027 0.52749676
0.73828566 0.78619438 0.47878247
0.73945415 0.78743869 0.42278579
0.74517232 0.79352796 0.37085256
0.75577927 0.80482316 0.32180336
0.75842237 0.80763781 0.26854545
0.77259994 0.82273537 0.22067147
0.77218419 0.82229269 0.16482201
0.77670825 0.82711029 0.11051182
0.77944338 0.83002287 0.055947084
0.7872287 0.8383134 0.0012644908
0.76596302 0.81566781 -0.048853714
0.77052128 0.82052183 -0.099704057
0.78026831 0.83090132 -0.15259221
0.76762456 0.81743711 -0.20530257
0.76666439 0.81641465 -0.26113769
0.77720052 0.82763445 -0.32152849
0.77307701 0.82324338 -0.37512964
0.77263707 0.82277495 -0.43608865
0.777327 0.82776916 -0.49815762
0.76743954 0.81724012 -0.55286086
0.77974534 0.83034444 -0.62651837
0.76993614 0.81989872 -0.69091558
0.76103401 0.8104189 -0.74809653
0.7593835 0.80866128 -0.82085544
0.7653982 0.81506634 -0.90743178
0.76979089 0.81974399 -0.9926942
0.76726913 0.81705868 -1.0706135
0.77209127 0.82219368 -1.1628726
0.78232616 0.83309275 -1.2720151
0.70365983 0.74932158 -1.277881
0.1761182 0.17890662 1.1938906
0.21136084 0.21470724 1.2028414
0.24629691 0.25019646 1.1996831
0.28047499 0.28491563 1.1948878
0.31225926 0.31720313 1.1787605
0.34905687 0.35458335 1.1793345
0.38542399 0.39152628 1.1782001
0.4349981 0.44188526 1.2104189
0.4670856 0.47448081 1.1858748
0.51590663 0.52407479 1.203032
0.55848086 0.56732309 1.1999348
0.59749514 0.60695505 1.1858352
0.64083356 0.65097964 1.1771396
0.68993163 0.70085508 1.172048
0.74817836 0.76002395 1.1792763
0.80281597 0.81552666 1.1747352
0.80816203 0.82095736 1.0813432
0.80400467 0.81673419 0.98316926
0.78432149 0.79673934 0.87546915
0.76231748 0.77438694 0.78408986
0.75681853 0.76880097 0.70729828
0.74204475 0.75379324 0.62774628
0.74372584 0.75550097 0.56221902
0.74160373 0.75334525 0.5013929
0.75115019 0.76304293 0.44624981
0.75870764 0.77072001 0.39096463
0.76428878 0.77638948 0.33568138
0.76791137 0.78006941 0.28054199
0.76959813 0.78178293 0.22568595
0.79017067 0.80268115 0.17587839
0.78122991 0.79359883 0.11950167
0.78435248 0.79677081 0.065935299
0.79268336 0.8052336 0.012326144
0.78517485 0.79760623 -0.041529313
0.78287286 0.79526782 -0.095180042
0.785721 0.79816103 -0.14993843
0.78667009 0.79912513 -0.20530257
0.79251814 0.80506581 -0.26340845
0.7829839 0.79538065 -0.31607884
0.78474432 0.79716891 -0.37563017
0.78326058 0.79566169 -0.43980148
0.7943089 0.80688494 -0.50557894
0.79777384 0.81040472 -0.56542116
0.79150945 0.80404115 -0.62540442
0.78147894 0.79385179 -0.68934023
0.77818984 0.79051065 -0.75174034
0.77445692 0.78671861 -0.81128931
0.78442842 0.79684794 -0.89140642
0.77681726 0.78911632 -0.96682489
0.78610021 0.79854625 -1.0563949
0.79165292 0.80418688 -1.1483332
0.80283713 0.81554818 -1.2571132
0.74913955 0.76100039 -1.2839658
0.1713697 0.16606879 1.206629
0.20598811 0.19961636 1.2063674
0.24082452 0.23337519 1.2041758
0.27585316 0.26732031 1.2000188
0.31098682 0.30136719 1.1938865
0.34711877 0.33638149 1.1852241
0.38139671 0.3695991 1.175599
0.42842418 0.41517189 1.1998688
0.47037986 0.4558298 1.2032714
0.51309186 0.49722061 1.2039553
0.56131881 0.54395574 1.2093937
0.60604233 0.58729589 1.1913842
0.66039526 0.6399675 1.18504
0.71082491 0.68883729 1.1666752
0.78782713 0.7634576 1.1919987
0.83310044 0.80733049 1.1450157
0.83703476 0.8111431 1.0518173
0.82340693 0.79793686 0.9515239
0.82040817 0.79503083 0.87661648
0.82418001 0.79868597 0.80176556
0.82484263 0.79932809 0.72822332
0.82401311 0.79852426 0.65250397
0.81992316 0.79456079 0.57861829
0.81560808 0.79037923 0.52209598
0.81825334 0.79294264 0.46325305
0.8123228 0.7871955 0.40056822
0.81749952 0.79221213 0.34669068
0.80694574 0.78198487 0.28799
0.81593901 0.7906999 0.23374617
0.80886233 0.78384215 0.17587839
0.82827115 0.80265057 0.12376959
0.81724411 0.79196465 0.067112714
0.81143445 0.78633469 0.012326144
0.80374837 0.77888632 -0.041529313
0.7942366 0.76966882 -0.094330214
0.79718959 0.7725305 -0.14861155
0.79821509 0.77352422 -0.20350166
0.79727799 0.77261615 -0.25886694
0.80150557 0.77671295 -0.31607884
0.79649997 0.77186215 -0.37244686
0.80178881 0.77698737 -0.43980148
0.79225999 0.7677533 -0.49696982
0.79342049 0.76887792 -0.56294823
0.79954213 0.77481025 -0.63150734
0.7890017 0.76459581 -0.69488817
0.77945471 0.75534415 -0.7512027
0.78126925 0.75710255 -0.8160969
0.78756869 0.76320714 -0.90202576
0.79751605 0.77284682 -0.993366
0.79469657 0.77011454 -1.070972
0.79896438 0.77425039 -1.1775365
0.80260879 0.77778202 -1.294208
0.1638274 0.15144049 1.1892545
0.207726 0.19201994 1.2073021
0.2442859 0.22581556 1.1945425
0.27983591 0.25867763 1.1904948
0.31299275 0.28932753 1.1750852
0.35217446 0.32554671 1.1759645
0.3897838 0.36031243 1.1647505
0.44575879 0.41205519 1.1946169
0.49322158 0.45592934 1.2055128
0.54094458 0.50004399 1.2139748
0.58170652 0.53772396 1.2025267
0.62257797 0.57550514 1.1886086
0.66347975 0.61331439 1.1721946
0.71465099 0.66061658 1.1675872
0.77539659 0.71676922 1.1753306
0.83239955 0.76946223 1.1712979
0.83366573 0.77063268 1.0844476
0.84146184 0.7778393 1.0138087
0.84085125 0.77727491 0.9376635
0.83139652 0.76853502 0.85704947
0.83072853 0.76791757 0.79031175
0.83724385 0.77394027 0.72286874
0.8410207 0.77743155 0.6562655
0.84355575 0.7797749 0.5869112
0.83772975 0.77438939 0.51091093
0.84000421 0.77649188 0.45205459
0.84706497 0.78301883 0.39719313
0.83839816 0.77500725 0.3354882
0.82717979 0.76463711 0.27695441
0.82877791 0.76611441 0.22067147
0.8210659 0.75898552 0.16337621
0.8258763 0.7634322 0.10954241
0.82864726 0.76599365 0.059139632
0.82243335 0.76024961 0.0048869066
0.81443447 0.75285548 -0.044778578
0.83409935 0.77103347 -0.096879683
0.82280409 0.76059228 -0.14626263
0.82440978 0.76207662 -0.19795892
0.81708783 0.75530821 -0.24794537
0.82939517 0.76668501 -0.30528313
0.82554144 0.76312268 -0.35850394
0.81817353 0.75631183 -0.41795269
0.82389021 0.76159626 -0.47914088
0.81395668 0.75241381 -0.53314918
0.82150954 0.7593956 -0.601116
0.81826842 0.75639957 -0.66954952
0.80771089 0.74664026 -0.72974747
0.8020072 0.74136782 -0.79351008
0.80386853 0.74308842 -0.87270558
0.81219363 0.7507841 -0.95302922
0.82252771 0.76033682 -1.0422264
0.80806869 0.74697101 -1.1198032
0.82255358 0.76036072 -1.238611
0.7904287 0.73066479 -1.3028628
0.16578071 0.14615536 1.1998147
0.20329931 0.17923245 1.2100186
0.23778808 0.20963839 1.1987946
0.27413908 0.24168609 1.1953809
0.31407684 0.276896 1.1989931
0.3481693 0.30695254 1.1821414
0.38380837 0.33837259 1.1732839
0.42690569 0.37636799 1.1799147
0.47345856 0.41740987 1.1933591
0.52507776 0.46291831 1.2124356
0.56641698 0.49936372 1.2025838
0.61214101 0.53967488 1.1985551
0.6549142 0.57738453 1.1826303
0.70606101 0.62247652 1.1807204
0.7481963 0.65962374 1.1601719
0.82073241 0.72357297 1.1810759
0.85395789 0.75286514 1.1384419
0.85806131 0.75648278 1.0459276
0.85539097 0.75412858 0.95900798
0.84078443 0.74125117 0.87179601
0.84075743 0.74122739 0.80505216
0.8417924 0.74213982 0.73226637
0.84667599 0.7464453 0.66487527
0.85585642 0.75453895 0.60189766
0.84126782 0.7416774 0.52894527
0.84470892 0.7447111 0.46933171
0.85255551 0.75162876 0.41509435
0.8450287 0.74499303 0.35115796
0.82765287 0.72967416 0.2866466
0.83701587 0.73792875 0.23337868
0.83704352 0.73795313 0.17799804
0.8350299 0.73617792 0.12315501
0.8385005 0.73923761 0.069603533
0.84003985 0.74059474 0.015891736
0.83973253 0.74032384 -0.034203134
0.83774632 0.73857278 -0.084210083
0.84119517 0.74161327 -0.13892594
0.82783526 0.72983497 -0.19086578
0.83465594 0.73584819 -0.24794537
0.83200628 0.73351222 -0.30368632
0.83467567 0.73586559 -0.36154988
0.83473176 0.73591506 -0.42160633
0.84042704 0.7409361 -0.48280019
0.8368898 0.73781765 -0.54114747
0.83769655 0.73852885 -0.60476404
0.82943219 0.73124284 -0.66439909
0.83132797 0.73291421 -0.73527586
0.81795049 0.72112036 -0.79589093
0.82484996 0.72720307 -0.88255209
0.81930947 0.72231847 -0.9536708
0.82962 0.73140842 -1.0426756
0.82515007 0.72746766 -1.1341597
0.84601533 0.74586284 -1.2719854
0.17662151 0.1484659 1.208165
0.21180139 0.17803767 1.1984751
0.24866192 0.20902218 1.1966941
0.29171062 0.2452084 1.1904948
0.33481196 0.28143886 1.1816485
0.37496033 0.3151871 1.1717346
0.4143855 0.3483274 1.1709195
0.46120667 0.38768473 1.1857018
0.51042551 0.42905748 1.1967771
0.55992824 0.47066885 1.2054257
0.60639101 0.50972492 1.2025267
0.64899683 0.54553884 1.1886086
0.70098072 0.58923584 1.188035
0.74987811 0.63033837 1.1752687
0.81341606 0.68374765 1.1827694
0.87304556 0.73387146 1.1784838
0.87457734 0.73515904 1.091355
0.87143582 0.73251832 1.0071825
0.86468744 0.72684574 0.92499238
0.86667651 0.72851771 0.85704947
0.85970497 0.72265756 0.78458488
0.86630702 0.72820711 0.71751416
0.87169856 0.73273915 0.64756078
0.86716503 0.72892833 0.57409787
0.87070012 0.73189992 0.51836658
0.86626536 0.72817212 0.45579574
0.85966355 0.72262275 0.39356694
0.87312788 0.73394066 0.33923265
0.8467294 0.71175045 0.27579096
0.84781712 0.71266472 0.2240874
0.84750366 0.71240127 0.16918024
0.83751357 0.70400369 0.11379745
0.84837145 0.71313065 0.061729755
0.84966153 0.71421516 0.0084853591
0.84145248 0.70731473 -0.040787719
0.85423976 0.71806353 -0.095180042
0.84217322 0.70792055 -0.14728466
0.84332377 0.7088877 -0.20170076
0.83494484 0.70184445 -0.25432542
0.86172611 0.72435647 -0.31880367
0.834512 0.70148057 -0.36608025
0.84754062 0.71243232 -0.43613645
0.85148501 0.71574795 -0.501077
0.84574264 0.71092099 -0.56294823
0.84403133 0.70948249 -0.63019496
0.83928257 0.70549071 -0.69848949
0.83524472 0.70209652 -0.76047796
0.83074677 0.69831562 -0.81964326
0.84175408 0.70756823 -0.89844155
0.83785081 0.70428717 -0.96622235
0.84399807 0.70945454 -1.046299
0.8445335 0.70990461 -1.1449448
0.84497416 0.71027499 -1.2531673
0.1975316 0.15825264 1.2036766
0.23513192 0.18837619 1.2028414
0.27180517 0.217757 1.1900856
0.31201911 0.24997443 1.1948878
0.35013503 0.28051105 1.1881157
0.38528046 0.30866787 1.170121
0.43812475 0.35100412 1.1836143
0.49259567 0.39464355 1.1933591
0.53761405 0.43071008 1.1842128
0.5923714 0.47457901 1.2001128
0.63110644 0.5056116 1.1793903
0.68804663 0.5512293 1.1887548
0.73769516 0.59100527 1.1646968
0.80252957 0.64294744 1.1597693
0.86888129 0.69610518 1.1630059
0.88785571 0.71130651 1.0819682
0.87928873 0.7044431 0.99025816
0.87788135 0.70331556 0.91497082
0.87330222 0.69964701 0.84133065
0.87208402 0.69867104 0.7751956
0.87844104 0.70376396 0.70848972
0.8819356 0.70656365 0.64261758
0.88262278 0.70711422 0.57781184
0.88190532 0.70653939 0.51053423
0.87709415 0.70268494 0.44837451
0.87711781 0.70270383 0.39111593
0.87521607 0.70118028 0.33353126
0.86396092 0.69216323 0.27217934
0.87259549 0.69908082 0.22240296
0.87176722 0.69841725 0.17069077
0.86162966 0.69029552 0.11483197
0.87272936 0.69918805 0.062285878
0.8662262 0.69397807 0.012107981
0.86578274 0.69362277 -0.037518654
0.87138754 0.69811308 -0.087874189
0.86709374 0.69467306 -0.14134285
0.86080277 0.68963307 -0.19448596
0.86775297 0.69520122 -0.25159508
0.85810852 0.68747455 -0.30104557
0.86841309 0.69573009 -0.36154988
0.86329037 0.69162601 -0.41083241
0.86925185 0.69640207 -0.47278467
0.85803169 0.68741304 -0.52881461
0.86621714 0.6939708 -0.5963828
0.86295766 0.69135946 -0.66439909
0.85655349 0.68622875 -0.73335272
0.84470809 0.6767388 -0.78999549
0.85656154 0.68623519 -0.86912811
0.853769 0.68399793 -0.93638951
0.84816968 0.67951202 -1.0046251
0.85618168 0.68593091 -1.109077
0.86373198 0.69197983 -1.2237773
0.66040426 0.52908355 -1.1153191
0.19493829 0.14877219 1.2053074
0.23950475 0.18278424 1.2028414
0.28222048 0.21538387 1.1985247
0.32712343 0.2496527 1.1909088
0.36913088 0.28171179 1.1713159
0.41589323 0.31739968 1.1681995
0.47381738 0.361606 1.1889652
0.52694577 0.4021523 1.1989586
0.57833081 0.44136813 1.2078193
0.62223786 0.47487691 1.1967506
0.66627574 0.50848562 1.183224
0.72105789 0.55029398 1.1820965
0.7706154 0.5881151 1.1707573
0.83635539 0.63828629 1.1787707
0.8870551 0.67697901 1.1605743
0.89284688 0.68139917 1.0681852
0.88792914 0.6776461 0.97096735
0.88495547 0.67537665 0.88154417
0.88316375 0.67400926 0.80164409
0.87564474 0.66827095 0.72736531
0.88697946 0.67692137 0.66711682
0.89580154 0.68365413 0.60708863
0.88923913 0.67864585 0.53506404
0.89396721 0.6822542 0.47302419
0.89497191 0.68302095 0.41534048
0.89461923 0.68275183 0.35483286
0.88405985 0.67469317 0.29279223
0.88643312 0.67650437 0.23701933
0.87876004 0.67064846 0.18003167
0.87671614 0.6690886 0.12565556
0.88049895 0.67197555 0.072597474
0.88225383 0.67331487 0.019372171
0.87403095 0.66703933 -0.033592366
0.87966812 0.67134148 -0.087089598
0.86744761 0.66201508 -0.13881886
0.86898279 0.66318667 -0.19274947
0.87613744 0.66864693 -0.2493881
0.8656168 0.66061789 -0.30197936
0.86096358 0.65706664 -0.35581607
0.87718892 0.66944945 -0.41806343
0.86752397 0.66207337 -0.47451138
0.86981601 0.66382259 -0.53959221
0.86909252 0.66327041 -0.60601205
0.86525786 0.66034395 -0.67355382
0.85822612 0.6549775 -0.74199218
0.85212344 0.65032005 -0.80409545
0.85797203 0.65478355 -0.87592375
0.85982871 0.65620053 -0.95062894
0.86494839 0.66010773 -1.0325319
0.87186867 0.66538912 -1.1233888
0.87979513 0.6714384 -1.2237773
0.790434 0.60324019 -1.2278906
0.20476703 0.14877196 1.2036766
0.2480914 0.18024896 1.1911595
0.29803243 0.21653324 1.204944
0.34508255 0.25071713 1.196227
0.38792077 0.28184095 1.1867954
0.42656234 0.30991569 1.1773261
0.47589937 0.34576112 1.1928407
0.52288944 0.37990141 1.1966041
0.57485002 0.41765299 1.2062808
0.62478006 0.45392928 1.2035357
0.66969132 0.48655924 1.190493
0.71952844 0.52276802 1.1829592
0.77491266 0.563007 1.1802261
0.83109444 0.60382545 1.1740004
0.88897431 0.64587766 1.162999
0.90690267 0.65890336 1.0992151
0.9156425 0.66525322 1.0146117
0.89893067 0.65311134 0.91595262
0.90529066 0.65773213 0.84133065
0.89475846 0.65008008 0.75657326
0.90059996 0.65432417 0.69056469
0.91056466 0.66156399 0.63032138
0.90204877 0.65537679 0.56505692
0.91420883 0.66421157 0.51053423
0.90922147 0.66058809 0.44837451
0.90924597 0.66060585 0.39111593
0.89176559 0.64790565 0.32782987
0.89560717 0.65069669 0.27217934
0.91249275 0.66296482 0.22435386
0.9036994 0.65657604 0.17069077
0.90123731 0.65478724 0.11586649
0.89661914 0.65143192 0.061729755
0.8979826 0.65242255 0.0084853591
0.88930672 0.64611912 -0.040787719
0.89500588 0.65025985 -0.090700738
0.89045459 0.64695317 -0.14367391
0.89181507 0.64794159 -0.1980848
0.89098418 0.64733791 -0.2529839
0.88819665 0.64531267 -0.30704767
0.89061105 0.64706683 -0.36567259
0.89803123 0.65245789 -0.42888057
0.89514583 0.65036148 -0.48973858
0.88957024 0.64631063 -0.55122352
0.8883 0.64538771 -0.61805969
0.89069289 0.64712626 -0.6912986
0.88008636 0.63942015 -0.74765623
0.87582576 0.63632464 -0.80654836
0.88176697 0.64064121 -0.87867278
0.87337005 0.6345405 -0.95298642
0.88060606 0.63979775 -1.046562
0.88133574 0.64032793 -1.130543
0.88887084 0.64580244 -1.2309947
0.20173001 0.13942419 1.2053074
0.24245726 0.16757253 1.2044642
0.28881645 0.19961335 1.1996831
0.33532125 0.23175478 1.1922455
0.38484094 0.26597995 1.1914496
0.42739731 0.29539245 1.1807518
0.47389045 0.32752585 1.1876677
0.51856941 0.35840538 1.1824683
0.58453029 0.40399373 1.2062808
0.64070028 0.44281518 1.1992989
0.69210428 0.47834271 1.1932225
0.74829954 0.51718163 1.1801147
0.81113976 0.56061321 1.1698996
0.89134359 0.61604548 1.1772827
0.93092811 0.64340401 1.1169173
0.91674405 0.63360077 1.0189359
0.91040564 0.62922007 0.93687975
0.91324615 0.63118327 0.86930388
0.91393352 0.63165832 0.80164409
0.91104478 0.6296618 0.73649406
0.9231233 0.63800973 0.67593414
0.92701161 0.64069718 0.60708863
0.92618859 0.64012831 0.54305655
0.92383838 0.63850403 0.47669199
0.9184351 0.63476956 0.4118793
0.91794246 0.6344291 0.35182577
0.90690553 0.62680101 0.29024622
0.91731679 0.63399667 0.23701933
0.91749585 0.6341204 0.18163911
0.91543478 0.63269591 0.1267876
0.91938466 0.63542587 0.073251508
0.90476674 0.62532276 0.019197647
0.90448254 0.62512636 -0.033592366
0.91851717 0.63482624 -0.087874189
0.90583044 0.62605792 -0.14008085
0.89925843 0.62151575 -0.19274947
0.9066624 0.62663293 -0.2493881
0.89577526 0.61910838 -0.30197936
0.89877534 0.62118185 -0.35893726
0.90887409 0.62816155 -0.41444048
0.90784985 0.62745363 -0.47128612
0.90443891 0.6250962 -0.52881461
0.90582049 0.62605107 -0.59164959
0.90963131 0.62868488 -0.66439909
0.8960408 0.6192919 -0.72779703
0.88374996 0.61079717 -0.7841
0.88999081 0.61511052 -0.85671198
0.89369601 0.61767137 -0.92988682
0.88800269 0.61373639 -0.99783707
0.89679426 0.61981267 -1.0877464
0.90675545 0.62669724 -1.1872005
0.8998512 0.62192547 -1.2750987
0.1895508 0.12451161 1.2089117
0.23781045 0.15621227 1.1966386
0.28457525 0.186931 1.1923397
0.33415902 0.21950145 1.1948878
0.37823588 0.24845453 1.1866373
0.41580853 0.27313516 1.1685035
0.47243899 0.31033441 1.1817758
0.52293754 0.34350577 1.1736439
0.58745867 0.38588825 1.1992007
0.63769215 0.41888544 1.1976159
0.69033515 0.45346543 1.1795789
0.75303477 0.49465141 1.174163
0.81876862 0.53783047 1.1752687
0.88255793 0.57973224 1.1753306
0.93000132 0.61089671 1.1497403
0.93679237 0.61535758 1.0706331
0.93271422 0.61267871 0.98730385
0.92472553 0.60743111 0.90598571
0.91964096 0.60409117 0.8329072
0.92230833 0.60584331 0.76019818
0.92332059 0.60650826 0.6852932
0.93342537 0.61314589 0.62543517
0.92751098 0.60926086 0.5532853
0.92700356 0.60892755 0.48370621
0.92854911 0.60994279 0.42645785
0.92076802 0.60483152 0.36327001
0.91816676 0.60312283 0.30465174
0.92117405 0.60509825 0.2493881
0.91365165 0.60015696 0.19274947
0.91216254 0.59917879 0.13763799
0.90829843 0.59664053 0.084344506
0.9106347 0.59817517 0.032108016
0.91923016 0.60382134 -0.020387769
0.92575979 0.60811055 -0.072597474
0.92178249 0.6054979 -0.12565556
0.92393148 0.60690957 -0.18003167
0.92382354 0.60683864 -0.23494022
0.91333842 0.59995121 -0.28770021
0.9166922 0.6021542 -0.34581167
0.91671163 0.60216701 -0.40735078
0.92323768 0.60645378 -0.46887735
0.91891503 0.60361433 -0.52881461
0.90400064 0.59381741 -0.58571637
0.91105253 0.59844965 -0.65172184
0.90671712 0.59560186 -0.71632564
0.89932251 0.5907445 -0.78175437
0.89535838 0.58814055 -0.85400474
0.90289396 0.59309047 -0.93697715
0.90283811 0.59305382 -1.0117166
0.91105592 0.59845191 -1.1019675
0.92604774 0.60829967 -1.2091348
0.85312003 0.56039512 -1.2191159
0.214763 0.13393836 1.2036766
0.26020232 0.16227689 1.1911595
0.31010047 0.19339621 1.1953809
0.3557722 0.22187968 1.18819
0.40367904 0.25175712 1.1775235
0.45391417 0.28308657 1.1738501
0.51123077 0.31883246 1.1857018
0.5704338 0.35575479 1.1822199
0.62956202 0.39263052 1.1989967
0.68213826 0.42542005 1.1946988
0.72924709 0.45479977 1.1802355
0.78686178 0.49073157 1.1789957
0.83988321 0.5237987 1.1666752
0.92262924 0.57540381 1.17374
0.95106888 0.59314042 1.1135764
0.94274622 0.58794987 1.0225676
0.93642181 0.58400565 0.94050598
0.94621623 0.590114 0.87911344
0.94044906 0.58651727 0.80526578
0.94468886 0.58916146 0.74568874
0.94488454 0.58928347 0.67077434
0.94702035 0.59061551 0.6059916
0.94616711 0.59008336 0.5423739
0.95022279 0.59261274 0.48403183
0.95295089 0.5943141 0.42270005
0.93675947 0.58421624 0.35605201
0.93379325 0.58236629 0.29745537
0.94482726 0.58924776 0.24431244
0.94531947 0.58955473 0.18893482
0.93507415 0.58316517 0.13287106
0.93947923 0.58591241 0.078647174
0.94159907 0.58723444 0.025434725
0.93309247 0.58192927 -0.02639557
0.93094337 0.580589 -0.079125918
0.94349825 0.5884189 -0.13406809
0.92858815 0.5791201 -0.18559083
0.92825133 0.57891005 -0.24002625
0.94198442 0.58747476 -0.30006462
0.928684 0.57917988 -0.35298258
0.92042726 0.57403052 -0.4109776
0.92729658 0.57831466 -0.47092804
0.93140364 0.58087605 -0.53241926
0.92355227 0.57597947 -0.59405291
0.92728245 0.57830584 -0.66641557
0.92015713 0.57386208 -0.73491031
0.90716743 0.56576097 -0.79111433
0.92237329 0.57524419 -0.88222539
0.91334659 0.56961465 -0.95652354
0.92069077 0.57419491 -1.0501089
0.92707431 0.57817602 -1.141335
0.94573635 0.58981472 -1.2570208
0.2020119 0.11946951 1.2074014
0.2434877 0.14399822 1.2073021
0.28526652 0.16870613 1.205264
0.32984221 0.19506814 1.2108066
0.37229967 0.22017741 1.2047054
0.41594714 0.24599046 1.1960672
0.457353 0.2704778 1.1864527
0.51013327 0.30169198 1.2018095
0.56041127 0.33142632 1.2054027
0.61160344 0.36170128 1.2062808
0.66007733 0.39036864 1.1951194
0.70759463 0.41847032 1.1822827
0.76553196 0.45273432 1.1829592
0.82988125 0.4907904 1.1879907
0.88423097 0.52293277 1.1740004
0.95763409 0.56634325 1.1775365
0.96488607 0.57063204 1.0992151
0.96844804 0.57273859 1.0219976
0.96043605 0.56800026 0.92597967
0.96080238 0.56821692 0.84497833
0.9569118 0.56591606 0.76587129
0.95818043 0.56666631 0.69056469
0.9705478 0.57398039 0.62664461
0.96444625 0.57037193 0.55409324
0.95978051 0.56761265 0.49501237
0.96184301 0.56883234 0.43736461
0.95326668 0.56376034 0.37730217
0.94204497 0.55712384 0.31900507
0.93690163 0.55408204 0.26383412
0.94611627 0.55953163 0.21491483
0.94538504 0.55909914 0.1604846
0.94235694 0.55730832 0.10663421
0.94567531 0.55927086 0.053984031
0.94681567 0.55994523 0.0012095129
0.9287166 0.54924148 -0.047108937
0.94284427 0.55759656 -0.10065178
0.92907822 0.54945534 -0.15169868
0.93039358 0.55023324 -0.20398803
0.93764168 0.55451977 -0.26026118
0.93408012 0.55241346 -0.31501374
0.92813694 0.54889864 -0.36996228
0.93578428 0.55342132 -0.43235704
0.93390238 0.55230832 -0.48875543
0.93565065 0.55334222 -0.55386841
0.93411899 0.55243647 -0.62027061
0.94372523 0.55811751 -0.69848949
0.93918484 0.55543238 -0.76047796
0.92265522 0.54565674 -0.8206498
0.92970699 0.54982716 -0.90633053
0.92560488 0.54740119 -0.98752594
0.93833029 0.55492699 -1.0877464
0.93703979 0.55416381 -1.1725438
0.92440099 0.54668921 -1.2657858
0.2013128 0.11274058 1.208165
0.25026768 0.14015663 1.2063674
0.29603839 0.16578946 1.2030691
0.34125349 0.19111113 1.2082726
0.38125297 0.21351193 1.1924591
0.42730352 0.23930147 1.193418
0.46674547 0.26139003 1.1738501
0.51613104 0.28904727 1.1800256
0.5791319 0.32432944 1.209883
0.63130772 0.35354933 1.2101873
0.67477745 0.37789354 1.1909122
0.72902101 0.4082714 1.1850498
0.79897618 0.44744816 1.188035
0.85246104 0.47740111 1.1643876
0.93609995 0.52424115 1.1734514
0.98094708 0.54935676 1.1242998
0.97230262 0.54451561 1.0189359
0.9589209 0.53702152 0.93041855
0.96172327 0.53859091 0.86313862
0.95517105 0.53492153 0.78994125
0.95172775 0.53299314 0.72541893
0.96602118 0.54099786 0.66198516
0.96783006 0.5420109 0.59760284
0.96024805 0.53776473 0.526434
0.96376419 0.53973389 0.46887735
