# .PCD v0.7 - Point Cloud Data file format
VERSION 0.7
FIELDS x y z
SIZE 4 4 4
TYPE F F F
COUNT 1 1 1
WIDTH 1472
HEIGHT 1
VIEWPOINT 0 0 0 1 0 0 0
POINTS 1472
DATA ascii
0.73832417 0.82432181 1.6177055
0.7273072 0.81202161 1.4698793
0.7241233 0.80846679 1.3343264
0.71794802 0.80157226 1.2109635
0.71836936 0.80204266 1.1149766
0.73103046 0.81617856 1.0534928
0.73240852 0.81771708 0.97765875
0.74066067 0.8269304 0.91717386
0.75599951 0.84405589 0.85582376
0.75158185 0.83912367 0.77967703
0.74786133 0.83496976 0.71584141
0.74828196 0.83543944 0.65735459
0.74639821 0.83333623 0.601116
0.74317902 0.82974213 0.54480535
0.7532835 0.84102356 0.48799932
0.74930435 0.83658093 0.42270005
0.75373739 0.84153026 0.37390736
0.75198382 0.83957243 0.3139084
0.75390428 0.84171665 0.26218587
0.75441235 0.84228384 0.20957085
0.75979328 0.84829152 0.16004907
0.75716519 0.84535736 0.10803618
0.7529676 0.84067082 0.056677591
0.75391245 0.84172577 0.0037077707
0.7532689 0.84100723 -0.046826862
0.75118923 0.83868527 -0.096029863
0.76080585 0.84942204 -0.14885136
0.74960244 0.8369137 -0.19305843
0.74961394 0.83692652 -0.24522026
0.74734372 0.83439189 -0.30144238
0.74344379 0.83003777 -0.35669124
0.73147005 0.81666934 -0.40853739
0.73697394 0.82281429 -0.46887735
0.73313504 0.81852823 -0.53002322
0.72876674 0.81365114 -0.58691639
0.72772485 0.81248784 -0.65052289
0.7263782 0.81098437 -0.71040767
0.72409481 0.80843502 -0.76877797
0.73045009 0.8155306 -0.84009075
0.73086107 0.81598938 -0.91918629
0.71529388 0.79860902 -0.99104911
0.67786431 0.75681973 -1.0204527
0.74273002 0.8292408 -1.204289
0.71898764 0.80273294 -1.2757651
0.27175519 0.28938991 1.8478373
0.32840052 0.34971103 1.8384383
0.38432765 0.4092674 1.8151563
0.44969213 0.47887349 1.8360167
0.50910258 0.54213917 1.8350203
0.56231278 0.59880233 1.8235241
0.62173003 0.66207522 1.8266659
0.67421418 0.71796519 1.8092985
0.74200892 0.79015923 1.8219416
0.79701781 0.84873778 1.7716678
0.7890783 0.84028304 1.5975543
0.79044569 0.84173918 1.4581738
0.78395647 0.83482885 1.3232434
0.79542363 0.84704012 1.227161
0.7894513 0.84068024 1.1234426
0.77248478 0.82261276 1.01832
0.76630926 0.81603646 0.93725914
0.77400792 0.82423466 0.8754707
0.77344024 0.82363021 0.80964398
0.76546514 0.81513757 0.73838598
0.76028758 0.80962408 0.67562687
0.76820576 0.81805605 0.61566561
0.76743954 0.81724012 0.55286086
0.77178848 0.82187122 0.49170133
0.77328652 0.82346654 0.43362522
0.77251494 0.82264483 0.37759253
0.76354992 0.81309807 0.31853253
0.76466882 0.81428957 0.27333876
0.77210277 0.82220596 0.22435386
0.77858216 0.82910579 0.16998082
0.77610868 0.82647181 0.11916245
0.7722941 0.82240969 0.064062849
0.77350086 0.82369477 0.011103432
0.75938439 0.80866224 -0.038738441
0.77115369 0.82119524 -0.08865878
0.76766992 0.81748545 -0.13892594
0.76911187 0.81902099 -0.19305843
0.75520229 0.80420876 -0.24457677
0.76746374 0.81726587 -0.29778489
0.75784159 0.80701929 -0.34640431
0.75201929 0.80081922 -0.40256122
0.75192058 0.80071408 -0.45779076
0.74838936 0.79695374 -0.51853454
0.74429625 0.79259503 -0.57507932
0.74366134 0.79191887 -0.63830423
0.74112964 0.7892229 -0.70139432
0.74120957 0.78930801 -0.77233493
0.73839456 0.78631032 -0.84462392
0.75096345 0.79969484 -0.93281406
0.7332778 0.78086156 -0.97727114
0.6974597 0.74271911 -1.0034033
0.74988431 0.79854566 -1.1798722
0.73167783 0.77915776 -1.2570047
0.23062077 0.23427211 1.8408777
0.2797353 0.28416425 1.8269918
0.33406383 0.33935294 1.8496867
0.39175618 0.3979587 1.8265421
0.45568943 0.46290419 1.8280227
0.51491588 0.52306837 1.8281579
0.57753432 0.58667821 1.8117292
0.64831424 0.65857881 1.8186705
0.7143662 0.72567654 1.8136909
0.78441519 0.79683459 1.8246499
0.80156326 0.81425411 1.7140847
0.80044645 0.81311959 1.5813355
0.79902589 0.81167656 1.4578199
0.79672956 0.80934393 1.3445387
0.80379099 0.81651711 1.2558742
0.80148709 0.81417674 1.1625983
0.79629618 0.80890369 1.0701342
0.80173719 0.81443083 0.98692441
0.79264313 0.80519277 0.89273816
0.79138905 0.80391884 0.81210703
0.78028578 0.79263973 0.72922999
0.77621937 0.78850895 0.66320217
0.78343719 0.7958411 0.60478354
0.77006608 0.78225827 0.53241926
0.78783095 0.80030441 0.47669199
0.78195494 0.79433531 0.4167468
0.78839999 0.80088246 0.35973987
0.78581566 0.79825717 0.30146194
0.78820336 0.80068272 0.24523987
0.78848797 0.80097181 0.1906068
0.78703052 0.79949129 0.13526513
0.7836172 0.79602391 0.081792839
0.78523654 0.79766893 0.039087437
0.78567737 0.79811674 -0.010985624
0.77758813 0.78989941 -0.059292365
0.78167623 0.79405224 -0.11341642
0.78402305 0.79643619 -0.16702463
0.77749842 0.78980827 -0.22045207
0.7762022 0.78849155 -0.27457455
0.77950644 0.79184806 -0.3330861
0.76769024 0.77984482 -0.38482946
0.77334976 0.78559393 -0.44818792
0.77165359 0.78387088 -0.50417978
0.77379256 0.78604376 -0.56655121
0.76790845 0.78006649 -0.62402958
0.76536298 0.77748072 -0.68836272
0.76662683 0.77876455 -0.75809568
0.76070988 0.77275389 -0.82083607
0.77074784 0.78295076 -0.89963096
0.76185316 0.77391529 -0.9607991
0.74141455 0.75315309 -1.0073057
0.72368729 0.73514515 -1.0612438
0.77453667 0.78679961 -1.226189
0.71748495 0.72884464 -1.243423
0.24167503 0.2341994 1.8496335
0.29076076 0.28176677 1.8358828
0.3463228 0.33561015 1.8481143
0.39671716 0.38444567 1.8283646
0.45123217 0.4372744 1.8248508
0.50869876 0.4929634 1.8275154
0.56269574 0.54529011 1.8183597
0.6214143 0.60219234 1.8141965
0.68402559 0.66286695 1.815273
0.75118154 0.72794551 1.8209398
0.82198578 0.79655963 1.8317839
0.81912953 0.79379171 1.6792324
0.8177231 0.79242885 1.5458931
0.82367975 0.7982012 1.4387587
0.81564927 0.7904191 1.318163
0.82087147 0.79547977 1.2311709
0.81575954 0.79052597 1.1409229
0.81901771 0.79368341 1.0496554
0.81666499 0.79140341 0.96272475
0.802194 0.77738005 0.87667847
0.80237728 0.77755767 0.80993509
0.79952592 0.77479452 0.74568874
0.80104309 0.77626473 0.6869083
0.80003238 0.7752853 0.63030213
0.80621755 0.78127921 0.57202804
0.79762256 0.77295005 0.50472414
0.80144101 0.77665037 0.44102886
0.79939926 0.77467179 0.39146447
0.80402869 0.779158 0.33963308
0.80021071 0.77545816 0.2843017
0.80854005 0.78352982 0.23418802
0.80844355 0.7834363 0.17957324
0.79913127 0.7744121 0.1267876
0.80252105 0.77769703 0.074480325
0.80397797 0.77910888 0.031760734
0.79702723 0.77237314 -0.016950851
0.79568642 0.77107382 -0.066545606
0.79275346 0.76823157 -0.1160266
0.79622793 0.77159858 -0.15829319
0.79740745 0.77274162 -0.20955133
0.8038606 0.77899516 -0.26358044
0.79410321 0.76953954 -0.31576726
0.78940022 0.76498199 -0.37047246
0.7891013 0.76469237 -0.4300752
0.78686947 0.76252955 -0.48926994
0.78192425 0.75773734 -0.55029863
0.77741522 0.75336778 -0.60470039
0.78531992 0.76102799 -0.66521353
0.77509689 0.7511211 -0.72459775
0.77603298 0.75202829 -0.79235494
0.77847725 0.75439692 -0.87003362
0.77674067 0.7527141 -0.95062894
0.75140578 0.72816288 -1.0038267
0.73580241 0.71304214 -1.0679727
0.78707826 0.76273191 -1.2333888
0.24140048 0.2231483 1.8408777
0.30174032 0.2789259 1.8345444
0.3566837 0.32971501 1.8368628
0.42103031 0.3891964 1.8323917
0.48930824 0.4523119 1.8432556
0.55212581 0.51037985 1.8208705
0.61630541 0.56970686 1.8153793
0.68060535 0.62914515 1.7948127
0.76446551 0.70666462 1.8122686
0.8375141 0.77419007 1.7989163
0.84500283 0.78111255 1.6357975
0.84279865 0.77907503 1.4890039
0.83397043 0.77091432 1.3445387
0.83940047 0.7759338 1.2447625
0.83656818 0.77331567 1.1517537
0.82537162 0.76296568 1.0527321
0.82575834 0.76332319 0.97752798
0.82180208 0.75966603 0.89019591
0.83236456 0.76942986 0.82167327
0.82112432 0.75903952 0.73838598
0.81250149 0.75106865 0.66320217
0.82797813 0.76537508 0.60584915
0.82056731 0.7585246 0.53750324
0.81560665 0.75393903 0.48006436
0.81682116 0.75506175 0.42282969
0.81564462 0.75397414 0.36762321
0.82058322 0.75853932 0.31122541
0.81608105 0.75437754 0.25402024
0.81686187 0.7550993 0.19864979
0.81552082 0.7538597 0.14498766
0.81968975 0.75771344 0.091537341
0.81460142 0.75300986 0.038738441
0.81505877 0.75343257 -0.010887538
0.80645561 0.74547988 -0.062362067
0.81090802 0.74959564 -0.11240377
0.81380188 0.75227076 -0.16191106
0.81436718 0.75279325 -0.21681435
0.81313729 0.75165641 -0.27096191
0.81673616 0.75498319 -0.32945779
0.80449665 0.74366903 -0.38123673
0.79695022 0.7366932 -0.43709666
0.80224735 0.74158984 -0.49643093
0.7982291 0.7378754 -0.55386841
0.78757495 0.72802675 -0.60216504
0.78890222 0.72925371 -0.6583482
0.78820944 0.72861332 -0.71550578
0.7854259 0.72604024 -0.77354491
0.7863037 0.72685164 -0.83845878
0.79098201 0.73117626 -0.90985096
0.78659654 0.72712237 -0.97727114
0.74294204 0.68676853 -0.99638653
0.76478082 0.70695615 -1.1071239
0.79569805 0.73553574 -1.2575579
0.25562316 0.22536214 1.8386867
0.30494899 0.26884869 1.815028
0.3643527 0.3212201 1.8368628
0.41888449 0.36929634 1.8265421
0.48724499 0.42956424 1.8280227
0.55669588 0.49079347 1.8140594
0.61442423 0.54168785 1.8026251
0.68240821 0.60162377 1.8147364
0.75406152 0.66479468 1.832359
0.82138878 0.72415161 1.8269715
0.85261542 0.75168163 1.7419591
0.85199976 0.75113887 1.5850511
0.84512049 0.74507397 1.4420596
0.84222078 0.74251753 1.3292599
0.84931189 0.74876916 1.2275643
0.85488147 0.75367939 1.1372093
0.84190273 0.74223715 1.0397999
0.84260064 0.74285239 0.96363604
0.84382391 0.74393088 0.88285226
0.82922637 0.7310614 0.79216969
0.8360998 0.73712116 0.72559595
0.82997096 0.73171782 0.66320217
0.83109266 0.73270679 0.60002148
0.83014071 0.73186749 0.53678334
0.83431369 0.73554647 0.47643676
0.83541971 0.7365216 0.41917756
0.84121096 0.74162722 0.36708754
0.83898795 0.73966736 0.30755711
0.83424491 0.73548585 0.25039175
0.84229553 0.74258339 0.19674395
0.82596642 0.72818738 0.14008085
0.8225069 0.72513741 0.087510735
0.82452059 0.72691268 0.041996375
0.82510448 0.72742748 -0.0071994318
0.80910027 0.71331787 -0.054169733
0.82114899 0.72394019 -0.10781886
0.82387704 0.7263453 -0.16046542
0.81715328 0.7204175 -0.21297693
0.82333434 0.72586685 -0.26858506
0.82710451 0.72919071 -0.32661766
0.82179403 0.72450888 -0.38123673
0.8140853 0.71771276 -0.43709666
0.81949639 0.72248322 -0.49643093
0.80468208 0.70942265 -0.53777903
0.80841953 0.71271765 -0.59278274
0.81014305 0.71423715 -0.64894795
0.80690402 0.71138155 -0.7119987
0.80041522 0.70566094 -0.77703166
0.79593998 0.70171553 -0.83461058
0.8012436 0.70639127 -0.92039126
0.79141384 0.69772518 -0.99465758
0.73992074 0.6523279 -1.0214626
0.81216884 0.71602315 -1.2184386
0.27459484 0.23082107 1.8454591
0.33179635 0.27890396 1.8498983
0.3896769 0.32755765 1.8512855
0.44578195 0.37471887 1.8400446
0.50286061 0.4226985 1.8360167
0.56755984 0.47708389 1.8467178
0.61797106 0.51945895 1.8079475
0.69744301 0.58626211 1.8475579
0.75819558 0.63733 1.8290298
0.82905048 0.69688976 1.8340992
0.87376553 0.73447663 1.7745923
0.8635956 0.72592795 1.614971
0.87016451 0.73144966 1.4848216
0.86750603 0.72921497 1.3596245
0.87706476 0.73724997 1.2558742
0.86627865 0.72818327 1.1591853
0.87156999 0.73263109 1.066404
0.86323673 0.72562629 0.97385257
0.8611666 0.72388613 0.89887756
0.85532111 0.7189725 0.82680368
0.86307549 0.72549075 0.76050234
0.84904838 0.71369976 0.67804831
0.85078305 0.71515787 0.61450589
0.85678303 0.72020137 0.55653644
0.85479981 0.71853429 0.49135095
0.85756814 0.72086138 0.43004155
0.85752338 0.72082371 0.37076527
0.85540438 0.71904248 0.31122541
0.84261179 0.70828921 0.25540519
0.85855269 0.72168893 0.20408902
0.84217322 0.70792055 0.14728466
0.83898544 0.70524096 0.093480393
0.84895647 0.71362251 0.045998067
0.84968185 0.71423221 -0.0036227736
0.83345932 0.70059574 -0.051098991
0.83849913 0.7048322 -0.10065178
0.84180075 0.70760745 -0.15087461
0.83545828 0.70227605 -0.20228143
0.83515841 0.70202398 -0.25312594
0.83403885 0.70108289 -0.29960304
0.83751905 0.70400834 -0.35416672
0.8238833 0.69254631 -0.40508756
0.82327175 0.69203222 -0.46066803
0.82649064 0.69473797 -0.52369112
0.81302476 0.68341869 -0.57968062
0.82402813 0.69266802 -0.65481955
0.80891794 0.67996657 -0.7044127
0.81255251 0.68302172 -0.7676847
0.81364322 0.68393856 -0.83229369
0.82454705 0.69310421 -0.90985096
0.8143205 0.68450785 -0.97053134
0.76652533 0.64433187 -0.99266076
0.792193 0.6659078 -1.1268971
0.79710984 0.67004085 -1.240992
0.25984851 0.20817791 1.8299565
0.31430617 0.25180674 1.8261175
0.37045795 0.29679278 1.8190863
0.43113604 0.3454051 1.8283646
0.49292159 0.39490464 1.834306
0.55283314 0.44290283 1.8275154
0.60842633 0.48744142 1.8091761
0.67532772 0.54103953 1.8141965
0.75062358 0.60136288 1.8329831
0.81246608 0.65090805 1.8122686
0.88089371 0.70572889 1.8063425
0.87704098 0.70264232 1.6544162
0.8840397 0.70824933 1.5378416
0.873043 0.69943929 1.3845507
0.87802589 0.70343137 1.2744626
0.88607156 0.70987719 1.183449
0.87199289 0.69859803 1.0742854
0.86838371 0.69570655 0.99096018
0.87239701 0.6989218 0.9235431
0.86206698 0.69064593 0.8437705
0.86039805 0.68930882 0.77914602
0.85681367 0.68643719 0.71468472
0.86016726 0.68912393 0.65086138
0.85782272 0.68724555 0.59525937
0.85667294 0.68632442 0.53241926
0.862068 0.69064671 0.46887735
0.86363679 0.69190353 0.40963516
0.8705399 0.69743401 0.35305253
0.86741829 0.69493306 0.29521778
0.86221296 0.69076282 0.23735106
0.86225015 0.69079262 0.18365787
0.85230076 0.68282163 0.13167402
0.85618114 0.68593043 0.080332249
0.85820311 0.68755031 0.02760472
0.85839993 0.68770802 -0.014398555
0.84930098 0.68041837 -0.061795138
0.86153221 0.69021744 -0.1160266
0.85633999 0.68605769 -0.16765055
0.85672569 0.68636674 -0.22208516
0.85522306 0.6851629 -0.27576312
0.85913509 0.68829697 -0.33261713
0.84569132 0.67752647 -0.38505071
0.84511435 0.67706424 -0.44301888
0.84298241 0.67535627 -0.49937421
0.83857208 0.67182291 -0.55637294
0.83548003 0.66934574 -0.605681
0.82674325 0.66234624 -0.66354579
0.82844734 0.66371143 -0.73298168
0.82137436 0.65804493 -0.79669386
0.82879472 0.66398978 -0.88125867
0.83349299 0.66775382 -0.98076206
0.78191215 0.6264298 -1.0062798
0.81761169 0.65503049 -1.1558746
0.78640926 0.63003266 -1.2169714
0.31867874 0.24320793 1.8367617
0.37854636 0.28889742 1.8496867
0.44392073 0.33878961 1.8265421
0.51370537 0.39204755 1.8185998
0.57577062 0.43941423 1.8212643
0.63706076 0.48618942 1.8105726
0.70898485 0.54108012 1.8235879
0.77510136 0.59153867 1.8146349
0.84815562 0.6472919 1.8203696
0.89420342 0.6824345 1.761472
0.88810676 0.6777817 1.610428
0.89331973 0.68176007 1.4946849
0.89288592 0.68142897 1.3808726
0.89104348 0.6800229 1.2781277
0.89637351 0.68409061 1.1908545
0.89488262 0.68295282 1.1086751
0.88587964 0.67608196 1.0189359
0.88582194 0.67603791 0.94334102
0.88175118 0.67293125 0.87050462
0.88177139 0.67294663 0.80406594
0.86523676 0.66032779 0.72899425
0.86642396 0.66123384 0.67117757
0.87177426 0.66531712 0.62045372
0.86170858 0.65763521 0.55979842
0.87308383 0.66631651 0.50778621
0.87632567 0.66879064 0.44818792
0.87741184 0.66961956 0.38814697
0.88329756 0.67411137 0.3331055
0.87955421 0.67125452 0.27459383
0.8732301 0.66642815 0.21850117
0.86396939 0.65936059 0.16970722
0.86113137 0.65719467 0.12102848
0.86475569 0.65996069 0.068916321
0.85839212 0.65510416 0.020035928
0.85819465 0.65495342 -0.030626422
0.86403668 0.65941197 -0.081954457
0.85991591 0.65626705 -0.13400821
0.86180842 0.65771139 -0.18628445
0.85371107 0.6515317 -0.23808357
0.85924351 0.65575391 -0.29340664
0.86218959 0.65800232 -0.351087
0.86409318 0.65945506 -0.4050456
0.85614765 0.65339124 -0.45715541
0.85338986 0.65128654 -0.51347017
0.84880286 0.64778584 -0.56921637
0.85508174 0.65257776 -0.63677114
0.84369773 0.64388973 -0.69748127
0.83094233 0.63415515 -0.75596434
0.8350988 0.63732725 -0.83187973
0.84674054 0.64621198 -0.92387259
0.83223319 0.6351403 -0.97410709
0.78092974 0.59598672 -0.99747103
0.84883285 0.64780873 -1.178103
0.81624395 0.62293768 -1.2400784
0.27226299 0.19781063 1.8496335
0.33727524 0.24504481 1.8331935
0.40540323 0.2945427 1.8223591
0.47601596 0.34584585 1.8381239
0.53082889 0.3856698 1.8150425
0.59863299 0.43493232 1.8257526
0.65126592 0.4731724 1.7870536
0.72757429 0.52861369 1.8087574
0.80840921 0.58734369 1.8356476
0.87279052 0.63411945 1.8133476
0.90174562 0.65515655 1.7205013
0.89837211 0.65270555 1.5785446
0.90231705 0.6555717 1.4634377
0.89934492 0.65341234 1.3515662
0.89744383 0.65203112 1.2483389
0.91292691 0.66328025 1.1762328
0.90107673 0.6546706 1.0779458
0.90359455 0.65649986 1.0012616
0.89568877 0.650756 0.92079216
0.90422511 0.65695798 0.85958308
0.88984072 0.64650714 0.78275925
0.88630635 0.64393926 0.7182641
0.88646686 0.64405584 0.66164082
0.88819134 0.64530879 0.59765595
0.87936658 0.63889724 0.53162456
0.89114302 0.64745331 0.4760969
0.89234507 0.64832664 0.41927648
0.8889817 0.64588302 0.37168095
0.893767 0.64935976 0.31939393
0.88869488 0.64567465 0.26500127
0.88982654 0.64649683 0.211307
0.88857347 0.64558643 0.1604846
0.88563347 0.64345038 0.10781886
0.88071859 0.63987952 0.054671306
0.87373364 0.63480467 0.0035437101
0.88094705 0.64004552 -0.048723474
0.88618541 0.6438514 -0.10065178
0.88139373 0.64037001 -0.15189257
0.88350385 0.6419031 -0.19869919
0.88331836 0.64176834 -0.24956375
0.88147146 0.64042652 -0.29960304
0.87651592 0.6368261 -0.35464391
0.87180901 0.63340634 -0.40155384
0.87130374 0.63303924 -0.45715541
0.86849713 0.6310001 -0.51347017
0.86231327 0.62650722 -0.57271677
0.86325723 0.62719309 -0.63167697
0.86352491 0.62738758 -0.68819296
0.86218309 0.62641269 -0.74447799
0.85791111 0.6233089 -0.80272943
0.85292715 0.61968786 -0.87487274
0.86320341 0.62715399 -0.96703559
0.81011838 0.58858544 -0.99266076
0.83177364 0.60431892 -1.1195318
0.83204174 0.6045137 -1.2256711
0.26754171 0.18490946 1.8211892
0.32978162 0.22792611 1.8367617
0.38763312 0.26790974 1.8303182
0.45189655 0.31232494 1.8397398
0.5218001 0.36063826 1.8227904
0.59279072 0.40970287 1.811972
0.66746801 0.46131554 1.8170786
0.73860455 0.510481 1.8206517
0.80305666 0.55502665 1.8026495
0.87840563 0.60710347 1.8082669
0.91675669 0.63360953 1.7325404
0.92336774 0.63817871 1.6067731
0.92847288 0.64170712 1.4909896
0.91813284 0.63456064 1.3479114
0.91925812 0.63533837 1.2410519
0.93718344 0.64772731 1.1517537
0.91863608 0.6349085 1.0458962
0.91265637 0.63077563 0.96440679
0.91021717 0.62908983 0.89002848
0.910353 0.62918365 0.82449096
0.90504748 0.62551677 0.7473405
0.8966105 0.61968565 0.67117757
0.9038083 0.62466031 0.61687118
0.90055871 0.62241441 0.56079793
0.90486819 0.62539291 0.50417978
0.90685719 0.62676758 0.44818792
0.9069286 0.62681693 0.39176649
0.90439463 0.62506557 0.3374365
0.90072918 0.62253225 0.27935731
0.90245795 0.62372708 0.22568595
0.91032624 0.62916517 0.17279281
0.90781069 0.62742656 0.11964817
0.90290147 0.62403363 0.073150322
0.89631754 0.61948317 0.03091
0.90479904 0.62534511 -0.01679814
0.89506531 0.61861771 -0.065346584
0.89176607 0.61633748 -0.11393602
0.88639164 0.61262298 -0.16462982
0.89558542 0.61897719 -0.21655026
0.88624942 0.61252469 -0.26734889
0.89043683 0.61541879 -0.3244718
0.88571572 0.6121558 -0.37466371
0.8851698 0.6117785 -0.43336079
0.89256233 0.61688781 -0.48875543
0.8810395 0.60892385 -0.54127735
0.87512451 0.60483581 -0.59726942
0.86624926 0.59870172 -0.65480411
0.87038237 0.60155827 -0.72039032
0.8655895 0.59824574 -0.78035688
0.87663645 0.60588074 -0.86099774
0.87374282 0.60388082 -0.92736262
0.85859454 0.59341121 -0.97753698
0.811194 0.56065071 -1.0078368
0.88301373 0.61028838 -1.1999729
0.29982159 0.19694597 1.8454591
0.37042993 0.24332699 1.8373007
0.44399807 0.2916522 1.8450487
0.52016926 0.34168732 1.8269027
0.58707207 0.38563427 1.8298177
0.64665973 0.42477605 1.811711
0.71826768 0.47181368 1.817026
0.79502177 0.5222317 1.8272424
0.86100197 0.56557262 1.8069873
0.93568957 0.61463314 1.8003086
0.93475509 0.61401933 1.6580751
0.94748068 0.62237847 1.5496211
0.93397325 0.61350578 1.4111359
0.94025654 0.6176331 1.3142858
0.95303625 0.62602776 1.2201275
0.93492788 0.61413282 1.1016582
0.93758535 0.61587846 1.0256839
0.9377355 0.61597711 0.94980228
0.9270764 0.60897535 0.87050462
0.92709762 0.6089893 0.80406594
0.92763072 0.60933948 0.73287565
0.91045302 0.59805584 0.65292001
0.9249444 0.60757488 0.6024372
0.9159947 0.60169607 0.53601819
0.92832512 0.60979563 0.48006436
0.92189485 0.60557175 0.41927648
0.9214282 0.6052652 0.36086571
0.91704696 0.60238725 0.3094421
0.92002165 0.60434127 0.25540519
0.92864722 0.61000723 0.20592615
0.91085345 0.59831887 0.1495344
0.92412633 0.60703754 0.097958677
0.91024745 0.59792084 0.045169272
0.92772633 0.6094023 -0.0072648809
0.90138322 0.59209812 -0.057689872
0.90634692 0.59535861 -0.11037848
0.90928942 0.59729153 -0.16259035
0.9099198 0.5977056 -0.21655026
0.91000259 0.59775996 -0.26263714
0.90730536 0.59598821 -0.31383926
0.9019224 0.59245229 -0.3676089
0.90168881 0.59229881 -0.42630908
0.89922774 0.59068221 -0.48464826
0.89365178 0.5870195 -0.5447886
0.89310616 0.5866611 -0.60917175
0.88881177 0.58384019 -0.67582864
0.87703043 0.5761013 -0.73302448
0.86864865 0.5705955 -0.79747748
0.89159626 0.58566928 -0.89114964
0.88459986 0.58107346 -0.94669777
0.86348325 0.56720251 -1.017437
0.84756786 0.55674803 -1.077989
0.87838608 0.5769918 -1.2196796
0.34015232 0.21213825 1.8367617
0.40193853 0.25067163 1.8400025
0.47383353 0.2955094 1.8265421
0.55116153 0.34373552 1.8280227
0.61770338 0.3852348 1.8305564
0.67655367 0.42193717 1.8014283
0.74930274 0.4673076 1.8056215
0.84787279 0.52878147 1.8356476
0.92983365 0.57989693 1.8148082
0.95538092 0.59582961 1.6891224
0.9518612 0.59363455 1.5334792
0.94149238 0.58716792 1.3918426
0.95266211 0.59413403 1.3030118
0.95259011 0.59408909 1.2091857
0.94900525 0.59185338 1.1160191
0.94557303 0.58971286 1.0189359
0.9433502 0.58832657 0.93083954
0.94401121 0.58873886 0.84984082
0.92371601 0.57608157 0.76405412
0.92641521 0.57776493 0.70565045
0.92610317 0.57757038 0.64934224
0.93154961 0.58096707 0.59765595
0.9390381 0.58563733 0.53678334
0.93198138 0.58123636 0.48329604
0.94146913 0.58715343 0.43010086
0.94041622 0.58649677 0.37488508
0.93739742 0.5846141 0.31939393
0.93256605 0.58160096 0.26260412
0.94218266 0.58759844 0.20957072
0.93268037 0.58167225 0.15448214
0.93789524 0.58492458 0.1015668
0.93242753 0.5815146 0.049189661
0.92487121 0.57680202 -0.0035574983
0.9067632 0.56550884 -0.053668164
0.92099619 0.57438534 -0.099736765
0.92469907 0.57669467 -0.14951538
0.92607504 0.5775528 -0.20228143
0.93400818 0.5825004 -0.25538599
0.92281801 0.57552153 -0.30672771
0.92536163 0.57710791 -0.36490035
0.91774082 0.57235509 -0.4192391
0.91512734 0.5707252 -0.47876364
0.91023982 0.56767708 -0.53777903
0.91004342 0.56755459 -0.60216504
0.88983476 0.55495137 -0.66168201
0.89575362 0.55864269 -0.72383964
0.89280981 0.55680674 -0.78035688
0.89996636 0.56126994 -0.85125589
0.90379661 0.56365871 -0.92387259
0.89178783 0.55616939 -0.98437291
0.84136289 0.5247215 -1.002435
0.88323671 0.55083638 -1.1484652
0.30355242 0.1795204 1.8466262
0.37112239 0.21948117 1.840162
0.43588722 0.257783 1.8416433
0.49865907 0.29490617 1.8305107
0.56543797 0.33439907 1.8360167
0.62856764 0.37173384 1.8188778
0.70189202 0.41509777 1.8262095
0.76900685 0.4547894 1.8116829
0.84844869 0.50177115 1.8202363
0.92784315 0.54872495 1.8254884
0.97318649 0.5755409 1.7577715
0.96120524 0.56845522 1.5985754
0.95589095 0.56531233 1.46707
0.95848906 0.56684887 1.362931
0.95698804 0.56596112 1.2594689
0.97392458 0.57597739 1.1871482
0.96473974 0.57054549 1.0706331
0.96053994 0.56806171 0.98730385
0.95146847 0.56269687 0.9071824
0.94628775 0.55963302 0.83411652
0.95112264 0.56249237 0.77554369
0.94699907 0.56005365 0.71107852
0.93945354 0.55559129 0.64934224
0.94497848 0.55885869 0.59765595
0.93558949 0.5533061 0.53162456
0.94811887 0.56071591 0.4760969
0.95057678 0.56216955 0.41565505
0.9499259 0.56178463 0.35726571
0.95499796 0.56478423 0.30248588
0.94958305 0.56158185 0.24457677
0.94992656 0.56178498 0.19088505
0.93108928 0.55064464 0.13402709
0.92649144 0.54792553 0.088268153
0.92892367 0.54936391 0.041232806
0.93818873 0.55484325 -0.0071339826
0.92827421 0.54897982 -0.057689872
0.92482281 0.54693866 -0.10936584
0.92790341 0.54876053 -0.16111226
0.92018139 0.54419374 -0.21264845
0.92729706 0.54840195 -0.26734889
0.92343348 0.54611701 -0.32160038
0.91755557 0.54264081 -0.37487698
0.91614938 0.5418092 -0.4354459
0.9141053 0.54060036 -0.49098137
0.90855014 0.53731507 -0.54948086
0.90139955 0.53308624 -0.60613358
0.89353418 0.52843463 -0.65973747
0.89953429 0.53198314 -0.72161764
0.89657468 0.53023279 -0.77782196
0.90384847 0.53453451 -0.84842843
0.90772742 0.53682852 -0.92078561
0.89836127 0.5312894 -0.97753698
0.84274572 0.49839845 -1.000689
0.92727762 0.54839045 -1.1964632
0.31654331 0.17727277 1.8344685
0.39194819 0.21950153 1.8358365
0.46388441 0.25978777 1.8240948
0.53737563 0.30094483 1.8079711
0.60658872 0.339706 1.811146
0.67847216 0.37996268 1.8209075
0.76393861 0.42782617 1.8203743
0.83625734 0.4683266 1.812138
0.92220795 0.51646125 1.8261709
0.97600627 0.54658979 1.7772595
0.97538221 0.54624027 1.6342126
0.98230702 0.55011833 1.518072
0.97754717 0.54745269 1.3959932
0.97636032 0.54678804 1.2929978
0.98295611 0.55048192 1.2055153
0.97902155 0.54827845 1.1123433
0.97581571 0.54648304 1.0293396
0.96953338 0.54296476 0.94699228
0.9652741 0.54057944 0.87413949
0.96549869 0.54070526 0.80768192
0.96203154 0.53876352 0.74372655
0.94902229 0.53147799 0.67475021
0.96261942 0.53909278 0.62900144
0.95513636 0.53490204 0.56079793
0.95970702 0.53746176 0.50417978
0.96052831 0.53792173 0.45180264
0.96668559 0.54136992 0.40600193
0.9649173 0.54037964 0.35003498
0.9528805 0.53363872 0.29008356
0.96392626 0.53982466 0.23735106
0.95536101 0.53502786 0.18201807
0.95321459 0.53382581 0.12810899
0.95740771 0.53617406 0.076732121
0.96808106 0.54215145 0.031477157
0.95963371 0.53742069 -0.01679814
0.94931006 0.53163916 -0.065346584
0.96294206 0.53927344 -0.1184347
0.94920361 0.53157955 -0.16259035
0.95903939 0.53708786 -0.21489564
0.95842981 0.5367465 -0.2649821
0.96298122 0.53929538 -0.32299787
0.94870538 0.53130054 -0.37440339
0.94814765 0.53098822 -0.43355221
0.95461047 0.53460759 -0.49286261
0.95000809 0.53203011 -0.55029863
0.93576866 0.5240556 -0.60216504
0.92990643 0.52077264 -0.6531232
0.93652254 0.52447784 -0.71550578
0.91200584 0.51074779 -0.75596434
0.92738867 0.51936263 -0.83229369
0.91982073 0.51512432 -0.89049244
0.93093407 0.52134812 -0.96703559
0.87988013 0.49275655 -0.9997009
0.90022141 0.50414824 -1.1161702
0.85472721 0.47867024 -1.1752516
0.29583654 0.15663739 1.839795
0.35782614 0.18945919 1.8358828
0.42397243 0.22448184 1.8384383
0.49878705 0.26409414 1.8247098
0.58056259 0.30739206 1.8360167
0.66786289 0.35361519 1.8301135
0.73649049 0.38995165 1.8181088
0.80749649 0.4275474 1.8127472
0.88514835 0.46866193 1.8115652
0.97894448 0.51832443 1.8075972
0.99333286 0.52594268 1.6663655
0.994995 0.52682275 1.518072
0.98864084 0.52345836 1.3845507
0.99428356 0.52644604 1.2744626
0.99727625 0.52803057 1.1762328
0.99054515 0.52446663 1.0706331
0.98431891 0.52117002 0.97462714
0.9873296 0.52276415 0.89263535
0.97562218 0.51656538 0.81130856
0.9722957 0.51480407 0.7473405
0.95932895 0.50793856 0.67829669
0.96557039 0.51124322 0.6276179
0.97369432 0.51554459 0.56897545
0.97063589 0.51392525 0.50778621
0.97423989 0.5158335 0.44818792
0.98378462 0.52088714 0.39146447
0.98102474 0.51942587 0.33673021
0.96765655 0.51234776 0.27935731
0.97772884 0.51768076 0.23011518
0.97694629 0.51726645 0.18003167
0.96515214 0.51102179 0.13167402
0.96930951 0.51322293 0.083912373
0.97175121 0.51451582 0.031193579
0.96319222 0.50998402 -0.016645432
0.9703936 0.51379699 -0.065946095
0.95802748 0.50724941 -0.11393602
0.96146405 0.50906903 -0.16259035
0.96213061 0.50942194 -0.21655026
0.95210093 0.50411147 -0.26734889
0.95659947 0.50649333 -0.3244718
0.950436 0.50322998 -0.37819448
0.95218593 0.50415653 -0.42984661
0.9427672 0.49916956 -0.48054105
0.94650382 0.50114799 -0.54127735
0.93244326 0.49370328 -0.59237373
0.93811965 0.49670878 -0.66008478
0.93505484 0.49508607 -0.72039032
0.93140823 0.49315527 -0.77805948
0.93291271 0.49395186 -0.84153754
0.94400895 0.499827 -0.92039126
0.93169093 0.49330497 -0.98091906
0.87920809 0.46551672 -0.99919337
0.91784817 0.48597559 -1.1235135
0.8839525 0.46802875 -1.1840934
0.30484331 0.15232156 1.8386867
0.38434693 0.19204728 1.8610468
0.46377778 0.23173663 1.8382895
0.53786689 0.26875684 1.8234223
0.60909152 0.30434579 1.8272606
0.6813767 0.34046462 1.8276241
0.76343566 0.38146719 1.8198211
0.84142041 0.42043394 1.8214684
0.92063427 0.46001485 1.8190434
0.99615651 0.49775121 1.8039722
1.0005517 0.49994737 1.6700445
1.0133036 0.50631911 1.5378416
0.99105221 0.49520069 1.3803955
1.0085824 0.50396007 1.2856461
1.0156326 0.50748283 1.183449
1.0026265 0.50098407 1.0706331
1.0030563 0.50119883 0.9812125
0.9967463 0.49804592 0.89629626
0.99472976 0.49703828 0.81723052
0.99594128 0.49764365 0.74568874
0.97059256 0.4849776 0.66003549
0.97856903 0.48896322 0.60482866
0.98521793 0.49228549 0.54763186
0.98254436 0.4909496 0.48329604
0.99254686 0.49594757 0.43010086
0.97267985 0.48602057 0.37440339
0.98636311 0.49285772 0.32661766
0.98107338 0.49021456 0.27218512
0.97322452 0.48629275 0.22012125
0.97270823 0.48603475 0.16615917
0.98715919 0.4932555 0.11964817
0.98222816 0.49079159 0.065965258
0.9749701 0.48716494 0.014267659
0.96551967 0.48244283 -0.037691455
0.98070854 0.49003229 -0.089883618
0.96685129 0.48310822 -0.14108519
0.96978629 0.48457474 -0.18628445
0.9694078 0.48438561 -0.24024796
0.96747023 0.48341748 -0.29104781
0.97123504 0.48529863 -0.3475453
0.96397489 0.48167095 -0.40155384
0.95935869 0.47936437 -0.4676972
0.96685773 0.48311144 -0.52133429
0.95179808 0.47558656 -0.5761925
0.9508003 0.47508797 -0.6386472
0.93989462 0.46963871 -0.69544059
0.94007212 0.46972743 -0.76525843
0.93513572 0.46726084 -0.82224602
0.94726127 0.47331962 -0.90042472
0.9496035 0.47448996 -0.98773098
0.8899315 0.44467357 -0.99919337
0.93511504 0.4672505 -1.1308566
0.79508144 0.39727965 -1.1074359
0.30669844 0.14432134 1.8288541
0.37377998 0.17588751 1.8443027
0.44181633 0.20790298 1.8465304
0.50528252 0.2377679 1.8265421
0.57393098 0.27007142 1.8227904
0.6520139 0.30681446 1.811972
0.74325907 0.34975117 1.8235241
0.81910497 0.38544154 1.8057967
0.90959233 0.42802167 1.832359
0.98615468 0.46404916 1.8183942
1.0136399 0.47698277 1.7168348
1.0094206 0.47499728 1.574912
1.0065625 0.47365236 1.4530606
1.0156302 0.47791931 1.3556137
1.019472 0.47972712 1.2596185
1.0245295 0.48210698 1.1725239
1.0175066 0.47880226 1.0812163
1.0135567 0.47694358 0.99761093
1.0044771 0.47267103 0.91717386
1.0066665 0.47370133 0.84984082
0.99754113 0.46940723 0.77914602
1.0045131 0.47268802 0.71408629
1.0011066 0.47108501 0.64363384
0.99979967 0.47047001 0.58443022
0.99738842 0.46933535 0.52281994
1.0022326 0.47161484 0.46163774
1.0025069 0.47174394 0.40600193
1.0006731 0.47088102 0.35003498
0.99693531 0.46912214 0.29265067
1.0084918 0.4745602 0.23945151
0.99857938 0.46989581 0.19088505
0.99632812 0.46883643 0.14008085
1.000998 0.4710339 0.09072005
1.0036258 0.47227046 0.042378161
1.0043097 0.47259226 -0.010887538
0.99370897 0.46760395 -0.062362067
0.98985738 0.46579152 -0.11498131
0.99283624 0.46719325 -0.16765055
0.99328345 0.46740371 -0.22208516
1.000316 0.47071299 -0.27820352
0.97939664 0.46086907 -0.3244718
0.97530508 0.45894375 -0.37114769
0.97360337 0.45814297 -0.43336079
0.98028588 0.46128753 -0.49229401
0.97388279 0.45827445 -0.55284429
0.96077609 0.45210689 -0.60075676
0.97013038 0.45650873 -0.66185105
0.96158427 0.4524872 -0.71345013
0.9508779 0.44744918 -0.76525843
0.95514536 0.44945732 -0.84153754
0.96103477 0.45222864 -0.92736262
0.94806504 0.44612554 -0.98779792
0.89522439 0.42126063 -1.0045959
0.96354002 0.4534075 -1.1672242
0.31168023 0.13779238 1.8386867
0.37582105 0.16614875 1.8345444
0.44425365 0.19640249 1.8368628
0.51341808 0.22697976 1.8361051
0.58314037 0.25780365 1.8322349
0.66582102 0.29435641 1.8305564
0.74753636 0.33048236 1.8144065
0.83567643 0.36944866 1.8127472
0.93134022 0.41174123 1.8136909
1.0184979 0.45027325 1.8039722
1.038106 0.45894185 1.6709603
1.0342684 0.45724529 1.5143697
1.0300448 0.45537803 1.3784189
1.0304912 0.45557544 1.2596185
1.02925 0.45502669 1.1653305
1.0219117 0.45178244 1.0742854
1.017682 0.44991249 0.99096018
1.0153342 0.44887459 0.91717386
1.0290632 0.4549441 0.84979683
1.0100273 0.4465284 0.75898439
1.0083201 0.44577366 0.68889505
1.0109626 0.44694188 0.62537789
1.010502 0.44673824 0.56294823
1.0100132 0.44652215 0.49456176
1.012211 0.44749379 0.43735361
1.012922 0.44780812 0.37730217
1.0162601 0.44928393 0.3331055
1.0111282 0.44701511 0.27820352
1.0123062 0.4475359 0.22770101
1.0120957 0.4474428 0.17279281
1.0092989 0.44620636 0.11964817
1.0042572 0.44397748 0.065965258
1.0059817 0.44473985 0.014398555
1.005455 0.444507 -0.038389448
1.011819 0.44732052 -0.090700738
1.0066737 0.4450458 -0.14367391
0.9994036 0.44183171 -0.19513386
1.0090078 0.4460777 -0.24457677
0.99741191 0.44095117 -0.29602635
1.0017282 0.44285941 -0.35059395
0.9949708 0.439872 -0.40267321
0.98638999 0.43607846 -0.45361912
0.98185045 0.43407154 -0.51347017
0.97826689 0.43248728 -0.56572843
0.97364062 0.43044201 -0.61615229
0.98235607 0.43429509 -0.67769045
0.9730739 0.43019149 -0.72949463
0.95766574 0.4233796 -0.78722686
0.98361742 0.43485272 -0.88062465
0.96799982 0.42794824 -0.94669777
0.93484962 0.41329268 -1.0000727
0.9304986 0.41136912 -1.088599
0.9337641 0.41281277 -1.1927155
0.34256682 0.14189582 1.8430718
0.41833922 0.17328179 1.8246549
0.49931559 0.20682329 1.831941
0.57200229 0.2369311 1.8174369
0.65224499 0.27016872 1.8391534
0.71480072 0.29608014 1.811711
0.79691511 0.33009306 1.793339
0.88118714 0.36499965 1.8032982
0.97189111 0.40257049 1.8175161
1.0334858 0.42808384 1.7772595
1.032825 0.42781013 1.6342126
1.0511645 0.4354066 1.5341363
1.0435364 0.43224695 1.3886304
1.0394138 0.43053931 1.2744626
1.0525203 0.43596816 1.1797173
1.0387458 0.43026257 1.0669496
1.0389185 0.43033412 0.97752798
1.0267106 0.42527747 0.8839708
1.0372844 0.42965725 0.81947291
1.0154704 0.4206216 0.73095649
1.0089711 0.41792953 0.66761678
1.0150362 0.42044181 0.61687118
1.0113868 0.41893011 0.56079793
1.004783 0.41619477 0.50714189
1.0161833 0.42091686 0.45420334
1.0086585 0.41780007 0.39198339
1.024527 0.42437294 0.34037071
1.0115782 0.41900945 0.27935731
1.0135198 0.41981363 0.22568595
1.0223564 0.42347386 0.17279281
1.0103463 0.41849911 0.11857025
1.0140179 0.42001995 0.073150322
1.0067891 0.41702569 0.023778224
1.0159478 0.4208194 -0.027585527
1.0135552 0.4198283 -0.080313101
1.0089601 0.417925 -0.13167402
1.0019617 0.4150261 -0.18391885
0.99289429 0.41127029 -0.23455851
1.008118 0.41757616 -0.29364645
0.98340112 0.40733808 -0.34842208
0.99313724 0.4113709 -0.40859815
0.99222404 0.41099265 -0.46419448
0.98192126 0.40672511 -0.51264542
0.97185105 0.40255389 -0.55637753
0.9797647 0.40583181 -0.62310648
0.97836161 0.40525064 -0.68277413
0.9770202 0.40469503 -0.73875123
0.97234929 0.40276027 -0.79669386
0.9669143 0.400509 -0.86848682
0.97206807 0.4026438 -0.95360452
0.9311198 0.38568246 -0.98608565
0.93378979 0.3867884 -1.0673946
0.99279803 0.41123042 -1.2388873
0.33836332 0.1309029 1.8344685
0.41896603 0.16208573 1.8358365
0.49847075 0.19284379 1.8336952
0.57486892 0.22240002 1.8289243
0.64948362 0.25126627 1.8321126
0.71956849 0.27838007 1.8343462
0.78644127 0.30425119 1.8135439
0.87595564 0.33888167 1.8334287
0.96999055 0.37526104 1.8243622
1.0477536 0.40534529 1.7978619
1.0480918 0.40547609 1.6544162
1.0564554 0.40871176 1.5378416
1.0522814 0.40709695 1.4153007
1.0471175 0.40509918 1.3030118
1.0660754 0.41243348 1.2311709
1.0629036 0.41120642 1.1372093
1.0530914 0.40741032 1.0324317
1.0492615 0.40592867 0.9461354
1.0444816 0.4040795 0.87302792
1.0445297 0.40409806 0.80626452
1.0250982 0.39658061 0.73095649
1.0264947 0.39712086 0.67283255
1.0327922 0.3995572 0.62176698
1.0209759 0.3949858 0.56079793
1.0343399 0.40015593 0.5083465
1.0308304 0.3987982 0.44096336
1.0405564 0.40256095 0.38417041
1.0293564 0.39822793 0.32301715
1.0244921 0.39634609 0.26500127
1.0349556 0.40039411 0.21319367
1.0339075 0.39998868 0.15951222
1.0398545 0.40228936 0.1061408
1.0433527 0.40364274 0.053735506
1.0352237 0.40049785 0.0036421465
1.0155604 0.39289069 -0.048723474
1.0401738 0.40241286 -0.10248181
1.0160753 0.39308989 -0.15189257
1.0172732 0.39355332 -0.20584247
1.0162241 0.39314747 -0.25908223
1.0223432 0.39551476 -0.31302145
1.0163653 0.3932021 -0.36727875
1.0161302 0.39311114 -0.42643049
1.0134007 0.39205512 -0.48519269
1.0071704 0.38964486 -0.54578799
0.99842507 0.38626152 -0.605681
1.0058389 0.3891297 -0.67064619
0.98896384 0.38260126 -0.71691477
0.98882192 0.38254637 -0.78631383
0.99121481 0.38347208 -0.86448967
1.0017569 0.38755053 -0.94402736
0.9741779 0.376881 -0.99123061
0.91996902 0.35590917 -1.0214626
1.0097976 0.39066124 -1.2184386
0.33392304 0.12021969 1.8258265
0.40567544 0.14605215 1.840162
0.47647017 0.17153981 1.8416433
0.54224735 0.19522107 1.8209769
0.61174333 0.22024114 1.8171858
0.69059551 0.24862967 1.8281579
0.75573254 0.27208045 1.7988164
0.84060466 0.3026363 1.8116829
0.92744291 0.33389997 1.8202363
1.0094452 0.36342263 1.8168776
1.0637943 0.3829895 1.7577715
1.061474 0.38215414 1.614971
1.0619247 0.38231641 1.4909896
1.0596344 0.3814919 1.3784189
1.0647678 0.38334 1.2819594
1.0784247 0.38825676 1.1869106
1.0648326 0.38336331 1.0881472
1.0469166 0.37691316 0.99096018
1.051755 0.37865508 0.9235431
1.0467782 0.37686333 0.84984082
1.0372891 0.37344706 0.77914602
1.0250826 0.36905244 0.70922911
1.0249104 0.36899048 0.65292001
1.0424578 0.37530789 0.60002148
1.039601 0.37427935 0.54041177
1.0506628 0.37826186 0.49135095
1.0439594 0.3758485 0.43010086
1.0439436 0.37584281 0.37124646
1.0404197 0.37457412 0.31578657
1.0440506 0.37588134 0.26128843
1.0546433 0.37969491 0.2077485
1.0533257 0.37922058 0.15361261
1.0403028 0.37453204 0.097958677
1.0434805 0.37567613 0.045998067
1.0349467 0.37260374 -0.0071994318
1.0428866 0.37546229 -0.059292365
1.0396789 0.37430745 -0.10517383
1.034373 0.37239721 -0.15327342
1.0361407 0.37303361 -0.20410378
1.0426964 0.37539381 -0.26732707
1.0304058 0.37096891 -0.31661659
1.025347 0.36914763 -0.36727875
1.0338714 0.37221661 -0.4300752
1.0233495 0.36842853 -0.48282096
1.0109851 0.36397704 -0.53425622
1.0286411 0.37033358 -0.60601205
1.0087862 0.36318538 -0.66185105
0.99989951 0.35998598 -0.71345013
0.99637246 0.35871616 -0.77114505
0.99836498 0.35943353 -0.83461058
1.0106636 0.36386132 -0.91338044
1.007859 0.36285159 -0.97727114
0.94522119 0.34030056 -0.98936975
0.97946984 0.35263085 -1.121245
0.98128027 0.35328263 -1.2265319
0.35743731 0.1192501 1.8418518
0.43752491 0.14596935 1.832857
0.51837528 0.17294307 1.8301579
0.61051351 0.20368271 1.830133
0.69626147 0.2322904 1.8281579
0.77353597 0.25807112 1.8262095
0.84330583 0.28134811 1.8027142
0.93534541 0.31205481 1.7972898
1.0451297 0.34868163 1.811222
1.0821278 0.36102515 1.7032793
1.0801615 0.36036912 1.5458931
1.0687521 0.35656264 1.403792
1.0820382 0.36099523 1.3006829
1.0901395 0.36369804 1.1978813
1.0837915 0.36158022 1.091355
1.0779464 0.35963011 0.9943831
1.0745836 0.35850823 0.90511978
1.0777706 0.35957146 0.8349964
1.0750122 0.35865122 0.76981688
1.0538408 0.35158786 0.69419426
1.0610826 0.35400394 0.6425612
1.0583709 0.35309926 0.58546734
1.0558366 0.35225371 0.52347541
1.0609094 0.35394615 0.46183699
1.0611744 0.35403454 0.4057937
1.0512338 0.35071811 0.34278923
1.0561428 0.3523559 0.28793702
1.0680312 0.35632214 0.23418802
1.0585361 0.35315436 0.17799804
1.0646238 0.35518539 0.13160288
1.0595953 0.35350773 0.081792839
1.0525228 0.35114816 0.031477157
1.0527654 0.3512291 -0.020573113
1.0506166 0.35051224 -0.073795997
1.0556028 0.35217571 -0.1267876
1.0579793 0.35296863 -0.18163911
1.0494567 0.35012522 -0.23011518
1.0561428 0.3523559 -0.28793702
1.0512394 0.35071999 -0.34276989
1.0331919 0.34469891 -0.39912054
1.0447818 0.34856558 -0.45059186
1.0332414 0.34471542 -0.50357062
1.0276941 0.34286469 -0.56097108
1.0199554 0.34028286 -0.61765569
1.0188671 0.33991978 -0.67769045
1.0248871 0.34192821 -0.74080461
1.013364 0.33808377 -0.79227078
1.0135241 0.33813721 -0.85751516
1.018901 0.33993107 -0.94402736
0.99773091 0.33286822 -0.99811411
0.95530319 0.31871325 -1.0292802
1.0383867 0.34643203 -1.2077408
0.32954884 0.10138246 1.8379388
0.40058494 0.12323602 1.8429445
0.46754336 0.14383511 1.8255998
0.54226273 0.16682181 1.8342632
0.61514276 0.18924262 1.830133
0.69008964 0.2122993 1.8329226
0.76412076 0.23507425 1.82235
0.84257615 0.25921026 1.8174915
0.92623901 0.28494832 1.8178245
1.0111576 0.31107271 1.8140546
1.0798713 0.33221179 1.7820251
1.0844383 0.33361679 1.6470256
1.0922803 0.33602929 1.5303948
1.087236 0.33447748 1.4078858
1.0861577 0.33414575 1.3044187
1.0936716 0.33645728 1.2163795
1.0963823 0.33729121 1.1297259
1.0792358 0.33201629 1.0324317
1.0796485 0.33214328 0.95626348
1.0807018 0.33246732 0.8754707
1.0771456 0.33137324 0.79646039
1.0676299 0.32844585 0.72193468
1.0554823 0.32470873 0.64724141
1.064564 0.32750267 0.58910561
1.0622039 0.32677656 0.52710533
1.0689538 0.32885313 0.46183699
1.0692208 0.32893527 0.4057937
1.0672516 0.32832947 0.34939054
1.072488 0.32994035 0.29412422
1.0753893 0.33083296 0.23788108
1.0660015 0.3279449 0.18163911
1.0541104 0.3242867 0.12565556
1.0681186 0.32859617 0.074480325
1.0700576 0.32919273 0.031760734
1.0703634 0.32928675 -0.017103562
1.0685627 0.32873282 -0.067145117
1.0741295 0.33044538 -0.11811716
1.0671151 0.32828745 -0.1743356
1.0693593 0.32897788 -0.21873306
1.0685138 0.32871774 -0.26967204
1.0559188 0.32484305 -0.31939393
1.041598 0.32043737 -0.36727875
1.0502574 0.3231014 -0.4300752
1.047287 0.32218754 -0.48926994
1.0407052 0.32016271 -0.55029863
1.0347039 0.31831646 -0.60470039
1.028893 0.31652883 -0.65481955
1.0236827 0.31492591 -0.71902394
1.0226974 0.31462282 -0.78993827
1.0388403 0.31958902 -0.86647201
1.0295663 0.31673595 -0.94051671
0.99629384 0.30650002 -0.99350709
0.96936643 0.29821604 -1.0502361
1.0310608 0.31719571 -1.2219659
0.32217753 0.090863459 1.839795
0.40337718 0.11376413 1.8429445
0.48484385 0.1367401 1.8320012
0.56424713 0.15913415 1.8178012
0.65533155 0.18482262 1.8272606
0.7425729 0.20942722 1.8343462
0.81158358 0.22889024 1.8135439
0.89518338 0.25246781 1.8156284
0.97535187 0.27507767 1.8049712
1.0711375 0.30209205 1.8161236
1.1050307 0.31165087 1.7224056
1.0981601 0.30971318 1.5813355
1.1080621 0.31250584 1.4735801
1.105482 0.31177819 1.3598176
1.1027486 0.31100729 1.2558742
1.1093572 0.3128711 1.1806517
1.0960804 0.30912665 1.0807167
1.0905613 0.30757007 0.99808663
1.0816664 0.30506146 0.91620713
1.0828991 0.30540913 0.84979683
1.0817516 0.30508548 0.78334951
1.0684904 0.30134544 0.71408629
1.0773644 0.30384821 0.66103113
1.0786113 0.30419984 0.59746152
1.0679374 0.30118951 0.53074902
1.0823442 0.30525264 0.47302419
1.0753932 0.30329224 0.4094426
1.0724669 0.30246693 0.35669124
1.0780877 0.30405217 0.30146194
1.071191 0.3021071 0.24674116
1.0902157 0.30747265 0.19846977
1.0879666 0.30683833 0.14757673
1.0740503 0.30291352 0.095180042
1.0867815 0.30650407 0.04314173
1.0779268 0.30400679 -0.0073303306
1.0764109 0.30357927 -0.059826531
1.0823375 0.30525073 -0.11075937
1.0766574 0.3036488 -0.15970652
1.0700074 0.30177331 -0.20227934
1.0789963 0.30430844 -0.2562485
1.0764917 0.30360207 -0.30755711
1.079344 0.30440649 -0.36708754
1.0732313 0.30268255 -0.41552094
1.0631337 0.2998347 -0.46887735
1.0592638 0.29874331 -0.52641481
1.0531421 0.29701677 -0.58332914
1.0538665 0.29722109 -0.64337009
1.0500864 0.29615501 -0.70683151
1.0421212 0.29390857 -0.77233493
1.0434616 0.29428658 -0.83754605
1.0488566 0.29580817 -0.91038305
1.0442557 0.29451057 -0.97693068
0.98690963 0.2783373 -0.99671346
1.0026883 0.28278735 -1.093045
1.0573565 0.29820538 -1.2444561
0.31841111 0.081754074 1.8408777
0.3882874 0.099695258 1.8367617
0.45640215 0.11718415 1.8303182
0.5320664 0.13661143 1.8397398
0.60280299 0.1547735 1.8269027
0.68033397 0.17468007 1.8298177
0.74938768 0.19241005 1.811711
0.83237118 0.2137166 1.817026
0.92131835 0.23655435 1.8272424
1.0073743 0.25864974 1.8243622
1.1092904 0.28481737 1.8195752
1.1041785 0.28350487 1.6432939
1.1048828 0.28368571 1.5069361
1.1030899 0.28322536 1.3939067
1.0961179 0.28143522 1.2819594
1.1093113 0.28482276 1.2016257
1.1031388 0.2832379 1.1094868
1.1001992 0.28248316 1.0250194
1.091697 0.28030014 0.94367868
1.0951635 0.28119019 0.8754707
1.0864873 0.27896252 0.80381924
1.0749935 0.27601141 0.73287565
1.0674753 0.27408108 0.67042971
1.0830277 0.27807426 0.62299722
1.0873976 0.27919623 0.57202804
1.0637906 0.27313501 0.50778621
1.0767131 0.27645296 0.45195422
1.086078 0.27885744 0.39846334
1.0751765 0.27605841 0.33673021
1.0708004 0.27493483 0.27820352
1.0822556 0.27787599 0.22607048
1.0915148 0.28025338 0.17220132
1.0788704 0.27700683 0.11707188
1.0830684 0.2780847 0.063495919
1.0846678 0.27849534 0.018334912
1.0843768 0.27842066 -0.031760734
1.0720841 0.27526441 -0.083458208
1.077013 0.27652994 -0.13406809
1.0701318 0.27476314 -0.18363859
1.0803075 0.27737582 -0.23579308
1.0783912 0.27688381 -0.28793702
1.0651997 0.27349681 -0.33622745
1.0483483 0.26917011 -0.38860422
1.0564082 0.27123952 -0.45036745
1.044623 0.2682136 -0.50291574
1.0493432 0.26942557 -0.56097108
1.0537648 0.27056083 -0.61552948
1.0467299 0.26875457 -0.66710383
1.045423 0.26841903 -0.72459775
1.0285906 0.26409715 -0.78399885
1.0396924 0.26694763 -0.86728239
1.037359 0.26634854 -0.94754666
0.99250102 0.25483096 -0.98305792
1.0058352 0.25825459 -1.0824047
1.0537416 0.27055484 -1.2405357
0.35737264 0.082834527 1.8234646
0.4387663 0.10170057 1.8149494
0.52374065 0.12139656 1.8223498
0.60628211 0.14052865 1.8269027
0.67727828 0.15698467 1.811146
0.75371277 0.17470124 1.811711
0.8330102 0.19308139 1.807986
0.92213756 0.21374002 1.8183722
1.0247986 0.23753557 1.8175161
1.1162866 0.25874135 1.807362
1.1163455 0.258755 1.6634959
1.1307715 0.26209876 1.5544324
1.1142665 0.25827312 1.4156642
1.1134442 0.25808251 1.3119587
1.1280531 0.26146868 1.2309469
1.1244071 0.26062354 1.1367428
1.1143689 0.25829685 1.0459276
1.1227163 0.26023167 0.97564721
1.1112058 0.25756368 0.89519984
1.1121262 0.25777701 0.82754236
1.1055858 0.25626102 0.74940664
1.0924522 0.25321683 0.67714804
1.0997789 0.25491506 0.62418318
1.0954864 0.25392011 0.56836087
1.1013857 0.2552875 0.50929135
1.1038823 0.25586617 0.45208007
1.1040641 0.25590831 0.39440262
1.1011096 0.25522351 0.33884868
1.113843 0.25817493 0.29171827
1.1063616 0.25644085 0.23622443
1.1057315 0.25629479 0.18485396
1.1034188 0.25575876 0.12905167
1.0981344 0.25453389 0.078824818
1.100554 0.25509471 0.02465082
1.1102084 0.25733247 -0.028588638
1.0981344 0.25453389 -0.078824818
1.1034188 0.25575876 -0.12905167
1.0966963 0.25420055 -0.1795536
1.1063616 0.25644085 -0.23622443
1.0940467 0.25358641 -0.2904408
1.0888864 0.2523903 -0.34572482
1.0701926 0.24805731 -0.40256122
1.0790441 0.25010899 -0.46163774
1.0754941 0.24928614 -0.51920027
1.0610344 0.24593458 -0.57150859
1.0687375 0.24772005 -0.63979298
1.0748099 0.24912757 -0.70627123
1.0645673 0.24675347 -0.75809568
1.0511824 0.243651 -0.81126428
1.0655872 0.24698985 -0.88973027
1.0610039 0.24592751 -0.95723057
1.0154531 0.23536938 -0.99350709
1.0286109 0.2384192 -1.0933965
1.0781417 0.24989983 -1.2372391
0.37489203 0.077636406 1.8406055
0.44339907 0.091823533 1.8246549
0.51476473 0.10660265 1.8258294
0.59184831 0.12256589 1.8329194
0.66674852 0.13807698 1.8272606
0.74587625 0.15446354 1.8276241
0.81362796 0.16849425 1.7972255
0.89606839 0.18556684 1.8008405
1.0029602 0.20770307 1.8103398
1.1169275 0.23130457 1.8342767
1.1389549 0.2358662 1.7243981
1.1331843 0.23467118 1.5819048
1.1367865 0.23541714 1.4660134
1.1270647 0.23340388 1.3446739
1.1220013 0.23235531 1.2422657
1.1399896 0.23608051 1.1692688
1.1312066 0.23426163 1.0631994
1.1285357 0.23370852 0.97564721
1.138164 0.23570244 0.89995939
1.1195437 0.23184635 0.80800325
1.1118122 0.23024523 0.73031557
1.1088111 0.22962375 0.658719
1.1166283 0.2312426 0.60313195
1.1118796 0.23025918 0.54617262
1.1251488 0.23300712 0.49218675
1.109825 0.22983372 0.42375094
1.1191292 0.23176052 0.36583716
1.1157813 0.2310672 0.30665955
1.1097696 0.22982225 0.24737239
1.1199086 0.23192193 0.19395079
