# .PCD v0.7 - Point Cloud Data file format
VERSION 0.7
FIELDS x y z
SIZE 4 4 4
TYPE F F F
COUNT 1 1 1
WIDTH 64
HEIGHT 1
VIEWPOINT 0 0 0 1 0 0 0
POINTS 64
DATA ascii
0.40221569 1.2809511 0.91871476
0.40766421 1.2702054 0.98174173
0.42713124 1.2422653 1.0016867
0.4469395 1.2137893 1.0228864
0.48731667 1.1573832 1.033914
0.50887287 1.1277955 1.0294778
0.56629241 1.0452762 1.0904257
0.60059494 0.99746907 1.097578
0.65433973 0.92540526 1.0530281
0.73251742 0.81725371 1.0535475
0.73409373 0.81893557 0.9777208
0.73402226 0.82213068 0.91692942
0.70314181 0.86539221 0.90609622
0.65506929 0.93141955 0.91513389
0.60341489 1.0085578 0.80328465
0.62298745 0.98516226 0.73113787
0.70667982 0.87076193 0.70459282
0.75481778 0.80566931 0.67542547
0.77061355 0.78445578 0.66299576
0.86044353 0.6568622 0.72881776
0.91967219 0.57315779 0.76390523
0.99530017 0.467787 0.77906352
1.0078245 0.44344485 0.9168973
1.0510402 0.37989467 0.99111205
1.0824509 0.33434093 1.0325501
1.0843729 0.33555925 0.95643747
1.0865335 0.33668381 0.87568545
1.0736455 0.35658896 0.83484447
1.0747083 0.35843155 0.76980567
1.0123991 0.4487229 0.68904525
1.0142883 0.44934645 0.62550038
1.0157349 0.4505218 0.56314093
1.0173216 0.4518064 0.49483088
1.0189987 0.45240158 0.43760356
1.0205451 0.45331982 0.37758288
1.0220608 0.45347798 0.33331913
1.0096614 0.47540584 0.23949456
0.97998965 0.51946688 0.18014377
0.96872509 0.5426172 0.031500876
0.93736291 0.58508307 0.049371421
0.86205745 0.69033718 0.027746648
0.83145368 0.73192549 0.042251647
0.81574106 0.75383389 0.038780421
0.79987532 0.77614254 0.031609654
0.76874268 0.8202545 0.010928214
0.75363147 0.84152263 0.0036973953
0.71994561 0.88735324 0.018604606
0.68972039 0.92970884 0.0077658892
0.67265517 0.95311558 0.011607438
0.65553713 0.97678626 0.011700898
0.63754046 0.9995743 0.052984267
0.6370219 0.99747694 0.10824436
0.6500895 0.97649014 0.1654464
0.65054876 0.97323537 0.21687835
0.63439739 0.9927907 0.271523
0.63167441 0.99371111 0.32739449
0.57735145 1.0632762 0.43670371
0.5583812 1.0884212 0.45814678
0.4575842 1.2303182 0.40930104
0.43415591 1.2576404 0.50905716
0.4312934 1.2580026 0.57967645
0.38533798 1.3161567 0.68580621
0.38379806 1.3149954 0.75042439
0.38417599 1.307669 0.88400733
