# .PCD v0.7 - Point Cloud Data file format
VERSION 0.7
FIELDS x y z
SIZE 4 4 4
TYPE F F F
COUNT 1 1 1
WIDTH 304
HEIGHT 1
VIEWPOINT 0 0 0 1 0 0 0
POINTS 304
DATA ascii
0.38417602 1.307669 0.88400733
0.38379809 1.3149954 0.75042439
0.38533798 1.3161567 0.68580621
0.40766424 1.2702054 0.98174173
0.40221575 1.2809511 0.9187147
0.40419859 1.2818646 0.84693408
0.40708327 1.2815343 0.77508527
0.4271313 1.2422653 1.0016867
0.42478031 1.2489216 0.93483716
0.42893788 1.2504582 0.79176939
0.42951936 1.2529874 0.72631878
0.42693299 1.2600039 0.65879178
0.43129343 1.2580026 0.57967645
0.43415594 1.2576404 0.50905716
0.44693953 1.2137893 1.0228864
0.44937077 1.2185268 0.86384928
0.45054084 1.2208884 0.78570509
0.450533 1.2244184 0.71661407
0.45241281 1.2249912 0.65432245
0.45500159 1.2245967 0.59176481
0.45506665 1.2275939 0.53115588
0.4575842 1.2303182 0.40930104
0.4662936 1.1897104 0.97009057
0.47356355 1.184626 0.87249964
0.469657 1.1932347 0.80955917
0.46996418 1.1961076 0.7448138
0.47140291 1.1972924 0.68247831
0.47646347 1.1936932 0.61572641
0.47667766 1.1962446 0.55981749
0.48731664 1.1573832 1.033914
0.48944309 1.1666293 0.79463685
0.49168745 1.1673877 0.71879846
0.49233687 1.1700425 0.64904124
0.49675339 1.1676962 0.57517654
0.50887293 1.1277955 1.0294778
0.51198852 1.1281958 0.9370116
0.51007956 1.1343 0.86900413
0.51239491 1.1345792 0.80064833
0.51281589 1.1372252 0.73726779
0.51693511 1.1348672 0.67169988
0.51632851 1.138599 0.61490327
0.51890653 1.1382326 0.55208904
0.52662253 1.1052531 0.99008143
0.53056401 1.1043822 0.90015191
0.53020543 1.1123543 0.75336158
0.53327876 1.1117272 0.6822148
0.53704137 1.1101919 0.61018586
0.54713309 1.0790977 0.94664782
0.54808861 1.0813639 0.87620574
0.54781508 1.0849242 0.81372929
0.55051666 1.0846515 0.74572831
0.5518015 1.0859509 0.68532389
0.55613196 1.0832728 0.62031281
0.55635566 1.0857043 0.56649286
0.55838126 1.0884212 0.45814678
0.56629235 1.045276 1.0904257
0.56750417 1.047595 1.0119908
0.56997657 1.0480254 0.93640643
0.56661171 1.0556411 0.8782478
0.56933719 1.0594885 0.72869796
0.57018149 1.0616362 0.66360468
0.57237363 1.0615903 0.60497546
0.57735151 1.0632762 0.43670371
0.58544266 1.0264518 0.93999487
0.58662844 1.035843 0.72340608
0.59021074 1.0342159 0.65807265
0.5923866 1.0341597 0.60009396
0.59500551 1.038838 0.43712249
0.60059494 0.99746901 1.097578
0.60437536 0.99719721 1.0002581
0.60426825 1.0010436 0.92765057
0.60341305 1.0054436 0.86448145
0.60341495 1.0085578 0.80328465
0.60597312 1.0084206 0.73651308
0.60729057 1.0096095 0.67739338
0.60908675 1.0101476 0.61805385
0.61160052 1.0095664 0.56120157
0.61237943 1.0111953 0.50807083
0.61941963 0.97906846 0.94767004
0.62298757 0.98516226 0.73113787
0.6249181 0.98921841 0.59907293
0.62715602 0.98926079 0.53746986
0.62817758 0.99053502 0.48470843
0.62974888 0.99094486 0.43399519
0.63167435 0.99371105 0.32739449
0.63439745 0.9927907 0.271523
0.63702202 0.99747694 0.10824437
0.63754034 0.99957418 0.052984256
0.63797581 0.94945145 1.0252739
0.63658279 0.95455748 0.96284962
0.64307898 0.9666605 0.54880971
0.64377284 0.96858591 0.49216709
0.64518869 0.9692778 0.44013715
0.64669907 0.97314411 0.32321337
0.64937741 0.9722839 0.26736966
0.65054882 0.97323537 0.21687835
0.6500895 0.97649008 0.16544642
0.65214777 0.97637522 0.11180944
0.65468508 0.97556162 0.058885906
0.65553707 0.9767862 0.0117009
0.65433967 0.9254052 1.0530281
0.65506935 0.93141955 0.91513389
0.65787661 0.94060892 0.65847886
0.65916675 0.9421857 0.59248775
0.66118133 0.94262862 0.52908242
0.66173428 0.9450351 0.46682057
0.66299552 0.94629151 0.407897
0.66470778 0.94700485 0.34739923
0.66595232 0.9511627 0.23196761
0.66928434 0.94955349 0.17308128
0.67121691 0.94969785 0.11776852
0.67173779 0.95180798 0.062192749
0.67265522 0.95311564 0.01160743
0.66915792 0.90577167 1.036123
0.67954844 0.92172772 0.4406938
0.67931175 0.92479903 0.38681489
0.68124986 0.9250446 0.32935846
0.68190062 0.92684519 0.27633607
0.68444067 0.92892659 0.16650093
0.68458021 0.93138611 0.11441512
0.68972039 0.92970884 0.0077658896
0.68681782 0.88382787 0.9874087
0.68763965 0.88612974 0.91989434
0.69206721 0.8933121 0.65864718
0.6934337 0.89467853 0.59471428
0.69373757 0.897246 0.53605551
0.69581556 0.90011364 0.42332119
0.69741493 0.9008351 0.36572441
0.69948125 0.90079325 0.31044009
0.70023561 0.90266323 0.25323924
0.70146322 0.90366471 0.20023829
0.70307589 0.90404266 0.14902459
0.70175117 0.90845656 0.098334469
0.70581073 0.90561938 0.043803614
0.70165706 0.86331505 0.98719716
0.70314187 0.86539221 0.90609622
0.70667982 0.87076193 0.70459282
0.70816189 0.87162441 0.6474123
0.71002418 0.87531704 0.52434015
0.71207285 0.87856829 0.40487427
0.71372569 0.87931919 0.34524608
0.71579647 0.87949783 0.28550431
0.71678501 0.88095796 0.22999837
0.71664274 0.88395816 0.17495273
0.71842271 0.88429153 0.12007311
0.71896738 0.88596106 0.072502345
0.71994561 0.88735318 0.018604603
0.7172156 0.84052688 1.0121242
0.71852726 0.84285963 0.93071026
0.72338092 0.85045832 0.64971316
0.72482491 0.85169744 0.58617103
0.72699755 0.85148376 0.53136784
0.72898638 0.85477304 0.41278136
0.72921497 0.85720563 0.35880762
0.73119438 0.85726136 0.30396679
0.73210329 0.85870486 0.25094479
0.73354799 0.86230004 0.14112303
0.73549473 0.86237115 0.086863615
0.73787713 0.86204791 0.02851342
0.73251742 0.81725365 1.0535475
0.73409373 0.81893551 0.9777208
0.73402226 0.82213062 0.91692942
0.74059302 0.82913888 0.6009022
0.74255151 0.82928842 0.54478222
0.74436396 0.83300889 0.4225181
0.74649483 0.83560371 0.31370628
0.74738783 0.83700502 0.2619459
0.74856466 0.83805579 0.20935552
0.75050658 0.84054297 0.10779098
0.75252718 0.84035242 0.056661371
0.75363147 0.84152257 0.003697423
0.7548179 0.80566937 0.67542547
0.76291966 0.8126424 0.31850931
0.76383114 0.81368393 0.27330792
0.76765776 0.81905746 0.063892111
0.76874274 0.8202545 0.010928212
0.77061355 0.78445578 0.66299576
0.7746228 0.78555292 0.53258705
0.77577674 0.78986824 0.41651928
0.77802932 0.79262739 0.30117521
0.7818774 0.7957654 0.13507536
0.78364044 0.79604071 0.081793696
0.78444862 0.79709923 0.039058421
0.79171467 0.76911563 0.3911815
0.79420984 0.77111936 0.28408071
0.79814076 0.77369595 0.12675112
0.79901183 0.77515978 0.074351095
0.79987532 0.77614254 0.031609651
0.80769598 0.748227 0.36733049
0.81039953 0.75026965 0.25381103
0.81166345 0.75134069 0.19845836
0.81308705 0.75209999 0.14489803
0.8139838 0.75358784 0.09132722
0.81574112 0.75383389 0.03878041
0.82897633 0.73036361 0.14019169
0.83050364 0.7309193 0.087805219
0.83145374 0.73192555 0.042251691
0.84135354 0.70737946 0.25535884
0.84398991 0.70923406 0.14735156
0.84546483 0.70992577 0.093718998
0.84606487 0.71153182 0.045891583
0.84991574 0.68143874 0.53217041
0.8568446 0.6868813 0.23715337
0.85814065 0.68782133 0.18350653
0.85975647 0.68821234 0.13194858
0.86085659 0.68931091 0.080504425
0.86205751 0.69033718 0.027746659
0.86044359 0.6568622 0.72881776
0.86181891 0.65790427 0.67100799
0.86459571 0.65972269 0.55990475
0.86564589 0.66093862 0.50751233
0.8726328 0.66599625 0.21847917
0.88023776 0.63952714 0.53165662
0.88409489 0.64234972 0.371501
0.88667274 0.64421254 0.26492679
0.88796908 0.64515382 0.21123861
0.88919801 0.646038 0.16050759
0.89047277 0.64694935 0.10799707
0.89190972 0.61628687 0.67100447
0.89464003 0.61813504 0.56057996
0.90009815 0.62195909 0.33727828
0.90144265 0.62304813 0.2793836
0.90276724 0.62395072 0.22569734
0.90417117 0.62471491 0.17256615
0.90541494 0.62569433 0.11955995
0.90645981 0.6266064 0.073281363
0.90737218 0.59582829 0.65280658
0.91037548 0.59763318 0.53581125
0.9147827 0.60046029 0.36062098
0.9158839 0.60154629 0.30939928
0.9172855 0.60236293 0.25530443
0.92122215 0.60493773 0.097851731
0.91967213 0.57315773 0.76390523
0.92121303 0.57400358 0.70545888
0.92255855 0.5750075 0.6492117
0.92406899 0.57555836 0.59738046
0.92685276 0.57752824 0.48310718
0.93107301 0.58004135 0.31916103
0.93221313 0.5813458 0.26259112
0.93483108 0.58322728 0.15456134
0.93636 0.58381456 0.10151026
0.93736303 0.58508313 0.049371414
0.93757623 0.55423391 0.6492731
0.93917501 0.55466259 0.59744221
0.94017565 0.55662203 0.53179342
0.94231087 0.55651653 0.47588301
0.94392693 0.55736154 0.41541016
0.94529653 0.55843741 0.35709524
0.94694126 0.55895901 0.3021892
0.94799751 0.56043547 0.24451838
0.94931656 0.56134397 0.1908626
0.95169193 0.53340816 0.6748485
0.95492345 0.53474808 0.56079006
0.95664895 0.53525066 0.50406718
0.95797873 0.53607827 0.45170876
0.95956689 0.53622288 0.40573978
0.96078086 0.53738886 0.34988266
0.96342587 0.53946286 0.23733263
0.9687252 0.5426172 0.03150088
0.96585137 0.51014459 0.74710321
0.96631742 0.51299143 0.67855406
0.96812057 0.51308709 0.62771183
0.97029054 0.51308358 0.5688501
0.97148556 0.51453954 0.50781751
0.97325963 0.51512474 0.44815183
0.97658163 0.51621336 0.3365666
0.97885215 0.51849294 0.23015654
0.97998959 0.51946682 0.18014374
0.98371059 0.4926807 0.60501802
0.98580301 0.4927085 0.54765338
0.98707181 0.49422306 0.48346275
0.98942584 0.49369097 0.42998591
0.99126548 0.49640229 0.3267982
0.99530023 0.467787 0.77906352
0.99771333 0.46777156 0.7138359
0.9990046 0.46956518 0.64355642
1.0002774 0.47081539 0.5844478
1.0014751 0.4722901 0.52297044
1.0035378 0.47255853 0.46168581
1.0049151 0.47348523 0.40609062
1.0060461 0.47476587 0.35023284
1.0096614 0.47540587 0.23949459
1.0078244 0.44344479 0.9168973
1.0109347 0.44718447 0.75901783
1.0123992 0.44872296 0.68904525
1.0142883 0.44934648 0.62550038
1.0157349 0.4505218 0.56314093
1.0173217 0.4518064 0.49483091
1.0189987 0.45240158 0.43760356
1.0205451 0.45331982 0.37758288
1.0220608 0.45347792 0.33331913
1.0237331 0.4231247 0.88386112
1.0401649 0.40095845 0.87286896
1.0417857 0.40211409 0.80616349
1.0510402 0.37989464 0.99111205
1.0535066 0.37992153 0.92360759
1.0544258 0.38239282 0.85012245
1.0713596 0.35617721 0.90500104
1.0736456 0.35658899 0.83484447
1.0747083 0.35843152 0.76980567
1.082451 0.33434096 1.0325501
1.084373 0.33555925 0.95643747
1.0865335 0.33668378 0.87568545
1.0979356 0.31046796 1.080785
