# .PCD v0.7 - Point Cloud Data file format
VERSION 0.7
FIELDS x y z
SIZE 4 4 4
TYPE F F F
COUNT 1 1 1
WIDTH 1452
HEIGHT 1
VIEWPOINT 0 0 0 1 0 0 0
POINTS 1452
DATA ascii
0.47605553 0.75014353 0.30701116
0.48230684 0.75999397 0.27090448
0.46233925 0.72853011 0.21814287
0.48798642 0.76894355 0.18840145
0.47076726 0.7418105 0.14211024
0.48446801 0.76339942 0.10301492
0.47583023 0.74978846 0.059185259
0.48217949 0.75979328 0.014733411
0.46598184 0.73426986 -0.024671284
0.47019288 0.7409054 -0.066165067
0.46269456 0.72908998 -0.10602633
0.47527862 0.74891925 -0.15241456
0.47159716 0.74311823 -0.18807302
0.47139928 0.74280643 -0.23263991
0.48085985 0.75771391 -0.27972034
0.47367644 0.74639463 -0.31957108
0.46575645 0.73391473 -0.35782692
0.46643779 0.73498833 -0.40475661
0.4657785 0.73394948 -0.45251364
0.4536089 0.71477324 -0.49369851
0.45419979 0.71570438 -0.54915369
0.4395591 0.69263434 -0.58919048
0.4364973 0.68780965 -0.6465199
0.42987758 0.67737871 -0.69279391
0.42584571 0.67102545 -0.74597603
0.42901507 0.67601961 -0.82549596
0.42710909 0.67301625 -0.89700997
0.29365978 0.46273375 -0.73894614
0.15208776 0.22761542 1.2810779
0.17914963 0.26811635 1.2696925
0.20751014 0.31056088 1.2660536
0.24159968 0.36157948 1.2674738
0.27031004 0.40454754 1.2592751
0.30120844 0.45079029 1.258158
0.32930613 0.49284145 1.2462202
0.3632277 0.54360867 1.2492619
0.40049711 0.59938627 1.258109
0.43495592 0.65095752 1.2559727
0.46439582 0.69501746 1.2334453
0.46732953 0.69940805 1.1316057
0.46501014 0.69593686 1.0336041
0.46441334 0.69504368 0.9427802
0.46363649 0.69388103 0.86230522
0.45893624 0.68684661 0.78563297
0.4667345 0.69851756 0.72548753
0.47120261 0.70520455 0.66862148
0.47793952 0.71528703 0.61930466
0.47991863 0.71824896 0.56097823
0.47992128 0.71825296 0.50377399
0.47801292 0.71539688 0.44789615
0.49923843 0.74716312 0.41546145
0.49363464 0.73877645 0.36350268
0.49208936 0.73646379 0.31475255
0.50455976 0.75512701 0.27875188
0.49965361 0.74778444 0.23677981
0.49948686 0.74753493 0.19520345
0.50374198 0.75390315 0.15580155
0.47967824 0.71788925 0.10697575
0.49855623 0.74614215 0.06865558
0.49432769 0.73981363 0.020393608
0.48878545 0.73151916 -0.019197099
0.49329066 0.73826164 -0.061107002
0.48011857 0.71854824 -0.1003724
0.49333471 0.73832756 -0.14660592
0.47810784 0.71553898 -0.18389362
0.50574505 0.75690097 -0.2343564
0.49958438 0.74768084 -0.27384081
0.4870443 0.72891331 -0.31044039
0.48399684 0.72435242 -0.35307309
0.49013886 0.73354465 -0.40320733
0.48457596 0.72521919 -0.44681463
0.47210798 0.70655948 -0.48814726
0.46420223 0.69472772 -0.53100818
0.46419841 0.69472206 -0.58504796
0.45839405 0.68603516 -0.63311189
0.44646505 0.66818213 -0.67579699
0.44149268 0.66074049 -0.73137283
0.43902823 0.65705216 -0.7936855
0.44131875 0.6604802 -0.87258446
0.43398175 0.64949954 -0.93712866
0.15263665 0.21717997 1.2623925
0.18541667 0.26382121 1.2696925
0.21639632 0.30790082 1.2756448
0.24710643 0.35159689 1.2797726
0.27705812 0.39421383 1.2717838
0.30700374 0.43682215 1.2616795
0.34576547 0.4919745 1.2642814
0.37827662 0.53823316 1.2471215
0.42370662 0.6028735 1.2604032
0.46505505 0.66170639 1.2513866
0.47602579 0.67731619 1.165994
0.47672686 0.67831367 1.078064
0.4848083 0.68981242 1.0026064
0.47895202 0.68147981 0.90503603
0.47414696 0.67464286 0.83002508
0.46679077 0.66417605 0.75701821
0.48140538 0.68497056 0.71348733
0.49102271 0.69865465 0.66119468
0.48985741 0.69699657 0.59651947
0.49602389 0.70577061 0.54428679
0.50514895 0.71875423 0.49831408
0.5131827 0.73018509 0.45108005
0.50853992 0.72357911 0.3983973
0.5240677 0.74567288 0.36017358
0.52232188 0.7431888 0.3105644
0.52459711 0.74642622 0.26485047
0.51915139 0.73867768 0.22301815
0.51872635 0.73807293 0.18047515
0.51139486 0.72764134 0.13788904
0.51436657 0.73186964 0.098963849
0.51635921 0.73470479 0.059850264
0.50587177 0.71978271 0.020164467
0.50588423 0.71980041 -0.019197099
0.49918348 0.71026623 -0.056900721
0.50865239 0.72373915 -0.09784881
0.51113337 0.72726923 -0.14079101
0.50137037 0.71337783 -0.1783811
0.49600846 0.70574862 -0.21907642
0.50605959 0.72004998 -0.2680144
0.51432472 0.73181009 -0.32003754
0.49981153 0.71115988 -0.35782692
0.5005427 0.71220016 -0.40475661
0.49389163 0.70273668 -0.45070192
0.48677576 0.69261181 -0.49369851
0.48258403 0.68664765 -0.54371655
0.47636899 0.67780447 -0.59502411
0.47291696 0.67289281 -0.65273643
0.45869216 0.65265292 -0.69802988
0.46022961 0.65484053 -0.75456786
0.4513897 0.64226258 -0.79884052
0.46062782 0.65540713 -0.87997925
0.44548166 0.6338563 -0.92944729
0.15350352 0.20782715 1.2842681
0.18663947 0.25268966 1.2717758
0.22359033 0.30271712 1.2756448
0.2583642 0.34979716 1.2674738
0.28906676 0.39136511 1.2592751
0.31975803 0.43291777 1.2489744
0.35215658 0.4767819 1.2462202
0.38843194 0.52589482 1.2492619
0.42533377 0.57585591 1.2494323
0.4682802 0.63400072 1.2644591
0.49328706 0.66785729 1.2251672
0.49607715 0.67163479 1.136184
0.49898314 0.67556918 1.044137
0.49088103 0.66459978 0.93799943
0.48834068 0.66116047 0.86051744
0.48462993 0.65613645 0.79637855
0.49200574 0.6661225 0.73912865
0.50193352 0.6795637 0.68873501
0.50186896 0.67947626 0.62365019
0.50881344 0.6888783 0.57223731
0.51435375 0.69637936 0.52018845
0.52335572 0.70856702 0.47331968
0.52015758 0.7042371 0.41759577
0.53669316 0.72662443 0.37997025
0.52437574 0.709948 0.32342526
0.53280735 0.72136348 0.28169319
0.51045066 0.69109493 0.23222391
0.52178049 0.70643431 0.19671214
0.53818274 0.72864121 0.16075245
0.52439338 0.7099719 0.11424297
0.51515609 0.6974656 0.071104899
0.51666105 0.69950312 0.025627499
0.4990035 0.67559671 -0.012827671
0.51588678 0.69845486 -0.054051872
0.5314675 0.71954954 -0.098948233
0.52225775 0.70708048 -0.13922668
0.51198769 0.69317597 -0.1782573
0.51868552 0.7022441 -0.21867454
0.51804984 0.70138341 -0.2603569
0.51642287 0.69918066 -0.30141976
0.5182631 0.70167214 -0.35022792
0.50869358 0.68871605 -0.38794461
0.51820052 0.70158744 -0.44681463
0.50486737 0.68353581 -0.48814726
0.50037903 0.677459 -0.53913832
0.49450886 0.6695115 -0.58958912
0.48181105 0.65232003 -0.63500923
0.47664532 0.6453262 -0.69279391
0.47361878 0.64122856 -0.74337822
0.46530035 0.62996632 -0.78659904
0.47532463 0.64353812 -0.86736679
0.46712053 0.63243067 -0.93286115
0.15458454 0.19928919 1.275299
0.18346123 0.2365168 1.2650698
0.21620582 0.27873087 1.2719922
0.24766132 0.31928307 1.2671314
0.2771315 0.35727578 1.2507806
0.3099587 0.39959633 1.2516983
0.34152031 0.44028533 1.2406098
0.38537315 0.49682009 1.2508626
0.42526075 0.54824287 1.2389443
0.47564596 0.61319906 1.2602173
0.51076937 0.65847993 1.2472044
0.50719434 0.653871 1.1416246
0.51083469 0.65856409 1.0619987
0.50689787 0.65348876 0.97693753
0.50399953 0.64975232 0.88764095
0.49406543 0.63694531 0.80610174
0.49907121 0.64339876 0.75436461
0.50941676 0.65673614 0.70518947
0.51985019 0.67018682 0.65230775
0.52716726 0.67961997 0.60225528
0.52353609 0.67493862 0.53895068
0.52778381 0.6804148 0.48844647
0.54153931 0.69814831 0.44656926
0.54285467 0.69984406 0.39550868
0.55715513 0.71828008 0.36613101
0.54907405 0.70786196 0.3161473
0.53959423 0.69564068 0.26706189
0.5343461 0.68887484 0.22344051
0.53981113 0.69592035 0.18519948
0.5321542 0.68604904 0.14334802
0.54786265 0.70630026 0.10481645
0.53804433 0.69364262 0.061385699
0.55151004 0.71100241 0.017670324
0.53301471 0.68715841 -0.024671284
0.54394323 0.70124739 -0.066916943
0.54184479 0.69854212 -0.10267982
0.53849006 0.69421721 -0.14209491
0.53981113 0.69592035 -0.18519948
0.52826208 0.68103135 -0.22189063
0.51544553 0.6645084 -0.25912246
0.53562814 0.69052762 -0.31807873
0.52071828 0.67130595 -0.3529883
0.53271937 0.68677765 -0.40761074
0.53187406 0.6856879 -0.45534831
0.51886183 0.66891265 -0.49369851
0.51439387 0.66315258 -0.54371655
0.5051437 0.65122736 -0.58380884
0.49831343 0.64242178 -0.63235909
0.49448532 0.63748664 -0.68752825
0.48710486 0.62797183 -0.74597603
0.47843701 0.61679727 -0.78915089
0.48860732 0.62990874 -0.86998725
0.47276288 0.60948223 -0.91925335
0.17415263 0.21391308 1.2908571
0.20669472 0.25388479 1.2890772
0.24117501 0.2962372 1.2948275
0.27132159 0.3332665 1.2797726
0.31400794 0.38569847 1.287259
0.3465381 0.42565554 1.2661471
0.38747358 0.47593695 1.2583116
0.43380794 0.53284979 1.2654966
0.49189177 0.60419464 1.2934803
0.52792263 0.64845169 1.2693337
0.53241742 0.65397263 1.1795557
0.52620852 0.64634615 1.0619987
0.52206808 0.64126045 0.96391386
0.52961534 0.65053082 0.89956504
0.51339895 0.63061202 0.81317282
0.52133995 0.64036608 0.75666106
0.52765065 0.64811754 0.69973457
0.5331496 0.654872 0.64069819
0.54152906 0.66516453 0.58813471
0.54224098 0.66603899 0.53147608
0.55219358 0.67826384 0.48480961
0.54747128 0.67246342 0.43470472
0.55837423 0.68585557 0.3983973
0.56955194 0.69958526 0.35649833
0.56155866 0.689767 0.30409431
0.53356248 0.65537912 0.24533518
0.56479579 0.69374323 0.21476974
0.55812865 0.68555391 0.16884376
0.56251377 0.69094026 0.12719987
0.56566018 0.69480497 0.085291713
0.53603184 0.65841228 0.040781409
0.56821615 0.69794452 -0.0019634939
0.54867303 0.67393953 -0.040785432
0.53445226 0.65647203 -0.076845624
0.57528037 0.70662153 -0.12703742
0.55260712 0.67877179 -0.1612273
0.57167512 0.7021932 -0.21216087
0.55261886 0.67878622 -0.24892099
0.55661398 0.68369347 -0.29604751
0.55358815 0.67997682 -0.33877963
0.54268867 0.66658884 -0.38045809
0.54271555 0.66662192 -0.42740497
0.52946353 0.65034431 -0.46724793
0.53293359 0.65460664 -0.5172736
0.52303284 0.6424455 -0.56008971
0.52189767 0.64105111 -0.61447239
0.51871514 0.637142 -0.66976464
0.49831352 0.61208254 -0.70755821
0.49587888 0.609092 -0.77013701
0.50613284 0.62168711 -0.85219401
0.49423876 0.60707748 -0.92265111
0.17102218 0.20024124 1.2730495
0.20942155 0.24520113 1.2696925
0.24893411 0.29146439 1.2735699
0.28725135 0.33632812 1.2754881
0.32101375 0.37585881 1.2669966
0.35388711 0.4143486 1.2569722
0.39573202 0.46334264 1.2493237
0.44004354 0.51522481 1.2479203
0.48923528 0.57282096 1.2506498
0.52876264 0.61910146 1.2359302
0.54124439 0.63371575 1.1497211
0.54503793 0.63815743 1.0574445
0.53685606 0.62857771 0.95093405
0.53780913 0.62969357 0.88223994
0.53145486 0.62225372 0.79369771
0.54424649 0.63723075 0.74305636
0.54653096 0.63990551 0.6769231
0.55649412 0.65157092 0.62399495
0.55861664 0.65405607 0.56661993
0.55777436 0.65306985 0.51223773
0.56736207 0.66429561 0.4657377
0.56859678 0.66574132 0.41759577
0.57390726 0.6719591 0.37510189
0.57860607 0.67746067 0.32979101
0.58121473 0.68051499 0.28755665
0.57679439 0.67533946 0.24005169
0.57078475 0.66830307 0.19384474
0.56966007 0.66698623 0.15072106
0.57362258 0.67162573 0.10943496
0.55689788 0.65204358 0.065604217
0.5778107 0.67652941 0.023297483
0.56492275 0.66143954 -0.016124872
0.57041019 0.66786456 -0.054673158
0.56159461 0.65754282 -0.095649958
0.57730705 0.67593968 -0.14079101
0.56602597 0.66273123 -0.18028295
0.57862478 0.6774826 -0.22937009
0.57100219 0.66855764 -0.27090076
0.561459 0.65738404 -0.31465852
0.57575279 0.67411989 -0.36833563
0.5577417 0.65303159 -0.40616983
0.55686963 0.65201056 -0.45351782
0.55540609 0.65029699 -0.49873623
0.54037231 0.63269472 -0.53646541
0.54585916 0.63911897 -0.5953694
0.5382753 0.63023943 -0.64463788
0.52249819 0.61176676 -0.69017178
0.51981306 0.60862285 -0.75456786
0.51372814 0.60149837 -0.82090384
0.52007097 0.60892487 -0.90710348
0.17383891 0.1940871 1.273621
0.21073851 0.23528464 1.2610434
0.24919836 0.27822417 1.2660536
0.28034785 0.31300184 1.2513332
0.31910878 0.35627753 1.2624326
0.35621867 0.39770988 1.2616795
0.39546284 0.44152507 1.2462202
0.44238636 0.4939141 1.266982
0.48095587 0.53697604 1.258109
0.52586669 0.58711791 1.2644591
0.55928677 0.62443072 1.2197068
0.55409843 0.61863804 1.1021171
0.55646151 0.62127632 1.023116
0.55020934 0.6142959 0.92601848
0.54935342 0.61334038 0.8452363
0.5480026 0.6118322 0.77605057
0.5605002 0.62578547 0.72548753
0.56062645 0.62592638 0.66243052
0.56444699 0.63019198 0.60486168
0.57755142 0.64482272 0.55815589
0.57743007 0.64468724 0.50095195
0.59246904 0.66147792 0.45981237
0.59437531 0.66360623 0.40834394
0.59333217 0.66244161 0.36156335
0.57208872 0.63872373 0.30470726
0.59954625 0.66937947 0.27581766
0.58117265 0.6488657 0.22629994
0.60067195 0.6706363 0.18931504
0.57300168 0.63974309 0.13891676
0.57671779 0.64389199 0.098486796
0.58582121 0.65405571 0.058520257
0.56702936 0.63307512 0.013914889
0.58017826 0.64775556 -0.026568506
0.58531094 0.65348607 -0.069044001
0.5957467 0.66513735 -0.11259732
0.57206506 0.63869733 -0.14733407
0.59288889 0.66194665 -0.19598305
0.57966369 0.64718109 -0.23483318
0.57147914 0.63804317 -0.27624723
0.56775457 0.63388479 -0.32240483
0.58370966 0.65169829 -0.37023282
0.57810175 0.64543718 -0.41329065
0.57108569 0.63760388 -0.45631394
0.5626415 0.62817621 -0.4992286
0.55316496 0.61759579 -0.54100275
0.54731542 0.61106497 -0.58919048
0.53966844 0.60252726 -0.63766676
0.52870572 0.59028763 -0.68886197
0.52267385 0.58355319 -0.74342293
0.53238618 0.59439677 -0.82810473
0.52544177 0.58664352 -0.89211005
0.16693582 0.17776859 1.2769223
0.20172636 0.21481676 1.2764248
0.23577307 0.25107282 1.2742738
0.26888928 0.28633797 1.2602021
0.30619875 0.32606855 1.2631396
0.34057298 0.3626734 1.2549813
0.37587264 0.4002637 1.2442302
0.42270756 0.45013782 1.2453089
0.4694066 0.49986726 1.243459
0.52840865 0.56269807 1.2627569
0.56561106 0.60231459 1.2278849
0.567527 0.60435492 1.128126
0.57063854 0.60766834 1.0363449
0.5565443 0.59265947 0.92299145
0.55985212 0.59618193 0.85060722
0.55208862 0.58791465 0.77714509
0.56505221 0.6017195 0.72708297
0.57606792 0.61344999 0.6769231
0.57965177 0.61726648 0.62087512
0.58625549 0.62429869 0.57223731
0.58677137 0.62484807 0.51503807
0.59095097 0.62929887 0.46385327
0.59932625 0.63821769 0.41759577
0.60575861 0.64506739 0.37221575
0.61061394 0.65023786 0.32686594
0.6073705 0.64678389 0.27869645
0.61564928 0.65559989 0.23677981
0.58909947 0.6273272 0.18390864
0.600447 0.63941109 0.15072106
0.61116672 0.65082645 0.11357907
0.60049212 0.63945913 0.070008591
0.60903817 0.64855975 0.023297483
0.59545368 0.63409376 -0.016124872
0.60123771 0.64025313 -0.054673158
0.58534986 0.62333429 -0.091760211
0.58852625 0.62671679 -0.13327774
0.60359091 0.64275903 -0.18038538
0.57723129 0.61468887 -0.21415336
0.56972414 0.60669458 -0.25344843
0.59434652 0.63291472 -0.3042551
0.59079087 0.62912834 -0.3465021
0.59235275 0.6307916 -0.39207166
0.58488619 0.62284058 -0.43769595
0.58170891 0.61945707 -0.48814726
0.57077199 0.60781044 -0.53374696
0.55860174 0.59485048 -0.57802856
0.55514336 0.59116763 -0.63500923
0.54401034 0.57931215 -0.68625808
0.53904927 0.57402915 -0.73913223
0.53855747 0.57350546 -0.81113952
0.54243457 0.57763416 -0.88780826
0.18138261 0.18425438 1.2638239
0.21745312 0.22089599 1.2727997
0.25138453 0.25536463 1.2600375
0.29145935 0.29607391 1.2739669
0.32197723 0.32707497 1.2482998
0.36051726 0.36622518 1.2483615
0.39659089 0.40286997 1.2369363
0.43794617 0.44488001 1.2419279
0.48444077 0.49211073 1.2522157
0.52485055 0.53316033 1.2420838
0.57312095 0.58219498 1.2460663
0.5848335 0.59409297 1.1741478
0.58162749 0.59083623 1.078064
0.58316255 0.59239554 0.99949437
0.5759815 0.58510083 0.91586155
0.56974488 0.57876545 0.828264
0.56950504 0.57852179 0.75701821
0.58037424 0.58956307 0.70970494
0.58498299 0.59424478 0.65442193
0.5992133 0.60870045 0.61067766
0.60138959 0.61091119 0.55273688
0.60108638 0.61060321 0.49594241
0.61674148 0.62650615 0.45521423
0.61859834 0.62839234 0.40417716
0.63121063 0.64120436 0.36239496
0.62846833 0.63841867 0.3161473
0.59747809 0.60693777 0.25835335
0.60481513 0.61439097 0.22095785
0.61828685 0.62807596 0.18232398
0.62360495 0.63347828 0.14079101
0.61360407 0.62331903 0.096764654
0.62311375 0.63297927 0.056271128
0.61025053 0.61991245 0.014242298
0.62407178 0.63395244 -0.027179277
0.62943196 0.6393975 -0.070613183
0.61945742 0.62926507 -0.11134623
0.6219064 0.63175285 -0.15530869
0.61611247 0.62586719 -0.19671214
0.62249827 0.63235408 -0.24294905
0.61490071 0.62463623 -0.27951154
0.59259355 0.60197586 -0.31057674
0.61460531 0.62433612 -0.3673754
0.60153234 0.61105621 -0.40898556
0.59325361 0.60264641 -0.45438689
0.59570944 0.6051411 -0.50895429
0.57789296 0.58704251 -0.5491091
0.5756771 0.5847916 -0.60581732
0.56549841 0.57445174 -0.65712762
0.56056875 0.569444 -0.7116152
0.55099875 0.55972254 -0.77013701
0.55405968 0.56283194 -0.83590555
0.55549872 0.56429374 -0.91492832
0.18910754 0.18325795 1.2730495
0.23454225 0.22728725 1.2686332
0.27531719 0.26680091 1.2839851
0.30931774 0.29974973 1.2688863
0.34643176 0.33571574 1.2608647
0.38356867 0.37170392 1.2507243
0.41967243 0.40669087 1.2391036
0.46325052 0.44892097 1.2425252
0.51117849 0.49536642 1.2517623
0.55549544 0.53831255 1.2500178
0.59911454 0.58058238 1.2224507
0.59380716 0.57543916 1.1048361
0.59680259 0.57834196 1.0126437
0.5922212 0.57390225 0.92601848
0.59229189 0.57397074 0.8578158
0.58434147 0.56626624 0.7840839
0.59815866 0.57965606 0.73369282
0.59873027 0.58020997 0.67065525
0.60373235 0.58505738 0.61222142
0.61036712 0.59148693 0.5639106
0.62170994 0.6024788 0.52018845
0.62626487 0.60689288 0.46858647
0.62872511 0.60927701 0.41759577
0.62710875 0.60771066 0.37406194
0.63901651 0.61925006 0.332697
0.62900341 0.60954666 0.28143841
0.63085711 0.61134309 0.23744243
0.63114446 0.61162156 0.19384474
0.65113342 0.63099217 0.15580155
0.64096689 0.62114012 0.11552659
0.63682032 0.61712182 0.075634137
0.61713833 0.59804869 0.032833531
0.61039829 0.59151709 -0.0046285903
0.63832796 0.61858284 -0.044639874
0.6361233 0.61644638 -0.08626131
0.61110115 0.59219825 -0.12432456
0.62034041 0.6011517 -0.16791192
0.62098283 0.60177428 -0.21058975
0.60612422 0.58737522 -0.24900559
0.62421083 0.60490239 -0.30141976
0.62806791 0.60864013 -0.34451115
0.61638111 0.59731483 -0.38326147
0.62305892 0.60378611 -0.43375099
0.60223329 0.58360469 -0.46724793
0.6037361 0.58506095 -0.52278715
0.59093791 0.57265866 -0.56820285
0.57687086 0.55902678 -0.61221653
0.57316732 0.55543774 -0.66675943
0.57239068 0.55468518 -0.72876143
0.56872702 0.55113482 -0.79195958
0.57248771 0.55477923 -0.86998725
0.3688722 0.35746202 -0.72681099
0.20254889 0.18723427 1.2704004
0.23800121 0.22000605 1.258949
0.28237817 0.26102769 1.2627459
0.32846335 0.30362839 1.2631396
0.36834285 0.34049264 1.2533509
0.40917468 0.37823719 1.2406098
0.45344386 0.41915917 1.2453089
0.50455934 0.46640983 1.2654966
0.54340184 0.50231546 1.2469537
0.58992231 0.5453186 1.242988
0.60651374 0.56065553 1.1795789
0.60805809 0.56208313 1.0914339
0.60560405 0.55981463 1.0049136
0.60409284 0.55841768 0.92781544
0.59850782 0.55325496 0.85328621
0.59563798 0.55060208 0.78673548
0.60613883 0.56030893 0.72708297
0.61795545 0.57123214 0.6769231
0.614393 0.56793904 0.61771071
0.62796563 0.58048546 0.57410437
0.62694842 0.5795452 0.52063715
0.62523216 0.57795864 0.46470267
0.63986081 0.59148127 0.4261784
0.64709288 0.59816647 0.38087752
0.64575362 0.59692854 0.33208218
0.6564793 0.60684317 0.29047596
0.66575712 0.61541957 0.24824639
0.63057953 0.58290178 0.19234076
0.66543972 0.61512619 0.15877582
0.66242033 0.61233509 0.1197708
0.63636792 0.58825243 0.076778427
0.62354976 0.57640344 0.038010191
0.6682319 0.61770719 -0.0019853103
0.63805646 0.58981335 -0.043636732
0.62874055 0.58120179 -0.080559559
0.64728636 0.5983454 -0.12289491
0.64955932 0.6004464 -0.16594219
0.64313257 0.59450567 -0.2072282
0.62803441 0.58054906 -0.24624287
0.63277042 0.58492696 -0.29250991
0.61039585 0.56424415 -0.31803367
0.64648116 0.597601 -0.38279912
0.63326973 0.58538854 -0.42176974
0.62448621 0.57726908 -0.46655911
0.61482108 0.56833476 -0.50930411
0.6022529 0.55671686 -0.55448878
0.59818518 0.55295664 -0.61385131
0.59495234 0.5499683 -0.66788214
0.58333826 0.53923237 -0.71682978
0.57303995 0.52971268 -0.7752611
0.57753485 0.53386772 -0.85266566
0.5380953 0.49741018 -0.87329066
0.19753022 0.17414632 1.2730495
0.23744158 0.20933291 1.281484
0.28229529 0.24887678 1.2756448
0.3268595 0.28816542 1.256592
0.3731921 0.32901308 1.2549813
0.41797227 0.36849213 1.2406098
0.46623954 0.41104546 1.2432868
0.51130176 0.45077315 1.2457023
0.55815154 0.49207678 1.2445189
0.6179226 0.54477209 1.2655019
0.62243879 0.54875362 1.1768769
0.61926144 0.54595238 1.0807642
0.62108195 0.54755741 1.0022166
0.61859828 0.54536772 0.92601848
0.61137629 0.53900069 0.85328621
0.60844475 0.53641617 0.78673548
0.62299097 0.54924041 0.73642194
0.63124204 0.55651474 0.6769231
0.63668579 0.56131405 0.61810815
0.64380294 0.56758863 0.56943917
0.63654095 0.56118637 0.5098877
0.65300137 0.5756982 0.47144544
0.64791471 0.57121366 0.41895288
0.66882998 0.58965296 0.38193691
0.66747779 0.5884608 0.332697
0.67130172 0.59183204 0.28755665
0.65895498 0.58094698 0.23744243
0.67390525 0.59412742 0.19815239
0.66534889 0.58658391 0.15241456
0.66951501 0.59025693 0.11552659
0.64276189 0.56667084 0.073084675
0.63712955 0.56170529 0.032451745
0.64508593 0.56871974 -0.0046830443
0.63668412 0.56131256 -0.045404065
0.64931309 0.57244653 -0.087163612
0.6455341 0.56911486 -0.127648
0.66227251 0.58387178 -0.1746106
0.64811915 0.57139385 -0.21342598
0.66125441 0.5829742 -0.26321796
0.63003421 0.55544984 -0.29433373
0.65519458 0.57763177 -0.34736377
0.64972669 0.57281113 -0.39018291
0.64304006 0.56691605 -0.43209451
0.63444978 0.55934268 -0.47487813
0.63062602 0.55597162 -0.52278715
0.61586344 0.54295665 -0.57088554
0.61449617 0.54175127 -0.62433964
0.60280114 0.53144068 -0.67579699
0.58879119 0.51908928 -0.72716659
0.58553886 0.51622194 -0.78915089
0.59155613 0.52152687 -0.87776476
0.41189054 0.36313036 -0.75058812
0.20634989 0.17345521 1.2819645
0.24683835 0.2074893 1.2696925
0.29024643 0.24397762 1.2852361
0.33536831 0.28190652 1.2769326
0.37874323 0.31836694 1.2560637
0.42031321 0.35331017 1.2442302
0.47293326 0.39754194 1.2563019
0.51189727 0.43029463 1.241333
0.56334251 0.47353888 1.2493622
0.61183012 0.51429695 1.2456174
0.63465643 0.53348446 1.1895821
0.64589214 0.54292911 1.1046046
0.63632375 0.534886 0.99949437
0.63821 0.53647155 0.91787046
0.62581933 0.52605611 0.82293087
0.62330925 0.52394617 0.75436461
0.6497044 0.54613364 0.71534765
0.65532875 0.55086142 0.65840405
0.66466999 0.5587135 0.60799104
0.66033828 0.55507231 0.54428679
0.66500229 0.5589928 0.49527672
0.66728842 0.56091452 0.4477734
0.66803122 0.56153893 0.40001038
0.68075174 0.57223159 0.36156335
0.6929782 0.58250904 0.31947517
0.68902451 0.57918561 0.27090448
0.68313771 0.57423729 0.22354956
0.69056123 0.58047736 0.18047515
0.68114376 0.57256114 0.13497008
0.67001086 0.56320298 0.091037959
0.6725418 0.56533045 0.049889654
0.65062934 0.54691106 0.008352139
0.66558987 0.55948675 -0.029406512
0.66391742 0.55808091 -0.068259411
0.66833264 0.56179225 -0.11009515
0.67859954 0.57042253 -0.15530869
0.67227745 0.56510824 -0.19671214
0.68662846 0.57717156 -0.24558981
0.65498525 0.55057263 -0.27904135
0.67453456 0.56700557 -0.32727328
0.66266191 0.55702549 -0.36633563
0.66327733 0.55754286 -0.41329065
0.64733481 0.54414171 -0.45438689
0.65001446 0.54639423 -0.50895429
0.63194233 0.53120303 -0.54641759
0.62498969 0.52535874 -0.59454697
0.62032843 0.52144051 -0.65183771
0.60888338 0.51181996 -0.7006436
0.59957284 0.50399363 -0.75802565
0.58879656 0.49493521 -0.81409931
0.60384905 0.50758821 -0.91750777
0.21201253 0.16985406 1.2712986
0.25165823 0.20161626 1.2696925
0.29370561 0.23530257 1.2756448
0.33290279 0.26670542 1.2702929
0.37690195 0.3019554 1.2499472
0.42534894 0.34076875 1.2460157
0.47554427 0.38098279 1.2493237
0.52346444 0.41937408 1.2516031
0.57507914 0.46072525 1.2604032
0.63737392 0.51063281 1.281955
0.64844072 0.51949894 1.2005188
0.65567201 0.52529234 1.1073673
0.65612727 0.52565712 1.0176353
0.65354645 0.52358943 0.92802542
0.65238655 0.5226602 0.84694636
0.63926315 0.51214635 0.76383817
0.65339124 0.5234651 0.71348733
0.65410286 0.52403522 0.64895034
0.66816509 0.53530121 0.60787171
0.67558503 0.5412457 0.55815589
0.67416352 0.54010683 0.50377399
0.68532771 0.54905105 0.45713112
0.69316393 0.55532902 0.41416588
0.69970602 0.56057024 0.37023297
0.69697046 0.55837864 0.32395294
0.68570048 0.54934967 0.27281824
0.67226732 0.53858769 0.2237855
0.69499278 0.55679417 0.18725726
0.6930058 0.55520236 0.14660592
0.72029257 0.57706314 0.11435339
0.69238156 0.55470222 0.070804141
0.70983613 0.56868601 0.028790161
0.68669868 0.55014938 -0.013438513
0.69324124 0.55539095 -0.055294443
0.70588648 0.56552172 -0.10004766
0.70144802 0.56196582 -0.14235537
0.69546854 0.55717534 -0.18433425
0.68776548 0.55100405 -0.22687694
0.69362164 0.55569571 -0.27384531
0.68936282 0.55228376 -0.32149893
0.67745805 0.54274625 -0.36066195
0.67125946 0.53778023 -0.40336478
0.66342759 0.5315057 -0.4460555
0.65814435 0.52727306 -0.4992286
0.65359515 0.52362841 -0.54646742
0.64655554 0.51798868 -0.59502411
0.63127178 0.50574404 -0.63766676
0.62611568 0.5016132 -0.69279391
0.62214005 0.49842814 -0.74337822
0.61812234 0.49520937 -0.80597299
0.62589836 0.50143915 -0.89264214
0.48236325 0.38644585 -0.82394499
0.19718729 0.15048859 1.2761153
0.24310465 0.1855316 1.2738045
0.29032493 0.22156897 1.268471
0.33110058 0.25268796 1.2630998
0.38021624 0.29017186 1.2624326
0.42155004 0.32171682 1.2306072
0.46777722 0.35699627 1.2371897
0.51972872 0.39664441 1.2492619
0.5730561 0.43734261 1.258109
0.63077223 0.48139012 1.2729454
0.66002667 0.50371647 1.2251672
0.66375989 0.50656557 1.136184
0.6676482 0.50953299 1.044137
0.66731632 0.50927967 0.9530074
0.65564942 0.50037581 0.8578158
0.65091413 0.49676198 0.77874148
0.66783267 0.50967377 0.72548753
0.68046874 0.51931733 0.67481238
0.68546867 0.52313316 0.61649364
0.68814915 0.52517879 0.55815589
0.68800455 0.52506846 0.50095195
0.70592338 0.53874367 0.45981237
0.70819467 0.5404771 0.40834394
0.7069518 0.53952855 0.36156335
0.71909308 0.54879451 0.32144943
0.71435589 0.54517919 0.27581766
0.69305032 0.52891928 0.22344051
0.70061523 0.53469265 0.18232398
0.72158045 0.5506928 0.14986384
0.68662876 0.52401847 0.10414218
0.73714405 0.56257051 0.070944093
0.69924748 0.53364879 0.025922069
0.71532702 0.54592031 -0.016680902
0.69012082 0.52668357 -0.056900721
0.71874923 0.54853207 -0.10301492
0.71411997 0.54499912 -0.14528807
0.67680055 0.51651782 -0.17902617
0.69996059 0.53419304 -0.22976734
0.69062829 0.52707082 -0.27079311
0.70356882 0.53694677 -0.31666875
0.69191873 0.52805567 -0.35497287
0.67860788 0.51789719 -0.39354014
0.67459846 0.51483727 -0.44884238
0.67168266 0.51261199 -0.49645883
0.66575027 0.50808454 -0.54646742
0.65212309 0.49768463 -0.58919048
0.64135391 0.48946583 -0.64030337
0.62815911 0.47939587 -0.69144464
0.62083071 0.47380301 -0.74597585
0.62117726 0.47406751 -0.81627131
0.63658279 0.48582464 -0.90710348
0.21079476 0.15315136 1.273621
0.25553873 0.18565975 1.2610434
0.30553383 0.22198331 1.2648212
0.34987706 0.25420058 1.247144
0.40028271 0.29082242 1.2560637
0.43440136 0.31561106 1.2386223
0.48587009 0.35300529 1.2313478
0.53333551 0.38749093 1.2237254
0.59127432 0.42958593 1.240746
0.65973276 0.47932392 1.2708664
0.67074996 0.48732838 1.1895821
0.67676121 0.49169582 1.1101034
0.67986965 0.49395421 1.0308669
0.67793745 0.4925504 0.94095427
0.66951758 0.486433 0.85511935
0.66450071 0.48278803 0.77605057
0.68577814 0.49824697 0.73202342
0.6925149 0.50314152 0.67481238
0.68777382 0.49969694 0.61625493
0.69586837 0.50557798 0.56661993
0.70313692 0.51085889 0.51451111
0.71514654 0.51958436 0.46754417
0.7101298 0.51593953 0.41282207
0.71785808 0.52155441 0.36641613
0.72335601 0.52554893 0.32102087
0.72700185 0.52819777 0.27581766
0.73666668 0.53521967 0.2333712
0.72094041 0.52379388 0.18434981
0.70316988 0.51088279 0.13766234
0.72370005 0.52579886 0.098963849
0.72665852 0.52794832 0.056903385
0.69566137 0.5054276 0.014078593
0.73586208 0.53463513 -0.027790047
0.72587079 0.527376 -0.070613183
0.69831473 0.50735539 -0.10884407
0.70922339 0.51528096 -0.15358305
0.71840513 0.52195185 -0.19889782
0.68666279 0.49888971 -0.23238605
0.70761794 0.5141145 -0.28524229
0.7178207 0.52152729 -0.33947414
0.71224052 0.51747298 -0.38279912
0.7060743 0.51299304 -0.42331696
0.70303273 0.5107832 -0.47428414
0.68562669 0.49813697 -0.51173782
0.67840779 0.49289209 -0.56295675
0.67038846 0.48706573 -0.61175668
0.65841222 0.47836447 -0.66344613
0.6486811 0.4712944 -0.7235291
0.63913053 0.4643555 -0.77973467
0.63852906 0.46391854 -0.8500942
0.61522478 0.44698697 -0.9022755
0.22691752 0.15683235 1.2908571
0.26931924 0.18613799 1.2890772
0.30959088 0.21397142 1.2756448
0.3535268 0.24433739 1.2797726
0.39637765 0.27395347 1.2717838
0.43601388 0.30134773 1.2524701
0.49114153 0.33944881 1.2552508
0.54841298 0.37903154 1.2537856
0.61033463 0.42182821 1.2690361
0.65858662 0.45517722 1.2566533
0.69755679 0.48211119 1.2251871
0.69501585 0.48035499 1.1288543
0.69372398 0.47946215 1.0413756
0.69340694 0.47924304 0.96328235
0.69974113 0.48362085 0.90226007
0.68649602 0.47446659 0.82006383
0.68740714 0.47509629 0.76069373
0.70205331 0.48521888 0.7097773
0.70779091 0.48918438 0.65278685
0.71078849 0.49125618 0.59661299
0.72504532 0.50110966 0.55208546
0.72404063 0.50041527 0.4954288
0.72805268 0.50318813 0.44366771
0.74472523 0.51471126 0.4006952
0.74307346 0.51356971 0.3535364
0.73948413 0.51108891 0.30732936
0.71823734 0.49640438 0.25654981
0.75870502 0.52437329 0.22781424
0.76632392 0.52963907 0.1863602
0.72387022 0.50029749 0.13347042
0.76859295 0.53120726 0.10336224
0.75515395 0.52191901 0.061180267
0.72378409 0.500238 0.017277649
0.7483018 0.51718318 -0.025805596
0.73828077 0.51025724 -0.067668818
0.7348578 0.50789148 -0.10968241
0.7215749 0.49871111 -0.15072106
0.72300237 0.49969769 -0.19382939
0.73061186 0.5049569 -0.24005169
0.74378383 0.51406068 -0.2915943
0.72312331 0.49978128 -0.33303356
0.71871448 0.49673414 -0.3731015
0.72878808 0.50369644 -0.41899627
0.70415223 0.48666954 -0.45631394
0.70081949 0.48436615 -0.50432277
0.69434911 0.47989422 -0.55468982
0.68495673 0.47340274 -0.60632014
0.67305738 0.46517858 -0.65810537
0.66477358 0.45945331 -0.71650451
0.6502533 0.44941771 -0.76498002
0.65535963 0.4529469 -0.84317428
0.65926737 0.45564771 -0.91986507
0.21429974 0.14076862 1.2744645
0.26256374 0.17247213 1.2717758
0.30872574 0.20279492 1.2672658
0.35042271 0.23018469 1.2621882
0.39042535 0.2564615 1.2452693
0.43985993 0.28893396 1.2323313
0.49541259 0.32542524 1.2462202
0.54256916 0.35640132 1.2404019
0.59420276 0.39031824 1.2407557
0.65877485 0.43273419 1.2644591
0.71270996 0.46816295 1.2582798
0.71272808 0.46817482 1.1603582
0.70663255 0.46417084 1.0652773
0.70735729 0.46464688 0.97357535
0.71667427 0.47076699 0.90953636
0.70195484 0.46109813 0.81458449
0.70041817 0.46008873 0.74305636
0.71449876 0.46933794 0.69225246
0.72795492 0.47817701 0.63861442
0.72863042 0.47862071 0.58525205
0.7350018 0.48280594 0.53625625
0.74697882 0.49067339 0.49159154
0.75081533 0.49319351 0.43935916
0.75953871 0.49892369 0.39277995
0.76564151 0.50293243 0.34821269
0.76256126 0.50090915 0.29864749
0.77342463 0.50804502 0.25554764
0.76628637 0.5033561 0.20745559
0.7735725 0.50814217 0.16424707
0.75429261 0.49547762 0.11681022
0.75761712 0.49766141 0.080308467
0.75982386 0.49911097 0.040693264
0.76058286 0.49960959 -0.0019853103
0.74305069 0.48809308 -0.041723028
0.73227638 0.48101568 -0.082433037
0.75295001 0.49459571 -0.1286132
0.73887306 0.48534891 -0.16882834
0.76395112 0.50182205 -0.21943864
0.75427175 0.49546391 -0.26303926
0.74313593 0.48814905 -0.3050566
0.74654388 0.49038765 -0.35184118
0.73371637 0.48196155 -0.38855293
0.73343432 0.48177627 -0.43630925
0.71682954 0.47086897 -0.47417068
0.70551652 0.46343771 -0.5172736
0.69240957 0.45482805 -0.56008971
0.68922687 0.45273742 -0.61716706
0.677176 0.44482148 -0.66788214
0.67436093 0.44297233 -0.73287982
0.66409403 0.43622825 -0.78935677
0.67104751 0.44079581 -0.86475104
0.64888352 0.42623681 -0.91502589
0.19272031 0.1201913 1.2800051
0.23584574 0.14708675 1.2801727
0.2792415 0.17415081 1.2783176
0.32287648 0.20136406 1.2744031
0.36547786 0.22793268 1.2688863
0.40933034 0.25528157 1.2608647
0.45320988 0.28264734 1.2507243
0.50640899 0.31582531 1.2442685
0.56216526 0.35059807 1.2559663
0.61941248 0.38630068 1.2643971
0.66779184 0.41647279 1.2533971
0.71745658 0.44744655 1.2389704
0.72173989 0.45011786 1.1495153
0.72563076 0.45254442 1.07031
0.72093916 0.44961846 0.98391563
0.72335321 0.45112401 0.91419214
0.7163114 0.44673234 0.83870625
0.71174216 0.4438827 0.77200466
0.72017366 0.44914106 0.71534765
0.73986006 0.4614186 0.67059672
0.73844224 0.46053436 0.60515386
0.75348914 0.46991846 0.56029522
0.76018721 0.47409576 0.50818169
0.77242696 0.48172921 0.46010166
0.76702499 0.47836021 0.40366349
0.76545262 0.47737956 0.35649833
0.76273876 0.47568709 0.30732936
0.77412516 0.48278826 0.26485047
0.78381252 0.48882985 0.2217731
0.79177243 0.49379411 0.17822397
0.78959334 0.49243513 0.13285321
0.78556293 0.48992154 0.088134773
0.79668105 0.49685541 0.045099441
0.78062755 0.48684353 -0.002007127
0.74574918 0.46509138 -0.044138301
0.77695411 0.48455256 -0.089168996
0.76403332 0.47649443 -0.13155274
0.79177505 0.49379575 -0.1782077
0.78381252 0.48882985 -0.2217731
0.76573539 0.47755593 -0.26303926
0.7607277 0.47443286 -0.31417644
0.76379406 0.47634521 -0.3614054
0.74969095 0.46754971 -0.4003258
0.74763405 0.46626693 -0.45137396
0.73575521 0.45885861 -0.49810943
0.72892255 0.45459735 -0.5499211
0.71317035 0.44477338 -0.5953694
0.701473 0.43747824 -0.64733952
0.69357806 0.43255454 -0.70586544
0.68531483 0.4274011 -0.76142752
0.67573529 0.4214268 -0.81570905
0.68365896 0.42636842 -0.90272945
0.65496546 0.40847352 -0.94475901
0.22069295 0.13051744 1.2744645
0.2703968 0.15991223 1.2717758
0.31793597 0.18802682 1.2672658
0.36359024 0.21502666 1.2716783
0.40509602 0.23957312 1.2546322
0.45268738 0.26771858 1.2541933
0.50301695 0.29748338 1.2391036
0.56625324 0.33488122 1.2471215
0.62557024 0.3699612 1.2431374
0.69371456 0.41026163 1.2650871
0.72986495 0.43164092 1.2251871
0.73752123 0.43616885 1.1448665
0.73127139 0.43247271 1.049147
0.73685914 0.43577731 0.97833365
0.73805481 0.4364844 0.90953636
0.72209132 0.42704359 0.82983005
0.72345036 0.42784736 0.77017283
0.73916078 0.43713844 0.71899331
0.74557537 0.44093204 0.6616618
0.75615418 0.44718835 0.61086285
0.7555002 0.44680157 0.55784214
0.76875246 0.45463893 0.5130527
0.7643528 0.45203698 0.45981237
0.77346748 0.45742738 0.41546145
0.78938717 0.46684226 0.37286222
0.78733116 0.46562633 0.32280302
0.78301084 0.46307132 0.27378646
0.78484815 0.46415791 0.22840932
0.78493673 0.46421027 0.18243682
0.80845755 0.47812045 0.14246842
0.79619497 0.47086841 0.096210569
0.76482832 0.45231822 0.05045658
0.77465123 0.45812747 0.0058904444
0.78263766 0.4628506 -0.036710367
0.78886932 0.46653602 -0.080183282
0.77612072 0.4589965 -0.12271435
0.78724575 0.46557581 -0.16847347
0.77938169 0.46092507 -0.21216087
0.76995999 0.45535308 -0.25439179
0.77601314 0.45893288 -0.29947323
0.76466465 0.45222142 -0.33657649
0.75777805 0.4481487 -0.38279912
0.75896215 0.44884896 -0.42768106
0.74042624 0.43788686 -0.46949342
0.74419934 0.44011825 -0.52207595
0.73607492 0.43531349 -0.57410437
0.71842653 0.42487627 -0.6204381
0.71193796 0.42103893 -0.67880082
0.70293564 0.41571495 -0.73692781
0.68833816 0.40708205 -0.78413951
0.71526992 0.42300946 -0.87951803
0.70940834 0.41954291 -0.93979979
0.19664378 0.11012581 1.2701589
0.24066143 0.13477688 1.2704004
0.29219821 0.16363886 1.2664685
0.34271535 0.19192983 1.2602021
0.3909241 0.21892801 1.2522575
0.43765193 0.24509686 1.2533509
0.4826315 0.27028662 1.2424219
0.53840774 0.30152282 1.2343423
0.60606253 0.33941135 1.2499553
0.67348826 0.37717155 1.2627569
0.73551786 0.41190982 1.2527745
0.74733192 0.41852599 1.1575539
0.74125737 0.41512406 1.049147
0.74670374 0.41817421 0.96522737
0.74380064 0.41654837 0.88664991
0.73508358 0.4116666 0.8118391
0.73555326 0.41192961 0.75244629
0.74387658 0.4165909 0.6950537
0.74924397 0.41959676 0.63833535
0.7589348 0.42502391 0.58810937
0.75676751 0.42381015 0.53673822
0.76932728 0.43084398 0.49255359
0.77217573 0.43243918 0.44366771
0.78074062 0.43723574 0.39958608
0.76986349 0.43114427 0.35202956
0.79990888 0.44797051 0.31680939
0.80284166 0.44961295 0.27366668
0.787745 0.44115838 0.22301815
0.7960009 0.44578192 0.18044688
0.80250853 0.44942638 0.13746275
0.80724877 0.45208102 0.094192281
0.78407872 0.43910518 0.049063053
0.7852422 0.43975675 0.0029530919
0.7671715 0.42963666 -0.035500135
0.77356654 0.43321809 -0.077568613
0.79536444 0.44542548 -0.12406286
0.78130013 0.43754911 -0.16192862
0.79121929 0.44310409 -0.20623003
0.79173547 0.44339317 -0.24527021
0.78886026 0.44178298 -0.2915943
0.76065391 0.42598665 -0.32379162
0.77137071 0.43198836 -0.37412998
0.76387697 0.42779168 -0.41759577
0.7532022 0.42181349 -0.46385327
0.74088502 0.41491553 -0.50895429
0.73324633 0.41063768 -0.56020218
0.73702872 0.41275594 -0.62363547
0.71683675 0.40144786 -0.66976464
0.70605707 0.39541095 -0.73022848
0.69996703 0.39200038 -0.78152531
0.69748729 0.39061165 -0.84055579
0.71023387 0.39775008 -0.92209691
0.48336878 0.27069953 -0.74697816
0.21921957 0.11607078 1.2761153
0.26820427 0.14200686 1.2640809
0.32276371 0.17089458 1.268471
0.3705298 0.19618544 1.2621882
0.41903573 0.22186799 1.2639952
0.46479613 0.24609688 1.2541933
0.5202418 0.27545384 1.2481481
0.57727629 0.30565205 1.2382766
0.63871419 0.33818176 1.2455028
0.69915003 0.3701809 1.2508218
0.76587266 0.4055087 1.260913
0.76448727 0.40477517 1.163708
0.76994205 0.40766335 1.0830973
0.75954115 0.40215635 0.98866957
0.77418625 0.40991053 0.93327862
0.76025552 0.40253457 0.85092741
0.75583321 0.4001931 0.78368461
0.76149607 0.40319142 0.73106796
0.76866269 0.40698594 0.67343903
0.77283025 0.40919256 0.61659944
0.78153878 0.41380349 0.56609523
0.78165221 0.41386354 0.5080716
0.78479809 0.41552922 0.45981237
0.78613484 0.41623697 0.41126487
0.80160165 0.42442623 0.37107563
0.8077668 0.42769051 0.32479784
0.79496831 0.42091405 0.27286759
0.78826326 0.41736391 0.22549599
0.8054021 0.42643848 0.18541218
0.80346507 0.42541283 0.14095324
0.8172102 0.43269053 0.099229068
0.81126457 0.42954248 0.061180267
0.81295544 0.43043774 0.015060821
0.81273741 0.43032229 -0.026089175
0.79332858 0.42004588 -0.064739391
0.80763519 0.4276208 -0.10614093
0.76732612 0.40627825 -0.14334802
0.79398453 0.42039317 -0.19813672
0.79527164 0.42107466 -0.23481716
0.80154324 0.42439529 -0.2826961
0.78894466 0.41772467 -0.32491913
0.77532023 0.41051093 -0.36449879
0.78414398 0.41518286 -0.41610262
0.76692218 0.40606439 -0.45534831
0.75435126 0.39940843 -0.50152475
0.74753773 0.39580086 -0.5519321
0.73759639 0.3905372 -0.60359943
0.71805793 0.3801921 -0.64918935
0.71623152 0.37922508 -0.71386325
0.70516706 0.37336671 -0.75719005
0.70998573 0.37591812 -0.82286441
0.72912687 0.38605279 -0.91227037
0.69890177 0.37004945 -0.95509148
0.2037484 0.10180731 1.2595721
0.24659775 0.12321791 1.2499628
0.29362449 0.14671583 1.2578788
0.33772379 0.16875102 1.2544185
0.38320267 0.19147553 1.2485563
0.42878845 0.21425344 1.2406192
0.47790697 0.23879659 1.2397908
0.53361815 0.2666339 1.2333118
0.58794856 0.29378125 1.2361267
0.6554836 0.3275266 1.2628015
0.71245897 0.35599557 1.2592734
0.75494671 0.37722549 1.2279481
0.7791481 0.38931823 1.1717336
0.77435297 0.38692224 1.0618703
0.76150614 0.38050306 0.95589006
0.76879698 0.38414609 0.89385843
0.76010126 0.37980106 0.81877786
0.75414121 0.37682301 0.75244629
0.76960832 0.3845515 0.70137233
0.77535713 0.38742399 0.64430112
0.78552431 0.39250425 0.59371036
0.80192971 0.40070155 0.54666901
0.80876428 0.4041166 0.49344715
0.79681635 0.39814657 0.43204516
0.81214768 0.4058072 0.39476159
0.81842679 0.4089447 0.35120058
0.81438512 0.40692517 0.30461246
0.82549584 0.4124769 0.26461187
0.80894029 0.40420458 0.21710418
0.81715542 0.40830943 0.17447188
0.82357574 0.41151744 0.13143988
0.82792056 0.41368845 0.091155939
0.83976668 0.41960764 0.048179988
0.83192205 0.41568789 0.0030515282
0.83113468 0.41529447 -0.040566031
0.8285197 0.41398785 -0.084078155
0.82395709 0.41170803 -0.12841827
0.81664169 0.40805271 -0.17745237
0.80894029 0.40420458 -0.21710418
0.80804676 0.40375808 -0.26007673
0.81318843 0.40632722 -0.30858189
0.80105084 0.40026245 -0.34598771
0.78641534 0.39294946 -0.38567042
0.78624684 0.39286527 -0.43344292
0.77642852 0.38795933 -0.47617888
0.77189678 0.38569495 -0.52489501
0.76498169 0.38223967 -0.57410437
0.75381947 0.37666222 -0.62640387
0.74681175 0.37316069 -0.68514472
0.74382347 0.37166753 -0.75032651
0.7240634 0.36179397 -0.78850323
0.73360765 0.36656296 -0.86229426
0.74594253 0.37272635 -0.94458711
0.5007937 0.25023243 -0.79214233
0.21855019 0.10284191 1.2875401
0.26284871 0.12368722 1.2773849
0.30678427 0.14436172 1.2653629
0.36459625 0.17156596 1.2779807
0.41468856 0.19513762 1.2591881
0.46843532 0.22042893 1.2576087
0.51527947 0.24247211 1.2460314
0.56892157 0.26771417 1.2508626
0.62919545 0.29607692 1.2609725
0.68628329 0.32294041 1.259216
0.75533777 0.35543498 1.258265
0.78593737 0.36983407 1.198301
0.80435944 0.37850282 1.1201078
0.80138695 0.37710407 1.018858
0.8159228 0.38394412 0.95024043
0.79634476 0.37473139 0.85925049
0.80531406 0.37895203 0.80490035
0.77701873 0.36563724 0.71899331
0.8001284 0.37651184 0.67091984
0.81158328 0.3819021 0.61934114
0.80680019 0.37965134 0.55447125
0.81363404 0.3828671 0.50230712
0.82640117 0.38887486 0.45413372
0.82859242 0.38990602 0.40175599
0.83522373 0.39302644 0.357815
0.84855098 0.3992978 0.31721047
0.83419448 0.39254212 0.26763839
0.8432883 0.39682135 0.23021229
0.84288412 0.39663115 0.1863602
0.84091872 0.39570633 0.14096875
0.83697408 0.39385012 0.096210569
0.84916949 0.39958882 0.05329122
0.85049635 0.40021321 0.0092364829
0.84100831 0.39574847 -0.031434547
0.83889514 0.39475408 -0.072966956
0.84419763 0.39724925 -0.11455718
0.83872044 0.39467189 -0.15614788
0.84060782 0.39556 -0.19852152
0.84048945 0.3955043 -0.24239191
0.82147563 0.3865571 -0.27973446
0.82540447 0.38840586 -0.32977015
0.81886446 0.38532838 -0.37600929
0.80159819 0.37720346 -0.41899627
0.79047018 0.37196705 -0.46572247
0.79265535 0.37299529 -0.5224672
0.78470337 0.36925337 -0.57401448
0.77347445 0.36396945 -0.6267882
0.75943732 0.35736406 -0.67966604
0.74687999 0.35145503 -0.72708297
0.74166232 0.3489998 -0.77784067
0.7458685 0.35097909 -0.84433043
0.76518482 0.36006865 -0.94749284
0.7156111 0.33674103 -0.96799082
0.24654895 0.10899816 1.2819645
0.29111302 0.12869972 1.2707437
0.34039173 0.15048561 1.2768663
0.39688763 0.17546219 1.2783557
0.44543025 0.19692266 1.2483643
0.49481246 0.21875431 1.2368537
0.54956836 0.24296163 1.2423141
0.6054287 0.26765722 1.2449561
0.65641367 0.29019743 1.2368535
0.73821545 0.32636163 1.2761763
0.79490125 0.35142216 1.2470102
0.82168597 0.36326355 1.1761258
0.82197839 0.36339283 1.073451
0.82081991 0.36288068 0.98156625
0.81864125 0.3619175 0.90096742
0.80937064 0.35781899 0.82521802
0.79605013 0.35193008 0.7516312
0.80742472 0.35695875 0.70536923
0.81327528 0.35954523 0.64754188
0.82309222 0.36388525 0.59708184
0.83100963 0.36738551 0.54594034
0.84445643 0.37333027 0.50001788
0.84894097 0.37531289 0.44647446
0.84072322 0.37167984 0.39374939
0.85668707 0.37873739 0.35020739
0.85334569 0.37726018 0.29979309
0.86397511 0.38195941 0.26087156
0.84681857 0.37437457 0.21270172
0.85449821 0.37776971 0.17211287
0.86960971 0.38445044 0.13257739
0.86496627 0.38239759 0.090030149
0.85860068 0.37958339 0.048179988
0.8505801 0.37603751 0.0030515282
0.84989226 0.37573344 -0.037517186
0.85662061 0.378708 -0.079883248
0.86168879 0.38094863 -0.12194474
0.85584199 0.37836379 -0.16393696
0.8401556 0.37142891 -0.19944701
0.83116174 0.36745277 -0.24030934
0.83824712 0.37058517 -0.28567183
0.83432609 0.36885172 -0.32977015
0.82883346 0.36642343 -0.37305358
0.80445987 0.35564801 -0.40897283
0.81937915 0.36224371 -0.46636611
0.79949349 0.35345238 -0.50594622
0.7994318 0.35342512 -0.56355959
0.77618796 0.3431491 -0.60114968
0.77248335 0.34151131 -0.65691668
0.76573801 0.33852923 -0.71347272
0.75372583 0.33321869 -0.75846076
0.7421093 0.3280831 -0.81494492
0.76346248 0.33752322 -0.91695321
0.74957865 0.33138525 -0.983217
0.25098208 0.10396018 1.2712986
0.29791495 0.12340041 1.2696925
0.34246254 0.14185263 1.2564622
0.39409289 0.16323863 1.2702929
0.44188502 0.18303476 1.2624326
0.4896723 0.20282891 1.2524701
0.54761606 0.22683001 1.2462202
0.62457865 0.25870895 1.2714446
0.68078309 0.2819896 1.2604032
0.74956417 0.31047964 1.2735211
0.80969095 0.33538496 1.2663007
0.83037084 0.34395087 1.2009089
0.82561105 0.3419793 1.1035472
0.82132554 0.34020418 1.0026393
0.83524925 0.34597155 0.93416399
0.82754785 0.34278154 0.85747617
0.81570017 0.33787405 0.78286296
0.81415212 0.33723286 0.72320837
0.82433641 0.34145132 0.67696416
0.83627486 0.34639639 0.62502313
0.8455919 0.35025564 0.57331955
0.84378326 0.34950647 0.5180493
0.85610998 0.35461238 0.47215012
0.86762905 0.3593837 0.42304042
0.87527031 0.36254883 0.37796858
0.87222451 0.36128724 0.32969064
0.8855449 0.36680469 0.28506944
0.87898338 0.36408684 0.23500837
0.88819551 0.36790264 0.19014832
0.87718225 0.3633408 0.14189704
0.88216549 0.3654049 0.099314138
0.88549787 0.36678523 0.054425076
0.87764317 0.36353171 0.009334743
0.86784953 0.35947505 -0.03485496
0.87475055 0.36233354 -0.077626757
0.87958705 0.36433688 -0.12322837
0.87361878 0.36186475 -0.16566262
0.87575853 0.36275104 -0.20581234
0.87531531 0.36256748 -0.25053528
0.88111955 0.36497167 -0.30070579
0.85741532 0.35515305 -0.34468141
0.85083199 0.35242617 -0.38971874
0.83388007 0.34540445 -0.43051109
0.83011365 0.34384432 -0.48278606
0.83206415 0.34465227 -0.53980005
0.82255358 0.34071285 -0.59348154
0.80273235 0.33250263 -0.64145362
0.7948575 0.32924074 -0.70135736
0.77423584 0.32069898 -0.74304169
0.77738392 0.32200295 -0.7984913
0.78093594 0.32347426 -0.86579645
0.79360086 0.32872024 -0.96241403
0.75990653 0.31476361 -1.0067104
0.25140977 0.097263105 1.2819645
0.30460277 0.11784192 1.2686332
0.35222098 0.13626403 1.2648212
0.40171456 0.15541165 1.2688863
0.4532477 0.1753483 1.2702045
0.50448966 0.19517232 1.2477973
0.56446421 0.21837473 1.2513163
0.63050038 0.2439222 1.2714446
0.68807834 0.26619744 1.2714508
0.74279922 0.28736734 1.2592734
0.81350893 0.31472287 1.2691543
0.83458382 0.32287613 1.2038358
0.83590275 0.3233864 1.1142656
0.83825678 0.32429707 1.0339521
0.84891385 0.32841998 0.96973485
0.84208202 0.32577696 0.8931222
0.84576476 0.32720169 0.83097595
0.8295058 0.32091162 0.74467164
0.83539492 0.32318991 0.68888575
0.84801018 0.3280704 0.63666981
0.85796249 0.33192065 0.58466148
0.85722679 0.33163604 0.527996
0.8696084 0.33642611 0.48280299
0.87325418 0.33783656 0.42917782
0.88909107 0.34396338 0.39000806
0.87777746 0.3395865 0.33791673
0.881782 0.34113571 0.29357615
0.88386667 0.34194222 0.24950992
0.90292442 0.34931511 0.20689723
0.88337481 0.34175193 0.15637966
0.89850372 0.34760487 0.11296885
0.90245616 0.34913394 0.067663781
0.89516085 0.34631163 0.018848345
0.8949734 0.34623909 -0.027223486
0.90209913 0.34899583 -0.072931945
0.90788311 0.35123348 -0.11306317
0.89305532 0.34549704 -0.1548675
0.86704552 0.33543462 -0.19548835
0.87534803 0.33864662 -0.24491683
0.86367738 0.3341316 -0.28864759
0.86659479 0.33526024 -0.34163439
0.8600806 0.3327401 -0.38671097
0.85153013 0.32943219 -0.43182269
0.82442468 0.31894585 -0.46754417
0.8443144 0.32664061 -0.53192019
0.82969904 0.32098636 -0.57633954
0.81432229 0.31503755 -0.61849052
0.80243677 0.31043938 -0.66919553
0.7901206 0.30567461 -0.7171976
0.7870062 0.30446973 -0.76649815
0.78073013 0.30204171 -0.8316437
0.79955655 0.3093251 -0.92337823
0.8025921 0.31049946 -1.0009176
0.25363448 0.091314033 1.2615194
0.30883381 0.11118701 1.2578788
0.36180857 0.1302591 1.2627459
0.41306967 0.14871423 1.2660401
0.46164557 0.16620263 1.2576804
0.50520557 0.1818852 1.2386223
0.56153768 0.20216601 1.2442685
0.62336373 0.22442475 1.2559663
0.67743415 0.2438913 1.2470766
0.74549234 0.26839375 1.2618661
0.81677532 0.29405722 1.2720096
0.86746883 0.31230801 1.2459781
0.85160983 0.3065984 1.1328099
0.84861726 0.30552101 1.0444643
0.86626685 0.31187525 0.98732752
0.85436291 0.30758956 0.90213782
0.86274362 0.31060681 0.83474356
0.85359842 0.30731434 0.754538
