# .PCD v0.7 - Point Cloud Data file format
VERSION 0.7
FIELDS x y z
SIZE 4 4 4
TYPE F F F
COUNT 1 1 1
WIDTH 454
HEIGHT 1
VIEWPOINT 0 0 0 1 0 0 0
POINTS 454
DATA ascii
5.4227953e-17 1.4276189 0.88560969
4.9463945e-17 1.4387311 0.80780751
4.4745511e-17 1.4458233 0.73074967
3.9293044e-17 1.4328698 0.64170408
3.471585e-17 1.4210786 0.56695288
3.0754843e-17 1.4134108 0.50226474
2.7062496e-17 1.4124687 0.44196412
2.2949772e-17 1.4110727 0.37479821
1.9064568e-17 1.4264159 0.31134802
1.5500761e-17 1.4175743 0.25314665
1.2186309e-17 1.4160833 0.19901754
8.7444472e-18 1.4027494 0.14280766
5.4587799e-18 1.4071789 0.089148641
2.1666594e-18 1.4095559 0.03538423
-1.6002101e-18 1.4097579 -0.026133412
-5.1760252e-18 1.4074639 -0.084530905
-9.0247365e-18 1.4022759 -0.14738514
-1.2852017e-17 1.4044025 -0.20988937
-1.6683177e-17 1.3936166 -0.27245697
-2.0255198e-17 1.391214 -0.33079252
-2.3819834e-17 1.396844 -0.38900739
-2.725463e-17 1.3904979 -0.44510189
-3.1110326e-17 1.4007015 -0.50807017
-3.4823384e-17 1.3988103 -0.56870902
-3.8729887e-17 1.4041135 -0.63250703
-4.2800499e-17 1.4058163 -0.69898522
-4.6935803e-17 1.4044385 -0.76651984
-5.1437942e-17 1.4085183 -0.84004533
-5.6496165e-17 1.4039632 -0.92265242
-6.0642788e-17 1.3694026 -0.99037188
0.033229116 1.4100264 0.8942154
0.033707861 1.4303412 0.82188058
0.033227447 1.4099557 0.73418027
0.033096217 1.4043871 0.65505832
0.033099715 1.4045355 0.58015889
0.032999989 1.4003038 0.50809461
0.032793853 1.3915569 0.44056126
0.03271189 1.3880787 0.38179502
0.0327936 1.391546 0.32775655
0.032833166 1.393225 0.27248129
0.032588765 1.3828542 0.21599101
0.032525223 1.3801579 0.16188319
0.032644276 1.3852098 0.11058175
0.032484546 1.3784319 0.057186786
0.032512303 1.3796096 -0.0045039887
0.032241389 1.3681139 -0.064225338
0.032610692 1.3837847 -0.12718725
0.03222499 1.3674181 -0.18311065
0.032275062 1.3695427 -0.2353958
0.032500923 1.3791267 -0.29163882
0.032443378 1.3766849 -0.34653422
0.032334305 1.3720565 -0.40164083
0.032336801 1.3721626 -0.46757272
0.032112606 1.3626491 -0.5232172
0.032177355 1.3653967 -0.59561437
0.032592848 1.3830276 -0.67658895
0.032261033 1.3689474 -0.74735683
0.03206734 1.3607284 -0.82188195
0.032612614 1.3838662 -0.91621542
0.031615123 1.3415391 -0.97717619
0.064752303 1.3730693 1.0171469
0.065853171 1.3964132 0.94962811
0.0655156 1.3892549 0.86906761
0.066580072 1.4118271 0.81191838
0.066322617 1.4063677 0.73880398
0.066072457 1.4010631 0.65966415
0.066181056 1.4033659 0.58015889
0.066345491 1.4068528 0.5161041
0.065880433 1.3969913 0.45274189
0.065859824 1.3965541 0.38444638
0.065209419 1.3827623 0.31641117
0.065810494 1.3955082 0.25421613
0.065743014 1.3940773 0.2008145
0.065162674 1.3817711 0.13624382
0.065384425 1.3864733 0.074273229
0.065472357 1.388338 0.018194538
0.064515539 1.3680488 -0.03435652
0.06487684 1.37571 -0.087251857
0.06514138 1.3813196 -0.14075787
0.064850718 1.3751562 -0.19193698
0.064458251 1.3668339 -0.24435683
0.064892493 1.376042 -0.30066136
0.064760521 1.3732435 -0.35553962
0.064074218 1.3586905 -0.40774333
0.064209752 1.3615645 -0.46434811
0.063767605 1.3521888 -0.51963353
0.064519107 1.3681244 -0.58666271
0.064067334 1.3585445 -0.65601236
0.06390328 1.3550658 -0.72891229
0.064046934 1.358112 -0.80487877
0.064532943 1.3684177 -0.88327134
0.063718103 1.3511391 -0.9449144
0.061221082 1.2981899 -0.98379618
0.062093936 1.3166988 -1.1662112
0.093964532 1.3271115 1.0582749
0.095840186 1.3536023 0.9904421
0.096025974 1.3562263 0.91707635
0.097827569 1.3816712 0.85925227
0.098169848 1.3865054 0.7924428
0.097729169 1.3802814 0.72032785
0.09763398 1.3789371 0.65566766
0.098031595 1.3845527 0.59456158
0.096506312 1.3630104 0.51428509
0.097222537 1.373126 0.45560139
0.096344702 1.3607279 0.39438206
0.096651994 1.365068 0.33962923
0.097497314 1.3770069 0.28713486
0.096093237 1.3571763 0.23073456
0.095944792 1.3550798 0.17735098
0.096353061 1.3608459 0.12535721
0.095915481 1.3546658 0.072670206
0.095333651 1.3464483 0.022100117
0.094617642 1.3363357 -0.029231945
0.094469935 1.3342495 -0.080334336
0.095590182 1.3500714 -0.13330331
0.095161274 1.3440137 -0.18485537
0.095307402 1.3460776 -0.23641436
0.095290951 1.3458452 -0.28986236
0.094440304 1.3338311 -0.34113869
0.094805971 1.3389955 -0.39762148
0.095038034 1.3422731 -0.45350942
0.095066875 1.3426805 -0.51163596
0.094652496 1.336828 -0.57925123
0.094684295 1.3372772 -0.65024978
0.095188424 1.3443972 -0.72417909
0.09499409 1.3416525 -0.79028141
0.094578393 1.3357813 -0.85722995
0.094589628 1.33594 -0.92909473
0.09201663 1.2996002 -0.97952652
0.092837073 1.3111877 -1.1552782
0.090960741 1.2846874 -1.2141682
0.092346296 1.3042563 -1.433174
0.089538231 1.2645965 -1.5209137
0.12316205 1.3029184 1.1006064
0.12543352 1.326948 1.0390263
0.12678392 1.3412338 0.96985447
0.12851381 1.3595341 0.90815806
0.13007578 1.376058 0.84495252
0.12965246 1.3715798 0.77353686
0.12934478 1.3683249 0.69466329
0.12851565 1.3595536 0.62056249
0.12849079 1.3592906 0.54471946
0.12887621 1.3633679 0.47656983
0.1280055 1.3541567 0.40776706
0.12675016 1.3408766 0.34363422
0.1269723 1.3432267 0.28986236
0.12792079 1.3532606 0.23816372
0.1267992 1.3413955 0.18487889
0.12651326 1.3383704 0.12352718
0.12689991 1.3424609 0.064770475
0.12610243 1.3340244 0.0087702172
0.12602831 1.3332404 -0.046765324
0.12665458 1.3398656 -0.10591978
0.12608241 1.3338126 -0.16597347
0.12532684 1.3258195 -0.22135009
0.12614039 1.3344259 -0.28336537
0.12573282 1.3301144 -0.3455244
0.12509476 1.3233643 -0.40639666
0.12532178 1.3257658 -0.46339983
0.12619449 1.3349984 -0.52483749
0.12594299 1.3323376 -0.58362216
0.12544952 1.3271173 -0.64297897
0.12561524 1.3288704 -0.70599169
0.12495396 1.3218749 -0.78014958
0.12558167 1.3285153 -0.86450928
0.12546284 1.3272582 -0.93784034
0.11990277 1.2684388 -0.9842695
0.11790507 1.2473054 -1.0582664
0.12305477 1.3017834 -1.1929448
0.1166694 1.2342334 -1.2209244
0.11909842 1.2599297 -1.3630822
0.12178224 1.2883216 -1.5117859
0.15098393 1.2756568 1.2031225
0.15344015 1.2964092 1.1199014
0.15533723 1.3124377 1.037197
0.1585962 1.3399726 0.96691298
0.15923774 1.3453928 0.88823503
0.16199322 1.3686738 0.83222008
0.16149354 1.364452 0.75966477
0.16154629 1.3648977 0.69466329
0.16182087 1.3672177 0.62018549
0.16114604 1.361516 0.55741018
0.15910915 1.3443063 0.49104446
0.15895781 1.3430278 0.43290731
0.15965149 1.3488886 0.37829986
0.15890405 1.3425735 0.3230263
0.15908495 1.3441019 0.26922464
0.15785524 1.3337122 0.21422774
0.15636763 1.3211435 0.16040289
0.1569732 1.3262599 0.10951789
0.15734255 1.3293805 0.059921946
0.15867209 1.3406137 0.0088356659
0.15621087 1.319819 -0.050754238
0.15693036 1.3258978 -0.11387612
0.15630527 1.3206166 -0.16474403
0.15661213 1.3232092 -0.21700247
0.15667675 1.3237553 -0.26967484
0.15628581 1.3204521 -0.32997113
0.15664907 1.3235214 -0.39478132
0.15798743 1.3348291 -0.45789883
0.15581746 1.3164952 -0.50888246
0.1572976 1.3290006 -0.58362216
0.15651603 1.3223972 -0.64588571
0.15661658 1.3232468 -0.71034437
0.15636079 1.3210856 -0.77581191
0.15256721 1.2890338 -0.96928585
0.14536573 1.2281889 -0.99926013
0.1540564 1.301616 -1.1444049
0.15223207 1.2862022 -1.221028
0.14336932 1.2113212 -1.2548491
0.15146454 1.2797174 -1.4501661
0.14388551 1.2156825 -1.5049961
0.17789935 1.2499859 1.3246838
0.17864226 1.2552059 1.2350891
0.18203384 1.2790364 1.1505779
0.18456368 1.2968121 1.0678552
0.18869132 1.3258142 0.99775356
0.19114734 1.3430712 0.92153263
0.19217722 1.3503075 0.77758449
0.19122081 1.3435874 0.70647538
0.19121194 1.3435251 0.51076257
0.18994655 1.3346341 0.44617516
0.18814749 1.3219931 0.38605005
0.18871868 1.3260065 0.33240306
0.18793926 1.3205301 0.20827705
0.18892226 1.3274369 0.15722468
0.18733962 1.3163167 0.033376615
0.18877521 1.3264039 -0.024836009
0.18850398 1.3244981 -0.075968333
0.18087298 1.2708797 -0.97172505
0.17240332 1.2113689 -1.0153632
0.17423365 1.2242293 -1.2098781
0.1801956 1.2661203 -1.350581
0.20643732 1.2402687 1.3020051
0.20830424 1.2514851 1.2198337
0.21211711 1.2743927 1.1505779
0.21517868 1.2927866 1.0827746
0.21789481 1.3091049 1.0137386
0.20918936 1.2568028 -0.9842695
0.20444976 1.2283275 -1.0518135
0.20156868 1.2110181 -1.2330471
0.22861272 1.1984298 1.3639656
0.2342988 1.2282373 1.2948116
0.23502962 1.2320684 1.205972
0.24466288 1.2825677 1.150113
0.24529131 1.2858621 1.0529914
0.23089454 1.2103915 -0.98895907
0.22801901 1.1953175 -1.2437135
0.22973301 1.2043025 -1.490563
0.25293928 1.1748533 1.4973782
0.25618714 1.1899389 1.4064187
0.26154834 1.2148407 1.3297198
0.26627979 1.2368172 1.2378522
0.27191374 1.2629858 1.1505779
0.27333075 1.2695676 1.0657808
0.24835601 1.1535648 -1.4506921
0.27551329 1.1475954 1.6022538
0.28315485 1.1794248 1.5012263
0.29044729 1.2098 1.4094057
0.29613581 1.2334944 1.3050652
0.30380106 1.1457913 1.5483433
0.31135792 1.1742921 1.447824
0.31955779 1.2052181 1.3666866
0.31975135 1.2059481 1.2695858
0.3215934 1.1069317 1.5975543
0.32978702 1.1351343 1.5129807
0.33845377 1.1649655 1.4362118
0.3461518 1.1914623 1.3451753
0.34425271 1.088517 1.5931795
0.35494012 1.1223102 1.5168511
0.358576 1.1338068 1.4171822
0.36449742 1.1525302 1.3337226
0.36862686 1.1655873 1.2522063
0.36510536 1.0663855 1.5912323
0.37805903 1.10422 1.5245227
0.38630763 1.1283122 1.4403396
0.38701856 1.0490597 1.646144
0.39761347 1.0777785 1.5384073
0.4051317 1.0981575 1.4326264
0.41001549 1.1113956 1.3419341
0.40141264 1.0138526 1.6166233
0.4107897 1.0375363 1.5254083
0.42050228 1.0620675 1.4424945
0.42849118 1.0822451 1.3598679
0.43427935 1.0968645 1.2790191
0.42300689 0.99896473 1.6083329
0.43668061 1.0312562 1.5100399
0.45027146 1.0633521 1.4196612
0.45417264 1.0725651 1.3194436
0.44822621 0.99271101 1.5811446
0.45550546 1.0088327 1.4823196
0.4629344 1.0252861 1.3923291
0.47034571 1.0417002 1.3119587
0.45197573 0.94123739 1.6350505
0.46633098 0.9711321 1.5529127
0.47863725 0.99675983 1.470706
0.48347339 1.006831 1.3731149
0.49090987 1.0223175 1.2931645
0.481318 0.94463974 1.5282633
0.49107504 0.96378905 1.4387342
0.49846569 0.97829396 1.3498418
0.50887245 0.99871844 1.2781277
0.50580573 0.93742251 1.5247949
0.5167011 0.9576152 1.4212998
0.52805102 0.97865027 1.3252569
0.50937146 0.89302325 1.6333861
0.52528232 0.92091793 1.5282633
0.53758126 0.94248033 1.4236703
0.54880375 0.96215546 1.3288985
0.52198374 0.86701208 1.5962214
0.53839165 0.89426553 1.5152636
0.54932117 0.91241938 1.4262317
0.55754423 0.9260779 1.3378805
0.53744352 0.84687549 1.6488955
0.55459869 0.87390774 1.5454143
0.56312835 0.88734823 1.4366279
0.58021879 0.91427845 1.3492001
0.56522095 0.84591293 1.6046671
0.57361615 0.85847723 1.4987932
0.59015918 0.88323563 1.4032843
0.59995472 0.89789569 1.31295
0.58151013 0.82740527 1.5610402
0.58888859 0.83790368 1.4558598
0.59949279 0.85299194 1.3679961
0.61363721 0.87311739 1.2975035
0.58665079 0.79426169 1.623265
0.60501689 0.81912744 1.5204884
0.61661947 0.83483601 1.4090171
0.62846762 0.85087711 1.3180047
0.61301392 0.7902928 1.4724303
0.62884694 0.81070459 1.3929141
0.65097266 0.83922893 1.3145453
0.62217665 0.76422459 1.565681
0.62738043 0.77061647 1.4526335
0.64687824 0.79456574 1.3815259
0.66389996 0.81547368 1.3102059
0.67021054 0.82322502 1.2104621
0.641195 0.75074285 1.6350394
0.64839607 0.75917423 1.497744
0.66633826 0.78018183 1.3929141
0.68013233 0.79633266 1.3136493
0.68677235 0.80410713 1.2272552
0.73992074 0.6523279 -1.0214626
0.78092974 0.59598672 -0.99747103
0.811194 0.56065071 -1.0078368
0.84136289 0.5247215 -1.002435
0.84274572 0.49839845 -1.000689
0.85472721 0.47867024 -1.1752516
0.87920809 0.46551672 -0.99919337
0.8839525 0.46802875 -1.1840934
0.8899315 0.44467357 -0.99919337
0.89522439 0.42126063 -1.0045959
0.9304986 0.41136912 -1.088599
0.9311198 0.38568246 -0.98608565
0.93378979 0.3867884 -1.0673946
0.91996902 0.35590917 -1.0214626
0.94522119 0.34030056 -0.98936975
0.95530319 0.31871325 -1.0292802
0.99629384 0.30650002 -0.99350709
0.96936643 0.29821604 -1.0502361
1.0684904 0.30134544 0.71408629
0.98690963 0.2783373 -0.99671346
1.0026883 0.28278735 -1.093045
1.1041785 0.28350487 1.6432939
1.1048828 0.28368571 1.5069361
1.1030899 0.28322536 1.3939067
1.0961179 0.28143522 1.2819594
1.091697 0.28030014 0.94367868
1.0864873 0.27896252 0.80381924
1.0749935 0.27601141 0.73287565
1.0674753 0.27408108 0.67042971
1.0830277 0.27807426 0.62299722
1.0637906 0.27313501 0.50778621
1.0767131 0.27645296 0.45195422
1.0751765 0.27605841 0.33673021
1.0708004 0.27493483 0.27820352
1.0483483 0.26917011 -0.38860422
1.044623 0.2682136 -0.50291574
1.0493432 0.26942557 -0.56097108
1.0467299 0.26875457 -0.66710383
1.045423 0.26841903 -0.72459775
1.0285906 0.26409715 -0.78399885
1.0396924 0.26694763 -0.86728239
1.037359 0.26634854 -0.94754666
0.99250102 0.25483096 -0.98305792
1.0058352 0.25825459 -1.0824047
1.1163455 0.258755 1.6634959
1.1307715 0.26209876 1.5544324
1.1142665 0.25827312 1.4156642
1.1134442 0.25808251 1.3119587
1.1143689 0.25829685 1.0459276
1.1112058 0.25756368 0.89519984
1.1055858 0.25626102 0.74940664
1.0924522 0.25321683 0.67714804
1.0997789 0.25491506 0.62418318
1.0954864 0.25392011 0.56836087
1.0701926 0.24805731 -0.40256122
1.0610344 0.24593458 -0.57150859
1.0511824 0.243651 -0.81126428
1.0154531 0.23536938 -0.99350709
1.0286109 0.2384192 -1.0933965
1.1389549 0.2358662 1.7243981
1.1331843 0.23467118 1.5819048
1.1367865 0.23541714 1.4660134
1.1270647 0.23340388 1.3446739
1.1220013 0.23235531 1.2422657
1.1312066 0.23426163 1.0631994
1.1285357 0.23370852 0.97564721
1.1195437 0.23184635 0.80800325
1.1118122 0.23024523 0.73031557
1.1088111 0.22962375 0.658719
1.1166283 0.2312426 0.60313195
1.1118796 0.23025918 0.54617262
1.109825 0.22983372 0.42375094
1.1097696 0.22982225 0.24737239
1.0808073 0.22382444 -0.38814697
1.0885406 0.22542591 -0.45195422
1.0860035 0.22490051 -0.5083465
1.0695658 0.22149642 -0.56556922
1.0823857 0.22415128 -0.62537789
1.074893 0.22259964 -0.67760938
1.0731668 0.22224218 -0.73574543
1.0686392 0.22130454 -0.79469144
1.0633985 0.22021924 -0.99075079
1.0219785 0.21164158 -1.2520654
1.146 0.20929676 1.6256933
1.1519153 0.21037708 1.5089508
1.150838 0.21018034 1.3942009
1.1560944 0.21114033 1.2966747
1.1450542 0.20912404 1.1975049
1.1524023 0.21046603 1.1044334
1.146579 0.20940252 1.0065322
1.1346469 0.20722331 0.9113369
1.1336833 0.20704734 0.82963455
1.1222093 0.20495181 0.75864422
1.1115887 0.20301214 0.68231708
1.1318412 0.2067109 0.62634349
1.1311293 0.20658088 0.56237972
1.1287398 0.2061445 0.49593425
1.1112516 0.20295058 0.43362522
1.1194718 0.20445184 0.38076559
1.1256371 0.20557784 0.32677045
1.1055409 0.2019076 -0.35973987
1.104813 0.20177467 -0.42270005
1.08814 0.19872965 -0.46525037
1.1025584 0.20136292 -0.57568908
1.089379 0.19895591 -0.62174767
1.0987842 0.20067362 -0.6844731
1.0838865 0.19795282 -0.7449193
1.0842453 0.19801836 -0.81369579
1.0789052 0.19704308 -0.88613635
1.0830507 0.19780017 -0.97405148
1.0483913 0.19147027 -1.1254841
1.0804937 0.1973332 -1.2579718
