# .PCD v0.7 - Point Cloud Data file format
VERSION 0.7
FIELDS x y z
SIZE 4 4 4
TYPE F F F
COUNT 1 1 1
WIDTH 1502
HEIGHT 1
VIEWPOINT 0 0 0 1 0 0 0
POINTS 1502
DATA ascii
0.016347636 0.34665078 1.8171588
0.019921694 0.4224385 1.8318157
0.022984704 0.48738948 1.8052211
0.02704918 0.57357651 1.8006605
0.031373583 0.66527516 1.8114427
0.035424925 0.75118375 1.8099912
0.039908465 0.84625697 1.8116999
0.045432284 0.96338928 1.8428828
0.049367543 1.0468363 1.8198068
0.0546702 1.1592788 1.8217255
0.06080468 1.2893602 1.8306975
0.066806525 1.416629 1.8234032
0.073304325 1.5544145 1.8139796
0.07399825 1.5691292 1.6662706
0.075743526 1.6061376 1.5595464
0.075706795 1.6053587 1.4281428
0.075146511 1.593478 1.303373
0.07624466 1.6167641 1.2252185
0.075688459 1.6049699 1.1224718
0.075671069 1.6046013 1.0332613
0.077423826 1.6417683 0.97298634
0.077459611 1.6425271 0.89050806
0.078582197 1.6663314 0.82265699
0.079220451 1.6798656 0.74657607
0.07939788 1.683628 0.65969163
0.080232076 1.7013171 0.58230823
0.080021732 1.6968567 0.49716553
0.081358798 1.7252091 0.43062097
0.080690369 1.7110351 0.35825676
0.081275851 1.7234502 0.29259816
0.081731036 1.7331024 0.22842084
0.082082123 1.7405472 0.16204388
0.082336955 1.7459509 0.085883684
0.082431383 1.7479533 0.01908916
0.083347432 1.7673781 -0.04824784
0.083205841 1.7643757 -0.11382142
0.083351113 1.7674561 -0.19378303
0.08473593 1.796821 -0.27686456
0.090996943 1.9295856 -0.38641849
0.091561593 1.9415588 -0.47113237
0.091554455 1.9414076 -0.55041319
0.091841839 1.9475015 -0.63348484
0.092441387 1.9602149 -0.71910506
0.091704018 1.9445789 -0.81382006
0.092170171 1.9544637 -0.91497326
0.089251541 1.8925744 -0.9731887
0.08948873 1.897604 -1.0693414
0.09120661 1.9340316 -1.2039948
0.091688298 1.9442457 -1.3345793
0.090364881 1.9161826 -1.4422476
0.088070616 1.867533 -1.5207446
0.082088269 1.7406776 -1.5315689
0.075225912 1.5951616 -1.5421416
0.051702794 1.0963551 -1.1641874
0.058201864 1.2341676 -1.4434136
0.026753273 0.37785083 1.8312327
0.032510072 0.45915717 1.8124619
0.038062792 0.53758121 1.7906585
0.045079388 0.63668036 1.8214022
0.052056357 0.73521984 1.8592316
0.056744296 0.80143011 1.8206015
0.063160099 0.89204395 1.8335398
0.068917193 0.97335452 1.825577
0.0755696 1.06731 1.8301746
0.081967361 1.1576689 1.8217255
0.090337247 1.2758813 1.826709
0.098166749 1.3864616 1.8073426
0.10727774 1.5151411 1.8062223
0.1102658 1.557343 1.6889417
0.1118319 1.5794619 1.5560186
0.11127049 1.5715327 1.4185569
0.11260671 1.590405 1.3201635
0.11215729 1.5840576 1.2158052
0.11353519 1.6035184 1.1387442
0.1134541 1.602373 1.0332613
0.11469898 1.6199553 0.9470951
0.11612374 1.6400778 0.86963212
0.1167779 1.6493169 0.78422993
0.11750807 1.6596295 0.71268642
0.11694889 1.6517318 0.62530369
0.11867855 1.6761608 0.55614793
0.11941315 1.6865361 0.48881158
0.11855528 1.6744198 0.41852489
0.11975808 1.6914076 0.34307188
0.120701 1.704725 0.26878247
0.12208562 1.7242807 0.1988744
0.12399109 1.7511927 0.12470183
0.12355487 1.7450317 0.04580966
0.12358481 1.7454545 -0.024800299
0.12342784 1.7432376 -0.091587923
0.12443425 1.7574515 -0.16964698
0.12523006 1.7686913 -0.24525209
0.12574476 1.7759607 -0.32596284
0.13373634 1.8888302 -0.42194211
0.1338671 1.8906769 -0.49901983
0.13449576 1.8995558 -0.57766652
0.13350841 1.8856109 -0.65318221
0.13513398 1.9085697 -0.76334834
0.13556027 1.9145904 -0.85203701
0.13506632 1.9076141 -0.93790495
0.12995295 1.8353953 -0.99122977
0.13344797 1.8847574 -1.1268901
0.13476376 1.9033409 -1.2480112
0.13448784 1.8994437 -1.3771443
0.13434052 1.8973632 -1.4961168
0.1269801 1.7934079 -1.5287787
0.11701418 1.6526541 -1.5517545
0.098292246 1.3882341 -1.422408
0.084859304 1.1985135 -1.3402852
0.064984418 0.91780978 -1.1464301
0.033399485 0.35332966 1.8258265
0.03974776 0.4204874 1.8114111
0.046721119 0.49425781 1.813264
0.05405093 0.5717991 1.8215994
0.061798923 0.65376431 1.8042098
0.070931368 0.75037551 1.8309302
0.080126964 0.84765476 1.8207583
0.089890972 0.95094717 1.8251628
0.10060384 1.0642775 1.8423063
0.11130267 1.1774592 1.843177
0.12038977 1.2735907 1.814352
0.13288696 1.4057971 1.8155097
0.14154394 1.4973786 1.7532606
0.14395888 1.5229259 1.622613
0.14554609 1.5397168 1.4935155
0.14858419 1.5718565 1.3846263
0.14566788 1.5410053 1.2506733
0.1477931 1.5634878 1.1727163
0.14946477 1.5811721 1.0788674
0.14814569 1.5672177 0.97179288
0.15199386 1.607927 0.90220213
0.15202211 1.6082259 0.81645489
0.15116377 1.5991458 0.71936256
0.15316358 1.6203015 0.64316708
0.1547685 1.6372797 0.56829727
0.15790759 1.6704878 0.49702686
0.15692884 1.6601337 0.42157948
0.15946779 1.6869929 0.3486042
0.15888865 1.6808665 0.27118701
0.16080555 1.7011451 0.19658849
0.1623982 1.7179936 0.12257623
0.16181083 1.7117798 0.04502435
0.16278258 1.7220598 -0.030192664
0.16249286 1.718995 -0.10748246
0.16382453 1.7330825 -0.17912738
0.16492547 1.7447292 -0.24823293
0.16483942 1.7438188 -0.3167395
0.17648983 1.8670675 -0.41147357
0.17761612 1.8789823 -0.49028361
0.17572507 1.8589772 -0.56198275
0.17542414 1.8557936 -0.63730401
0.17476405 1.8488106 -0.71516216
0.17770039 1.8798736 -0.82346684
0.17885034 1.8920389 -0.9166795
0.17232986 1.8230594 -0.98648703
0.17411146 1.8419068 -1.0952464
0.17852551 1.8886026 -1.2466792
0.1780965 1.8840642 -1.3592217
0.17826498 1.8858465 -1.4899344
0.16682599 1.7648348 -1.5274578
0.15512033 1.6410017 -1.5607535
0.1274776 1.3485721 -1.4027126
0.10476153 1.1082612 -1.2582456
0.074219801 0.78516346 -0.98265445
0.044986922 0.38009259 1.8201939
0.053813923 0.45467156 1.8027695
0.062858544 0.53108913 1.8127584
0.071464099 0.60379708 1.8106413
0.082603812 0.69791609 1.8189529
0.091628782 0.77416766 1.798296
0.10268161 0.86755252 1.8213207
0.11242127 0.94984257 1.8131907
0.12317915 1.0407354 1.8198068
0.13577852 1.1471869 1.8132915
0.14966503 1.2645135 1.8185176
0.16336906 1.3802983 1.8073426
0.1762621 1.489231 1.7832619
0.17632368 1.4897513 1.6228528
0.1794039 1.5157759 1.4999459
0.17906198 1.512887 1.3717177
0.18245894 1.5415878 1.2768382
0.18082039 1.5277438 1.1487832
0.18293761 1.5456321 1.0722198
0.1825249 1.5421451 0.98695147
0.18377469 1.5527045 0.9118309
0.18358196 1.5510762 0.83268255
0.18708476 1.5806712 0.77419502
0.18827082 1.5906922 0.70480669
0.19020188 1.6070076 0.63949186
0.19182406 1.6207134 0.57392669
0.19233443 1.6250254 0.4963868
0.19241916 1.6257412 0.41957164
0.19571489 1.6535867 0.34255904
0.19612437 1.6570464 0.26801524
0.19740991 1.667908 0.18764967
0.19935678 1.6843569 0.11488593
0.19739516 1.6677833 0.043977272
0.20095834 1.6978884 -0.029843615
0.20060067 1.6948665 -0.10623989
0.20116928 1.6996707 -0.17044164
0.20123541 1.7002294 -0.24824223
0.2032354 1.7171273 -0.3282823
0.21405323 1.8085265 -0.42463261
0.21432334 1.8108088 -0.49712899
0.21530151 1.8190733 -0.57534134
0.21477695 1.8146412 -0.65157342
0.21449845 1.8122882 -0.74195814
0.21925668 1.8524903 -0.85012114
0.21887857 1.8492957 -0.94884014
0.20345093 1.7189484 -0.9817965
0.21603484 1.8252692 -1.1346017
0.21568456 1.8223096 -1.249427
0.215666 1.8221527 -1.3701633
0.21643618 1.82866 -1.5078322
0.20236732 1.7097929 -1.5400506
0.18457845 1.5594954 -1.5264353
0.15319455 1.2943342 -1.3824725
0.12122342 1.0242115 -1.1969527
0.046634786 0.32767308 1.8303157
0.057281766 0.40248266 1.815028
0.067442611 0.47387648 1.8180463
0.080922313 0.56858981 1.842568
0.091692202 0.64426297 1.8063549
0.10459106 0.73489505 1.8031888
0.11853739 0.83288711 1.8144553
0.13439162 0.94428468 1.8371623
0.1483676 1.0424851 1.8284725
0.16268224 1.143065 1.8255237
0.17937779 1.2603741 1.8308961
0.19672166 1.3822384 1.827763
0.21589795 1.516978 1.8341935
0.21677604 1.5231478 1.682685
0.22094019 1.5524067 1.5715022
0.21646211 1.520942 1.417032
0.21729416 1.5267882 1.320076
0.21650463 1.5212409 1.2167794
0.21720354 1.5261515 1.1277339
0.21710981 1.5254931 1.0417937
0.21776961 1.5301291 0.96108347
0.21910651 1.5395225 0.88654536
0.22108947 1.5534556 0.81902087
0.2247518 1.5791885 0.74380815
0.22681083 1.5936559 0.66061896
0.22676799 1.5933549 0.57783759
0.23033553 1.6184218 0.50175339
0.22793803 1.6015761 0.4146063
0.23047835 1.6194253 0.33651388
0.23244776 1.6332631 0.25946054
0.23533487 1.653549 0.18108912
0.23336133 1.6396822 0.11218274
0.23665191 1.6628031 0.038495801
0.23666327 1.6628828 -0.034802169
0.2375787 1.669315 -0.11421014
0.2381084 1.6730368 -0.18507369
0.2383336 1.6746191 -0.25089434
0.24239944 1.7031872 -0.32077396
0.25698838 1.8056943 -0.4127042
0.25594348 1.7983527 -0.48458278
0.25727674 1.8077205 -0.56040615
0.25407451 1.7852206 -0.62970912
0.25574967 1.796991 -0.71268201
0.25498959 1.7916502 -0.80334914
0.25976056 1.8251728 -0.91916752
0.24770235 1.7404474 -0.97446734
0.25332305 1.7799405 -1.1044182
0.25855789 1.8167224 -1.249427
0.25514868 1.7927681 -1.3522136
0.25618842 1.8000736 -1.4888259
0.24292725 1.7068958 -1.5523831
0.2238718 1.5730052 -1.5647479
0.17756826 1.2476597 -1.3543688
0.13018672 0.91473955 -1.0914224
0.058270689 0.35008842 1.8258265
0.069346257 0.41663009 1.8114111
0.081512384 0.48972377 1.813264
0.093806677 0.56358749 1.8120623
0.10730437 0.64468122 1.8266011
0.12312599 0.73973697 1.821683
0.1381271 0.82986319 1.8144553
0.15584491 0.93631119 1.8282871
0.17353584 1.0425977 1.8492634
0.18956742 1.1389148 1.8255237
0.20902213 1.2557982 1.8308961
0.23021048 1.3830972 1.8231965
0.25255921 1.5173676 1.8291827
0.26302236 1.5802299 1.7330011
0.26114714 1.5689635 1.5630276
0.25714105 1.5448952 1.4288379
0.26358703 1.5836223 1.3381935
0.25986156 1.56124 1.2062761
0.2564905 1.5409865 1.0989418
0.2601482 1.5629619 1.0118661
0.25862134 1.5537885 0.91173255
0.2554397 1.5346736 0.82287771
0.25812289 1.550794 0.74566126
0.26242173 1.5766213 0.66204232
0.26547486 1.5949643 0.58652532
0.26628989 1.599861 0.50944513
0.26318553 1.5812101 0.43140242
0.26602462 1.5982673 0.36107153
0.26840952 1.6125957 0.28825599
0.26859063 1.6136838 0.21536821
0.2716141 1.6318487 0.13746162
0.27230346 1.6359904 0.070613556
0.27419138 1.6473329 -0.0036433719
0.27386189 1.6453533 -0.081928462
0.27783263 1.6692095 -0.16293778
0.27648538 1.6611152 -0.23292097
0.27644122 1.6608499 -0.2987605
0.29369065 1.764484 -0.38631853
0.29582635 1.777315 -0.46177706
0.29429132 1.7680928 -0.53304857
0.29395437 1.7660683 -0.60555238
0.29301238 1.760409 -0.68059093
0.29455292 1.7696644 -0.78938353
0.29435208 1.7684578 -0.88651788
0.29112029 1.7490412 -0.9677313
0.28232229 1.6961832 -1.0408442
0.29509184 1.7729021 -1.1980562
0.29526895 1.7739662 -1.3186206
0.29578805 1.7770851 -1.4458833
0.28405765 1.7066091 -1.5306523
0.26170641 1.5723236 -1.5595539
0.21773952 1.308172 -1.4159364
0.13932924 0.83708555 -0.99798554
0.074347705 0.38974431 1.8274221
0.090644531 0.47517526 1.8373873
0.10594393 0.55537754 1.8139272
0.12384465 0.64921641 1.8345791
0.14010666 0.73446482 1.8333935
0.15730633 0.82462865 1.8262919
0.17674185 0.92651325 1.8313754
0.19431326 1.0186257 1.8375919
0.21410391 1.122372 1.8330413
0.23561735 1.2351495 1.8295602
0.25936845 1.359657 1.8368617
0.28359523 1.4866583 1.8238204
0.30894384 1.6195403 1.8391691
0.33154488 1.7380191 1.8083881
0.3336888 1.7492579 1.6533748
0.32064801 1.6808957 1.4454669
0.30791119 1.6141269 1.2752196
0.29981858 1.571704 1.1492411
0.29844633 1.5645105 1.0541997
0.30096456 1.5777115 0.97706038
0.30263859 1.5864871 0.90220213
0.30386353 1.5929083 0.82626271
0.30614886 1.6048886 0.75538445
0.3026816 1.5867125 0.67322171
0.30613664 1.6048245 0.59868079
0.30927143 1.6212575 0.51843536
0.30451322 1.5963141 0.425973
0.3060886 1.6045727 0.34721252
0.30695301 1.609104 0.26863402
0.30715305 1.6101527 0.1885878
0.30847234 1.6170686 0.11150694
0.31098613 1.6302463 0.034416825
0.31281051 1.6398102 -0.045521971
0.31206632 1.6359088 -0.12376118
0.31455985 1.6489804 -0.19497629
0.31113681 1.6310363 -0.25556728
0.32012135 1.6781349 -0.33012938
0.33343324 1.7479182 -0.42720503
0.33502781 1.7562773 -0.51268548
0.3340725 1.7512693 -0.59653276
0.33139473 1.737232 -0.69440812
0.33054155 1.7327595 -0.78306258
0.33425516 1.7522268 -0.88208526
0.33165288 1.7385852 -0.97351313
0.31516466 1.6521509 -1.0256552
0.33594742 1.7610981 -1.1866645
0.33330503 1.7472463 -1.2775517
0.33580109 1.760331 -1.4095646
0.3298198 1.7289759 -1.5266831
0.30886379 1.6191207 -1.5607535
0.26423699 1.3851787 -1.4602598
0.18802996 0.98568755 -1.1416938
0.070917815 0.32939932 1.8292258
0.087277927 0.4053888 1.8234425
0.10199099 0.47372809 1.8164744
0.11713266 0.5440582 1.8062061
0.13433871 0.62397689 1.8214022
0.14999944 0.69671792 1.815099
0.16864495 0.78332269 1.7996845
0.18845285 0.8753264 1.8107151
0.21343745 0.99137503 1.8389182
0.23449995 1.0892062 1.827085
0.25968027 1.2061638 1.8335308
0.28001633 1.3006208 1.8021033
0.30986044 1.4392408 1.8059547
0.33734348 1.5668941 1.7997618
0.37177908 1.7268407 1.8252127
0.38206875 1.7746342 1.7189231
0.38831607 1.8036517 1.5967627
0.38544708 1.790326 1.440508
0.38210678 1.7748108 1.2949675
0.37720916 1.7520624 1.1694403
0.37910607 1.7608732 1.0796314
0.37570176 1.7450607 0.96670127
0.36112216 1.6773415 0.839176
0.35741609 1.6601274 0.73398268
0.34931391 1.6224945 0.64334416
0.34613732 1.6077398 0.56829727
0.34440926 1.5997132 0.4963868
0.34688786 1.6112258 0.41667739
0.34840101 1.6182542 0.34054399
0.35137805 1.632082 0.26256785
0.34709352 1.6121812 0.18973075
0.35060447 1.6284888 0.11832502
0.35136738 1.6320324 0.043715503
0.35351667 1.6420155 -0.034802169
0.35488409 1.6483668 -0.11421014
0.35123146 1.6314011 -0.19382258
0.35100985 1.6303717 -0.27345976
0.36275083 1.6849062 -0.3565146
0.36729464 1.7060114 -0.44115734
0.36680594 1.7037416 -0.52451718
0.36362845 1.6889827 -0.60333389
0.36439505 1.6925434 -0.67978901
0.36462697 1.6936206 -0.75551087
0.36587307 1.6994085 -0.83847934
0.36630982 1.7014371 -0.92294586
0.34974703 1.6245061 -0.96179873
0.35600364 1.653567 -1.067229
0.36800289 1.709301 -1.1988595
0.36515576 1.6960768 -1.2866954
0.36639807 1.701847 -1.4254715
0.35818118 1.6636811 -1.5323091
0.33290976 1.5463004 -1.557731
0.23943582 1.1121323 -1.2225925
0.166336 0.77259803 -0.92942166
0.07781291 0.32411408 1.8095566
0.097675629 0.40684828 1.8123283
0.11728485 0.48852658 1.8116252
0.13679591 0.56979597 1.7968638
0.15605193 0.65000308 1.7998732
0.17465957 0.72750944 1.8007566
0.19402701 0.80818063 1.8081199
0.21422172 0.89229763 1.8107495
0.23813461 0.99190199 1.8355986
0.2627089 1.0942613 1.8319597
0.28942803 1.2055545 1.8294725
0.31335232 1.3052063 1.8057538
0.34802601 1.4496326 1.8165746
0.37727061 1.5714451 1.8146975
0.41538468 1.7302016 1.8265699
0.41956767 1.7476251 1.6796932
0.42011085 1.7498876 1.5574981
0.42092958 1.7532978 1.4278532
0.41458473 1.7268697 1.2814603
0.41553375 1.7308227 1.1698225
0.4110108 1.7119832 1.0500873
0.41127971 1.7131033 0.94663936
0.40936333 1.705121 0.85292667
0.40811968 1.6999408 0.76924616
0.40703231 1.6954117 0.6758728
0.40865061 1.7021523 0.59848344
0.40697613 1.6951777 0.52263105
0.40907735 1.7039298 0.45318779
0.41043863 1.7096 0.38575646
0.40438563 1.6843873 0.31130636
0.40224189 1.675458 0.2421612
0.40432489 1.6841344 0.16677161
0.40099826 1.670278 0.088159122
0.40151429 1.6724274 0.013148485
0.39429724 1.6423662 -0.057122994
0.3979952 1.6577693 -0.13229053
0.40090403 1.6698855 -0.20894578
0.39601934 1.6495392 -0.28388187
0.40006009 1.6663702 -0.35448894
0.40578428 1.6902132 -0.42733896
0.4057855 1.6902182 -0.50457954
0.40291479 1.6782609 -0.5774945
0.40015104 1.6667491 -0.64087951
0.40380287 1.68196 -0.73644674
0.40223736 1.6754391 -0.8241412
0.40764326 1.6979563 -0.93336552
0.38845783 1.6180433 -0.97771996
0.3915675 1.6309961 -1.0892781
0.40100867 1.6703212 -1.2252833
0.40436402 1.6842973 -1.3563304
0.40435591 1.6842636 -1.4826168
0.37970659 1.5815918 -1.5401267
0.27636307 1.1511351 -1.2339414
0.24258995 1.0104599 -1.1901768
0.12363201 0.5149644 -0.70279926
0.085891642 0.32394192 1.8193911
0.10475165 0.39507276 1.8247862
0.12202082 0.46020377 1.808376
0.14185822 0.53502095 1.8175888
0.16511372 0.62272942 1.819298
0.18817507 0.70970577 1.8172804
0.20686157 0.78018224 1.7970598
0.23288524 0.87833101 1.8376069
0.26113829 0.9848879 1.847675
0.2884165 1.0877682 1.8319597
0.32072356 1.2096149 1.8336761
0.34703729 1.3088576 1.79693
0.38788524 1.4629164 1.8238204
0.42409173 1.5994698 1.8337781
0.45066741 1.6997005 1.8050809
0.45735067 1.7249064 1.6786983
0.45559996 1.7183036 1.521664
0.45353881 1.71053 1.3733133
0.44859567 1.6918869 1.2485113
0.4497709 1.6963192 1.1533462
0.44317663 1.6714488 1.0441519
0.44606993 1.6823609 0.96477115
0.44374403 1.6735888 0.87509531
0.44207859 1.6673075 0.7724973
0.43980256 1.6587235 0.69116569
0.44142056 1.6648257 0.61838758
0.43966585 1.6582079 0.54501438
0.43726471 1.6491519 0.47116598
0.44155616 1.6653372 0.40568468
0.44007832 1.6597636 0.3376627
0.44052842 1.6614611 0.27033612
0.4380919 1.6522717 0.19098073
0.43459693 1.6390903 0.12045063
0.44058171 1.661662 0.056276821
0.43566602 1.6431224 -0.018543756
0.43772712 1.650896 -0.083890818
0.43892455 1.6554121 -0.1592361
0.43412179 1.6372983 -0.23429111
0.43361041 1.6353697 -0.30975473
0.43994698 1.6592681 -0.3884275
0.44260389 1.6692888 -0.47082588
0.4401218 1.6599275 -0.53938252
0.43693721 1.6479168 -0.60791129
0.43800101 1.6519288 -0.6818257
0.44038337 1.6609139 -0.76277596
0.43489978 1.6402326 -0.8322255
0.44223782 1.6679081 -0.92957431
0.42426103 1.6001084 -0.97265404
0.42091009 1.5874702 -1.0513197
0.44398868 1.6745116 -1.2045685
0.4383817 1.6533647 -1.2860042
0.44298056 1.6707094 -1.4248152
0.43234447 1.6305952 -1.5189265
0.32791007 1.2367189 -1.2518393
0.29155862 1.0996187 -1.2225925
0.24073055 0.9079197 -1.1046405
0.1034567 0.35610029 1.82266
0.12542705 0.43172273 1.8460454
0.14576185 0.50171554 1.837154
0.16435012 0.56569684 1.806371
0.18813594 0.64756817 1.7976819
0.2174838 0.74858415 1.8309622
0.23920786 0.82335883 1.8179549
0.26814899 0.92297482 1.8220356
0.29992354 1.0323435 1.8388075
0.3312498 1.1401693 1.8283018
0.36345488 1.25102 1.8222101
0.39898714 1.3733227 1.8140821
0.44111347 1.5183225 1.81885
0.48036316 1.6534208 1.826349
0.48951671 1.6849276 1.7242368
0.48640671 1.6742228 1.5905931
0.49504164 1.7039446 1.479056
0.49038059 1.687901 1.3396332
0.48826456 1.6806177 1.2140931
0.48034 1.6533412 1.0942287
0.48200485 1.6590716 1.007548
0.4825331 1.6608899 0.92206657
0.4807108 1.6546174 0.82417125
0.48023969 1.6529958 0.73066723
0.4750222 1.6350372 0.64296764
0.47726566 1.6427592 0.55996406
0.47825223 1.646155 0.47942528
0.47795293 1.6451247 0.4033927
0.48179731 1.6583571 0.33959222
0.47727433 1.642789 0.25759146
0.47718051 1.6424661 0.18166973
0.47320059 1.6287671 0.11488593
0.47403094 1.6316252 0.05562244
0.47425666 1.6324022 -0.018543756
0.4736349 1.630262 -0.088971123
0.47512114 1.6353776 -0.15459532
0.4704279 1.6192235 -0.216363
0.470532 1.6195817 -0.28223142
0.47505546 1.6351516 -0.35805234
0.47525075 1.6358238 -0.44251239
0.47286239 1.6276031 -0.5101074
0.46990007 1.6174067 -0.57583815
0.47123766 1.6220106 -0.65047413
0.47165561 1.6234493 -0.72632867
0.47390044 1.631176 -0.80565697
0.46992433 1.6174901 -0.87914556
0.4650619 1.6007537 -0.95273566
0.44358701 1.5268365 -1.0031953
0.4706361 1.61994 -1.1648159
0.47380865 1.6308601 -1.2855742
0.4744783 1.633165 -1.411291
0.46167415 1.5890929 -1.5097154
0.34189954 1.176826 -1.2068907
0.31548396 1.0859029 -1.2152715
0.27651227 0.95176142 -1.1655862
0.1142216 0.36116534 1.8312327
0.13594308 0.42984802 1.8251438
0.16211456 0.51260149 1.8223498
0.18869451 0.59664649 1.8045795
0.21780667 0.68869829 1.8220469
0.24832535 0.78519744 1.8335483
0.28079632 0.88786972 1.8375094
0.31836417 1.0066582 1.8614198
0.34613562 1.0944706 1.8415277
0.37574455 1.1880933 1.8130776
0.42101058 1.331223 1.8528343
0.4564881 1.4434021 1.8364666
0.49112055 1.5529088 1.816831
0.52472675 1.6591705 1.7669791
0.52813989 1.6699628 1.6261588
0.52375692 1.6561041 1.4769557
0.52646571 1.6646692 1.3549207
0.52288675 1.6533525 1.2368973
0.5213213 1.6484026 1.1200862
0.51017874 1.6131701 1.0091083
0.51796287 1.6377834 0.92297333
0.5097872 1.6119322 0.82230878
0.51060212 1.614509 0.74508137
0.50888848 1.6090903 0.65418702
0.51358181 1.6239307 0.58230823
0.50835484 1.6074032 0.50540143
0.50504452 1.596936 0.43315741
0.50659502 1.6018386 0.36861175
0.50453198 1.5953152 0.30069363
0.50463974 1.5956562 0.23520254
0.50425154 1.5944287 0.16102086
0.5029065 1.5901755 0.08559636
0.50355369 1.592222 0.012766261
0.50026697 1.5818295 -0.056108978
0.50230342 1.5882686 -0.11829595
0.50057536 1.5828046 -0.18180768
0.50408417 1.5938994 -0.24795991
0.49738237 1.5727085 -0.31874561
0.50138301 1.5853584 -0.39919156
0.50145245 1.5855778 -0.47685263
0.50042224 1.5823205 -0.55528313
0.49992272 1.580741 -0.61986709
0.49939111 1.57906 -0.70510858
0.49780226 1.5740361 -0.78962219
0.49729422 1.5724298 -0.88151193
0.49136603 1.5536849 -0.95745629
0.4703773 1.4873191 -1.0130286
0.50570267 1.599017 -1.1962481
0.50331795 1.5914766 -1.3070093
0.50168347 1.5863085 -1.4240924
0.3961471 1.2526056 -1.2304661
0.36088818 1.1411178 -1.2073151
0.3344951 1.0576637 -1.2079158
0.29499969 0.93278033 -1.1633126
0.11946701 0.34893459 1.8332682
0.14140382 0.41300678 1.8183317
0.17027919 0.49734479 1.8258294
0.19797666 0.57824248 1.820121
0.2253103 0.65807754 1.800297
0.25122839 0.73377806 1.789121
0.28541207 0.83362043 1.806576
0.31646782 0.9243269 1.8135787
0.34688509 1.0131685 1.8180375
0.38635558 1.1284523 1.8366885
0.4219825 1.2325101 1.8222101
0.46729699 1.3648628 1.8423852
0.51038861 1.4907233 1.8367492
0.54721332 1.5982794 1.8156158
0.55448216 1.6195099 1.6821822
0.55768865 1.6288754 1.5400807
0.55435479 1.6191378 1.3982788
0.55146283 1.6106912 1.2800245
0.55358315 1.6168841 1.1855932
0.5459953 1.5947218 1.0764533
0.54458511 1.590603 0.98788112
0.54784483 1.6001239 0.90877378
0.54122043 1.5807756 0.81720805
0.54474247 1.5910625 0.74657607
0.5429461 1.5858159 0.65604693
0.53943872 1.5755717 0.56936806
0.54144257 1.5814242 0.48325691
0.5351631 1.5630835 0.40046251
0.54031193 1.578122 0.32801521
0.53784782 1.5709249 0.25556728
0.53417921 1.5602099 0.18973075
0.53932017 1.5752252 0.12922508
0.53746957 1.5698202 0.048898447
0.53764892 1.570344 -0.023524854
0.53677034 1.5677779 -0.097725533
0.53487867 1.5622528 -0.16991512
0.53188378 1.5535054 -0.24355826
0.53496128 1.562494 -0.30794299
0.53392231 1.5594594 -0.37297866
0.5343945 1.5608387 -0.44978338
0.53043175 1.5492643 -0.5261389
0.5279237 1.541939 -0.60936081
0.53793812 1.5711887 -0.6942541
0.53189898 1.5535498 -0.76135838
0.53393316 1.5594913 -0.83988243
0.53447407 1.561071 -0.92168039
0.51438963 1.5024092 -0.9683851
0.51320928 1.4989616 -1.0486803
0.53407449 1.559904 -1.1842146
0.53949511 1.5757362 -1.2954152
0.53054929 1.5496076 -1.3927432
0.41524041 1.2128179 -1.205922
0.38381797 1.1210406 -1.2189963
0.35330364 1.0319154 -1.2247151
0.27279094 0.7967571 -1.0422875
0.12628938 0.34232232 1.8136611
0.15028693 0.40737054 1.8086081
0.17687343 0.47943643 1.8196034
0.20397627 0.55290192 1.8273185
0.22728769 0.61609024 1.8042098
0.25824043 0.69999129 1.812436
0.28767353 0.77977329 1.8081199
0.32646462 0.88492107 1.8313754
0.36754286 0.99626851 1.8579454
0.40332121 1.09325 1.8424268
0.44458476 1.2050997 1.8473167
0.48107937 1.3040227 1.8073426
0.53001386 1.4366654 1.8088609
0.578942 1.5692909 1.8174301
0.59549135 1.6141499 1.7018548
0.58947563 1.5978436 1.5606134
0.59126455 1.6026926 1.4334164
0.58242291 1.5787264 1.3058739
0.58463788 1.5847303 1.1965486
0.57637393 1.5623299 1.0711294
0.57892406 1.5692424 0.98281503
0.57014674 1.5454503 0.88510776
0.56898528 1.5423021 0.80402726
0.57258594 1.552062 0.73440361
0.57544351 1.5598079 0.66329783
0.57837462 1.567753 0.58355242
0.57024801 1.5457247 0.49391505
0.56709528 1.5371791 0.41422632
0.57293922 1.5530198 0.34054399
0.56698114 1.5368696 0.26863402
0.56668311 1.5360618 0.20465684
0.56207687 1.5235759 0.14030667
0.566948 1.5367798 0.080485277
0.56757486 1.5384789 0.023270043
0.56400836 1.5288116 -0.039113436
0.56653541 1.5356613 -0.10189088
0.5678997 1.5393596 -0.17424755
0.56175774 1.522711 -0.2353279
0.56175584 1.5227059 -0.29714844
0.56080019 1.5201154 -0.36104327
0.56566173 1.5332932 -0.43027729
0.55975062 1.5172704 -0.4905811
0.56267732 1.5252036 -0.5617367
0.5630728 1.5262755 -0.64492786
0.56626338 1.5349241 -0.72626013
0.56246871 1.5246382 -0.79699904
0.56067348 1.5197721 -0.87266159
0.55505657 1.5045468 -0.9422586
0.53054047 1.4380928 -0.98123175
0.55697787 1.5097545 -1.1189357
0.55883348 1.5147845 -1.2138917
0.56352282 1.5274955 -1.3421251
0.46162415 1.251287 -1.2087945
0.42524657 1.1526814 -1.2179455
0.38628769 1.0470786 -1.2152811
0.33950821 0.92027724 -1.1741908
0.13431935 0.33925197 1.8136611
0.1650797 0.4169437 1.8154356
0.19687158 0.49724084 1.8127584
0.22837643 0.57681304 1.8275752
0.25688356 0.64881384 1.7887011
0.29576468 0.74701631 1.8206015
0.33140656 0.83703744 1.8306113
0.37153402 0.93838781 1.8301615
0.40631774 1.0262415 1.8100095
0.45640472 1.1527467 1.8294725
0.49629831 1.2535064 1.8013632
0.55026662 1.3898149 1.8133178
0.59465688 1.5019318 1.8019389
0.61272734 1.5475726 1.7011714
0.61590242 1.5555921 1.5636169
0.61410391 1.5510494 1.4342672
0.61023164 1.5412693 1.3215545
0.60464877 1.5271685 1.2098579
0.59988862 1.5151458 1.106963
0.59586775 1.5049901 1.0139263
0.60010731 1.5156981 0.93644571
0.60149699 1.519208 0.84605473
0.60387778 1.5252212 0.76493907
0.60061073 1.5169694 0.6862728
0.59923369 1.5134915 0.61470532
0.60743612 1.5342085 0.55211008
0.59708452 1.5080633 0.47469476
0.59244663 1.4963493 0.4068732
0.59773302 1.5097014 0.34513339
0.59907532 1.5130916 0.27232856
0.59906226 1.5130585 0.2034165
0.59781593 1.5099107 0.14030667
0.59949988 1.5141639 0.069337413
0.59636039 1.5062343 -0.0035342888
0.59941339 1.5139453 -0.07465215
0.6014269 1.5190309 -0.14293543
0.59540945 1.5038326 -0.20217615
0.59576827 1.5047389 -0.26536924
0.59521168 1.5033331 -0.32895708
0.59388971 1.4999943 -0.39103988
0.59150577 1.493973 -0.45504454
0.59868342 1.5121017 -0.52841908
0.59451526 1.5015742 -0.59179938
0.59598553 1.5052875 -0.66438735
0.60115099 1.518334 -0.75715202
0.59495896 1.5026948 -0.83685851
0.59016371 1.4905834 -0.9232378
0.5697397 1.4389982 -0.97651458
0.57123584 1.442777 -1.0789737
0.5826453 1.4715941 -1.2062484
0.55106467 1.3918304 -1.2339917
0.50082064 1.2649285 -1.2089394
0.46487752 1.1741465 -1.2115151
0.42669007 1.0776961 -1.2161031
0.38496602 0.97231317 -1.1977096
0.13995354 0.33051151 1.8148485
0.16789278 0.39649224 1.8197544
0.20265523 0.47858655 1.8275354
0.23477499 0.55443996 1.8126161
0.26386246 0.62313235 1.7861083
0.29856282 0.70508003 1.8259579
0.32475799 0.76694202 1.7963108
0.36366859 0.85883254 1.8255552
0.39629605 0.93588489 1.8147917
0.44114855 1.0418077 1.8282573
0.48809502 1.1526755 1.8213189
0.5349924 1.2634274 1.8084342
0.59497243 1.4050751 1.826519
0.6397056 1.5107161 1.8061322
0.64356381 1.5198275 1.6868758
0.64383441 1.5204666 1.5431328
0.64758015 1.5293124 1.4121768
0.64998358 1.5349883 1.2936121
0.63806683 1.506846 1.167213
0.63541889 1.5005927 1.0709642
0.6308713 1.4898531 0.97695404
0.63092113 1.4899708 0.89689779
0.6333673 1.4957477 0.82096571
0.63449317 1.4984065 0.74585271
0.63043088 1.488813 0.66969603
0.62896645 1.4853547 0.59709531
0.6276077 1.4821458 0.51522064
0.62448752 1.4747772 0.43663183
0.62340391 1.4722183 0.36543262
0.6328615 1.4945532 0.29714844
0.6335451 1.4961675 0.22294219
0.63673401 1.5036983 0.15185827
0.6388104 1.5086019 0.075110145
0.63558173 1.5009773 0.0017922783
0.63491523 1.4994031 -0.07465215
0.63297939 1.4948316 -0.14736278
0.63345069 1.4959445 -0.22470024
0.62543869 1.4770236 -0.29004797
0.6246236 1.4750987 -0.35146701
0.62271279 1.4705862 -0.41485536
0.62251943 1.4701295 -0.48998863
0.61774427 1.4588525 -0.5590539
0.62427831 1.4742832 -0.62862211
0.62724787 1.4812962 -0.71408814
0.62361807 1.4727241 -0.80391818
0.62296796 1.4711887 -0.89242071
0.6105144 1.4417787 -0.96651262
0.58791196 1.3884013 -1.0193632
0.58174187 1.3738301 -1.0939229
0.58386683 1.3788483 -1.185739
0.54802388 1.2942023 -1.2030004
0.51098645 1.2067355 -1.2193369
0.47097161 1.1122372 -1.2104603
0.43625382 1.0302484 -1.2263242
0.41172069 0.97231138 -1.2808968
0.14358225 0.31799945 1.8269813
0.17218129 0.38133931 1.8123283
0.20186442 0.44708014 1.8148746
0.23511612 0.52072448 1.8330212
0.26649064 0.59021139 1.8287245
0.29724473 0.65832412 1.8220469
0.33966973 0.75228506 1.8217276
0.3745783 0.82959896 1.8256661
0.41378364 0.91642916 1.8093758
0.46525368 1.0304227 1.8404804
0.50789124 1.1248544 1.8211944
0.55728322 1.2342455 1.821805
0.6110394 1.3533022 1.8214566
0.66260672 1.4675112 1.8199624
0.68217725 1.5108551 1.7354974
0.68298513 1.5126444 1.5923059
0.67561704 1.4963259 1.4493622
0.67240149 1.4892042 1.3350083
0.66934216 1.4824286 1.2312541
0.66794914 1.4793433 1.1339256
0.65758932 1.4563988 1.0278515
0.65511507 1.4509192 0.94242132
0.66453332 1.4717782 0.8609091
0.66821718 1.4799371 0.77670592
0.66860068 1.4807863 0.70224291
0.65995675 1.4616421 0.62165838
0.66120976 1.4644173 0.55523294
0.66157508 1.4652264 0.48767826
0.65680963 1.4546721 0.41836634
0.66369414 1.4699196 0.34834814
0.66095454 1.463852 0.27780592
0.66531211 1.473503 0.20748214
0.66436362 1.4714024 0.1341493
0.66193843 1.4660311 0.068486646
0.66253656 1.4673557 -0.0035124724
0.66193891 1.4660321 -0.068458572
0.66411644 1.4708549 -0.1411923
0.66094995 1.4638419 -0.21145242
0.66045147 1.4627379 -0.28478339
0.65471101 1.4500242 -0.35451838
0.65150481 1.4429232 -0.42791823
0.65172273 1.4434059 -0.49743053
0.64730853 1.4336295 -0.5608905
0.64977139 1.4390842 -0.62994766
0.65068913 1.4411167 -0.70191622
0.65396583 1.4483737 -0.77938581
0.65574163 1.4523067 -0.85843343
0.64677727 1.4324528 -0.93736762
0.6155799 1.3633584 -0.98306417
0.61354619 1.3588542 -1.0782747
0.61131883 1.3539212 -1.1684549
0.58311057 1.2914467 -1.2048849
0.54393166 1.2046751 -1.2218413
0.49830493 1.103623 -1.2215189
0.46704638 1.0343931 -1.2521975
0.50194001 1.1116738 -1.4698087
0.15965179 0.33247408 1.8332682
0.18997794 0.39562818 1.8280555
0.22120741 0.46066341 1.8196034
0.25940719 0.5402143 1.8240824
0.2990576 0.62278605 1.8235136
0.33064917 0.68857533 1.8050305
0.37371275 0.77825505 1.8151468
0.42182606 0.87845081 1.8376036
0.46098107 0.95999092 1.8215417
0.51222748 1.0667113 1.8308878
0.55884016 1.163782 1.8182985
0.61647415 1.2838045 1.8187648
0.68182874 1.4199052 1.8240283
0.7042619 1.4666221 1.7370765
0.70929348 1.4771004 1.5997428
0.70771146 1.4738058 1.4720874
0.70823777 1.4749018 1.3638049
0.69940418 1.4565059 1.2454013
0.70129251 1.4604384 1.1555989
0.69454879 1.4463946 1.0544879
0.69294149 1.4430474 0.96661592
0.69662195 1.450712 0.89204973
0.69539696 1.4481609 0.81194407
0.68863326 1.4340755 0.72918558
0.69186527 1.4408062 0.66204232
0.69011897 1.4371694 0.59015232
0.6870271 1.4307307 0.51952219
0.6865713 1.4297816 0.45480165
0.69047505 1.437911 0.38112456
0.69276404 1.4426779 0.30928707
0.69377542 1.444784 0.23595521
0.69371635 1.444661 0.15431166
0.69143862 1.4399177 0.092464864
0.68389797 1.4242144 0.017234785
0.68354785 1.4234853 -0.053404931
0.68188894 1.4200305 -0.12223335
0.69182307 1.4407183 -0.19445243
0.6830976 1.4225476 -0.26407617
0.6816954 1.4196274 -0.33473781
0.68233049 1.4209501 -0.41500118
0.67797917 1.4118885 -0.48632818
0.67682755 1.4094902 -0.55753189
0.67947495 1.4150034 -0.62624204
0.67654806 1.4089081 -0.69380152
0.67406303 1.4037331 -0.77638417
0.68147802 1.4191748 -0.8726573
0.67497647 1.4056352 -0.95786023
0.63473171 1.3218259 -0.99135876
0.63974732 1.3322709 -1.0960739
0.63973856 1.3322526 -1.1940844
0.59997386 1.2494427 -1.2101754
0.55806655 1.1621709 -1.2127739
0.51636428 1.0753262 -1.2112149
0.53874582 1.1219356 -1.3822494
0.47771141 0.99483174 -1.4093267
0.17551026 0.34445825 1.8091558
0.21009237 0.41232947 1.8221542
0.24407697 0.47902802 1.8223498
0.27892184 0.54741496 1.8296009
0.3136473 0.61556745 1.8235136
0.34854937 0.68406665 1.8142399
0.37885031 0.74353558 1.7845243
0.42943534 0.84281433 1.8074428
0.48304722 0.94803357 1.8336569
0.52958292 1.0393651 1.817928
0.58610344 1.1502928 1.8182985
0.64095134 1.2579379 1.803018
0.71509212 1.4034473 1.8240283
0.73241282 1.4374411 1.7224792
0.73415142 1.4408532 1.5787855
0.73764735 1.4477144 1.4534094
0.74180615 1.4558766 1.3350083
0.7238856 1.4207056 1.190666
0.72854793 1.4298558 1.0901057
0.72094059 1.4149256 0.9874869
0.7256915 1.4242498 0.91130918
0.72041011 1.4138844 0.82827532
0.72603732 1.4249284 0.75851744
0.72613013 1.4251106 0.68512398
0.71777058 1.408704 0.59704137
0.71976632 1.4126209 0.52472711
0.71961391 1.4123218 0.45826083
0.71802324 1.4092 0.39433268
0.72975767 1.4322301 0.32522419
0.72653389 1.4259031 0.25169227
0.72640502 1.4256501 0.17876685
0.72925371 1.431241 0.10880374
0.72153163 1.4160856 0.046836466
0.73085129 1.4343765 -0.022816274
0.72512496 1.4231379 -0.094193287
0.73135203 1.4353592 -0.17107941
0.72690493 1.4266312 -0.24643989
0.72514868 1.4231845 -0.32496974
0.72301537 1.4189976 -0.39152843
0.71434355 1.4019781 -0.46235347
0.70880353 1.3911052 -0.53378254
0.71598595 1.4052016 -0.6073488
0.70743871 1.3884267 -0.67956001
0.7092393 1.3919605 -0.76617587
0.71331692 1.3999633 -0.85754406
0.71073651 1.3948989 -0.94763422
0.67765146 1.3299659 -0.98796719
0.6747911 1.3243521 -1.0675431
0.66654646 1.3081712 -1.14193
0.65382057 1.2831951 -1.2084407
0.60886127 1.1949575 -1.21551
0.5711242 1.1208943 -1.2308587
0.58450389 1.1471534 -1.3836524
0.59111971 1.1601377 -1.5312603
0.15914118 0.29494035 1.8193911
0.1969123 0.36494255 1.8234425
0.22888325 0.42419511 1.8068124
0.26426914 0.48977667 1.8062061
0.2999478 0.55590081 1.8025275
0.33842161 0.62720531 1.815099
0.37488735 0.69478816 1.8048903
0.42539704 0.78839904 1.8216377
0.47184137 0.87447548 1.8159181
0.52867699 0.97981036 1.8392859
0.58039534 1.0756613 1.8292332
0.63175952 1.1708559 1.8021033
0.7050932 1.306767 1.8214566
0.76109833 1.4105626 1.7997618
0.77535963 1.4369935 1.6761465
0.7632497 1.4145498 1.5021646
0.76334792 1.414732 1.3821119
0.7537415 1.3969281 1.2654508
0.74937046 1.3888272 1.1624125
0.74239272 1.3758951 1.0620102
0.74348021 1.3779106 0.96653992
0.75035566 1.390653 0.88269508
0.74589062 1.3823779 0.79390091
0.74247289 1.3760437 0.7166853
0.74142009 1.3740925 0.64673501
0.74369299 1.378305 0.5797379
0.73560929 1.3633232 0.50707859
0.74541229 1.3814913 0.4390243
0.74473464 1.3802356 0.36389589
0.74177134 1.3747435 0.29657322
0.747325 1.3850362 0.2264504
0.76075459 1.4099256 0.15956926
0.74441594 1.3796448 0.08558777
0.74541098 1.3814889 0.027400278
0.74999428 1.3899833 -0.043068692
0.74365175 1.3782285 -0.11121237
0.74054629 1.3724731 -0.18113181
0.74077815 1.3729029 -0.25057045
0.74401927 1.3789096 -0.32410419
0.74058288 1.372541 -0.39971027
0.73541021 1.3629543 -0.47531828
0.72373426 1.3413149 -0.54907465
0.7311877 1.3551285 -0.6201542
0.72807926 1.3493676 -0.68666422
0.73213214 1.356879 -0.7624054
0.72812581 1.3494539 -0.84339011
0.72570533 1.344968 -0.9319405
0.69388378 1.2859923 -0.98099387
0.71439034 1.3239976 -1.1106651
0.7017861 1.3006378 -1.1940844
0.64915198 1.2030897 -1.2014893
0.60841048 1.1275824 -1.2211858
0.68513274 1.2697737 -1.4843072
0.63873821 1.1837896 -1.5203801
0.17489524 0.306624 1.8160102
0.20926283 0.36687681 1.8114111
0.24335919 0.4266541 1.7939739
0.28307587 0.49628481 1.8120623
0.32547632 0.57062072 1.8360167
0.35898283 0.62936389 1.8103956
0.39901197 0.69954246 1.80882
0.44603994 0.78199124 1.8306113
0.49469116 0.86728591 1.8246906
0.54904866 0.96258485 1.830731
0.60832924 1.0665146 1.8375479
0.66799742 1.1711242 1.8262386
0.73255402 1.2843039 1.8137056
0.79120505 1.3871301 1.8049833
0.79937917 1.4014608 1.6671234
0.79012924 1.385244 1.5299983
0.78886569 1.3830287 1.4148577
0.7882567 1.3819611 1.3086003
0.77629054 1.3609822 1.1941527
0.76994652 1.34986 1.0931882
0.76926398 1.3486633 1.0059026
0.77019399 1.3502939 0.92715031
0.76977432 1.3495581 0.84796256
0.76750058 1.3455718 0.77024639
0.76418978 1.3397672 0.69075155
0.76851189 1.3473448 0.61883092
0.76564676 1.3423216 0.54914278
0.77204937 1.3535466 0.47827956
0.77228022 1.3539513 0.40311182
0.77541071 1.3594397 0.33265871
0.76720208 1.3450484 0.25912476
0.77186334 1.3532205 0.19473408
0.77046573 1.3507702 0.12410614
0.76231569 1.3364817 0.065508962
0.76795363 1.346366 0.0067631295
0.76257038 1.3369281 -0.052052908
0.7660318 1.3429967 -0.10979564
0.76832157 1.3470111 -0.16983232
0.75964987 1.3318081 -0.22741885
0.76469076 1.3406457 -0.28778008
0.76720011 1.345045 -0.36105126
0.75866699 1.3300848 -0.4282507
0.76254535 1.3368843 -0.50563335
0.75645423 1.3262055 -0.57083803
0.75882393 1.3303601 -0.64025652
0.7551496 1.3239181 -0.70667517
0.75930589 1.3312049 -0.78086364
0.76129091 1.334685 -0.85828441
0.74873078 1.3126647 -0.92152774
0.72810245 1.2764995 -0.98656774
0.74139911 1.299811 -1.1047257
0.73608786 1.2904994 -1.2003691
0.68475938 1.200511 -1.2146926
0.73419046 1.2871729 -1.4309963
0.72302866 1.2676041 -1.5377936
0.64604419 1.1326361 -1.503284
0.16671254 0.27690861 1.8215456
0.20968679 0.3482886 1.815028
0.25166801 0.41801918 1.8052211
0.29773849 0.494542 1.8101878
0.33390215 0.5546096 1.7969468
0.38483158 0.63920307 1.812436
0.42653877 0.70847851 1.7990339
0.47564378 0.79004169 1.8196695
0.51863015 0.86144185 1.8093758
0.57504272 0.9551428 1.8149182
0.6336897 1.0525551 1.8129163
0.69233632 1.1499668 1.8057538
0.75934958 1.2612754 1.8059547
0.81341279 1.3510741 1.7825146
0.82221478 1.3656942 1.6579633
0.82139724 1.3643364 1.517858
0.80890417 1.3435854 1.366328
0.80852938 1.3429629 1.2581062
0.79956126 1.3280668 1.1497132
0.80033296 1.3293486 1.061461
0.79391038 1.3186808 0.97117841
0.80351973 1.3346418 0.90171349
0.79333407 1.3177235 0.81352681
0.79441035 1.3195112 0.74290138
0.79540312 1.3211602 0.66653562
0.79518408 1.3207964 0.58794504
0.80304813 1.3338585 0.51530087
0.80395186 1.3353596 0.44144768
0.7982679 1.3259186 0.36442861
0.80570716 1.3382751 0.29657322
0.8011483 1.3307029 0.22867264
0.80506569 1.3372097 0.16923209
0.80774868 1.3416661 0.11123969
0.80410451 1.3356131 0.056157447
0.79944491 1.3278736 -0.011821873
0.79837251 1.3260922 -0.081120729
0.80092168 1.3303264 -0.14951937
0.79667377 1.3232708 -0.21878156
0.79050511 1.3130246 -0.29097751
0.78922898 1.310905 -0.35149089
0.79169041 1.3149934 -0.41487193
0.79143447 1.3145683 -0.48748508
0.7836141 1.3015786 -0.56235397
0.7851975 1.3042088 -0.63639957
0.78413469 1.3024434 -0.71496427
0.7805537 1.2964953 -0.79620081
0.79013574 1.3124111 -0.88665819
0.78082395 1.2969443 -0.95516998
0.74443889 1.2365088 -0.9896245
0.77057159 1.2799151 -1.1079876
0.76830405 1.2761487 -1.1955138
0.74031675 1.2296621 -1.2449347
0.77925897 1.2943448 -1.4150361
0.77344745 1.2846919 -1.5126948
0.72394252 1.2024645 -1.5485756
0.63900554 1.0613847 -1.4928946
0.18812266 0.29643387 1.8061941
0.23391135 0.36858529 1.8183317
0.27381927 0.43147016 1.8196034
0.31943208 0.50334442 1.8145819
0.37208372 0.58631015 1.832865
0.40929061 0.64493883 1.8050305
0.45799345 0.72168219 1.7970856
0.51713228 0.81487006 1.8199344
0.57925916 0.9127664 1.8352702
0.6303575 0.99328452 1.8115284
0.69498569 1.0951222 1.8016943
0.76628965 1.2074792 1.8140821
0.84049249 1.3244042 1.8164597
0.84539151 1.3321239 1.6735469
0.85953462 1.3544098 1.5490881
0.84913421 1.3380214 1.4082152
0.84006613 1.3237325 1.289543
0.83527815 1.3161877 1.188091
0.83267891 1.3120921 1.0931882
0.82294679 1.2967566 0.99502808
0.83294654 1.3125137 0.92715031
0.84016865 1.3238939 0.84250903
0.82878512 1.3059564 0.75232506
0.81904888 1.2906145 0.67258698
0.82722187 1.3034931 0.6100899
0.82550055 1.3007808 0.53237039
0.82634729 1.302115 0.46232745
0.82665759 1.302604 0.3846558
0.83033901 1.3084049 0.30824271
0.83187044 1.3108181 0.23376797
0.82569247 1.3010832 0.16707626
0.82844418 1.3054192 0.10982263
0.82473147 1.2995688 0.050387386
0.81444466 1.2833594 -0.0082770083
0.81907356 1.2906533 -0.065056898
0.81714553 1.2876153 -0.12336978
0.8193481 1.2910861 -0.18266237
0.8204487 1.2928202 -0.24078995
0.81492466 1.2841158 -0.29907268
0.81343001 1.2817606 -0.35919553
0.81606394 1.285911 -0.42056227
0.82045853 1.2928357 -0.49751735
0.81207186 1.2796205 -0.57228541
0.80470943 1.2680191 -0.63361681
0.80572861 1.2696251 -0.70317388
0.80277729 1.2649746 -0.78197682
0.80945528 1.2754974 -0.86341673
0.80994499 1.2762691 -0.93996078
0.78125703 1.2310641 -0.98575783
0.7864486 1.2392447 -1.0761836
0.79813135 1.2576538 -1.179531
0.81006747 1.2764621 -1.2940383
0.83415574 1.314419 -1.4390576
0.80727208 1.2720573 -1.5197967
0.75207132 1.1850748 -1.5485756
0.64917964 1.0229435 -1.4894806
0.20490505 0.30666208 1.8332682
0.24382715 0.36491314 1.8280555
0.2884151 0.43164369 1.8484859
0.32741278 0.49000785 1.8273185
0.36483112 0.54600835 1.8042098
0.41120875 0.61541736 1.8148743
0.46175957 0.69107205 1.8081199
0.52402508 0.78425896 1.8313754
0.5728668 0.85735577 1.8179287
0.63813865 0.95504194 1.8292824
0.70080203 1.0488243 1.8268125
0.76561683 1.1458266 1.8164009
0.84438449 1.2637106 1.8315158
0.86973828 1.3016553 1.7122058
0.87901026 1.3155317 1.5856599
0.86983997 1.3018075 1.4441522
0.86581159 1.2957786 1.3164073
0.86684847 1.2973304 1.2026669
0.85427237 1.2785089 1.0816809
0.84860694 1.27003 0.98959076
0.86699063 1.2975432 0.91695631
0.84961557 1.2715396 0.80885136
0.85201657 1.2751329 0.73355556
0.85165554 1.2745926 0.66256815
0.85651934 1.2818718 0.58794504
0.8597157 1.2866554 0.51215881
0.85527253 1.2800058 0.43599769
0.85443324 1.2787497 0.36213663
0.85639924 1.281692 0.29790226
0.85111159 1.2737784 0.23579125
0.85549068 1.2803322 0.17715824
0.85855186 1.2849137 0.11993944
0.85512006 1.2797776 0.050387386
0.84999776 1.2721115 -0.011669333
0.86023027 1.2874255 -0.070988245
0.85256249 1.27595 -0.12918527
0.84931493 1.2710897 -0.18599798
0.84475058 1.2642585 -0.24422689
0.84440511 1.2637416 -0.30403486
0.84814507 1.2693387 -0.36650923
0.84913695 1.2708232 -0.43826339
0.84297663 1.2616037 -0.50768745
0.83679652 1.2523545 -0.56875277
0.83831865 1.2546325 -0.64243227
0.82953525 1.2414873 -0.70219707
0.82883692 1.2404422 -0.77248478
0.83289653 1.2465178 -0.86335212
0.81587058 1.2210366 -0.93328714
0.78792262 1.1792096 -0.99072844
0.8218798 1.2300301 -1.1274483
0.83594871 1.2510856 -1.2403525
0.83058673 1.2430609 -1.3285049
0.84190673 1.2600024 -1.4538181
0.81817478 1.2244852 -1.5250003
0.77877957 1.165526 -1.563666
0.22363043 0.31819391 1.8495518
0.27094591 0.38551703 1.8303182
0.31994513 0.45523587 1.827155
0.36468732 0.51889759 1.7910188
0.42125091 0.59937942 1.7963552
0.46749815 0.66518259 1.7944018
0.52082914 0.74106491 1.8167168
0.58655542 0.834584 1.8355986
0.64064986 0.91155255 1.827085
0.70944208 1.009434 1.8335308
0.77182609 1.0981975 1.8057538
0.85743296 1.2200037 1.8292074
0.89102352 1.2677982 1.7400186
0.8967517 1.2759486 1.5939547
0.88789231 1.263343 1.452588
0.89818007 1.277981 1.3429956
0.88581479 1.2603869 1.2117578
0.8847481 1.2588693 1.0975286
0.88311881 1.2565509 0.99502808
0.86757439 1.2344335 0.88655996
0.87780613 1.2489917 0.81386489
0.87387156 1.2433934 0.73920316
0.87367278 1.2431107 0.66855949
0.87814373 1.2494721 0.59773159
0.88239694 1.2555239 0.51907164
0.88436884 1.2583296 0.44101977
0.87244987 1.2413706 0.36253312
0.88691521 1.2619526 0.29284275
0.88175374 1.2546086 0.22575961
0.86941731 1.2370558 0.15558493
0.87828773 1.2496771 0.088419527
0.87956893 1.2515 0.031721529
0.87375629 1.2432295 -0.036473881
0.86627299 1.2325817 -0.10204574
0.87421179 1.2438775 -0.17152931
0.87520212 1.2452866 -0.23427002
0.86830586 1.2354742 -0.30207333
0.8654868 1.2314632 -0.37004212
0.86062294 1.2245425 -0.43979964
0.85965472 1.2231649 -0.51113725
0.86594498 1.2321151 -0.59701896
0.8553946 1.2171034 -0.66622782
0.84907675 1.208114 -0.73622638
0.84991944 1.209313 -0.81932825
0.84270912 1.1990539 -0.90028393
0.83545232 1.1887283 -0.97542006
0.80954599 1.1518674 -1.0393925
0.84085 1.1964085 -1.1815151
0.85269386 1.2132607 -1.3119876
0.86033827 1.2241375 -1.4448894
0.841039 1.1966774 -1.5346063
0.7790575 1.1084867 -1.5517496
0.21795157 0.29508284 1.8234646
0.2664243 0.36070967 1.8154356
0.32109588 0.43472907 1.831941
0.36826539 0.49859148 1.8066231
0.43133458 0.58398032 1.8313431
0.47953928 0.64924431 1.7970598
0.54166377 0.73335415 1.8137509
0.60963035 0.82537353 1.8322417
0.67570633 0.91483325 1.824555
0.73696536 0.99777138 1.8048364
0.81164074 1.0988737 1.8129026
0.89564067 1.2126006 1.8287503
0.93075877 1.2601466 1.7247082
0.92131203 1.2473568 1.5746064
0.92303866 1.2496945 1.4424505
0.90522784 1.2255806 1.2955751
0.9105683 1.232811 1.1893874
0.90236574 1.2217056 1.090904
0.90556777 1.2260408 0.99457073
0.89980519 1.2182389 0.89657378
0.89650297 1.213768 0.80445606
0.89365673 1.2099146 0.72552359
0.89564776 1.2126101 0.64574903
0.90041375 1.2190628 0.57231182
0.90342534 1.2231401 0.49774581
0.89257801 1.208454 0.42017049
0.89637291 1.2135919 0.35526061
0.89305252 1.2090966 0.28538176
0.89887232 1.2169758 0.22781211
0.90338439 1.2230847 0.16988403
0.90058076 1.2192889 0.1126449
0.89643115 1.2136708 0.059282321
0.89118105 1.2065628 0.0016493358
0.8963114 1.2135087 -0.064206481
0.893709 1.2099853 -0.13160518
0.89533818 1.212191 -0.19839981
0.88968444 1.2045364 -0.26067886
0.88788527 1.2021006 -0.32789302
0.89551115 1.2124252 -0.40210059
0.88990653 1.2048371 -0.47046143
0.88139755 1.1933169 -0.54362971
0.88800514 1.2022629 -0.6248287
0.88800448 1.2022619 -0.69893789
0.88256598 1.1948988 -0.76301652
0.8853246 1.1986337 -0.8387953
0.87788028 1.1885549 -0.91883808
0.85260075 1.1543292 -0.98396951
0.85740602 1.160835 -1.0924363
0.87325692 1.1822954 -1.2197131
0.87081885 1.1789944 -1.3460114
0.89028513 1.2053498 -1.485471
0.86507094 1.1712124 -1.5546105
0.78428501 1.061837 -1.5421735
0.20651716 0.26624033 1.8292258
0.24783064 0.31950134 1.8052697
0.29336897 0.37820902 1.8180463
0.33746347 0.43505526 1.8080225
0.38872591 0.50114238 1.7910188
0.45133242 0.58185422 1.8056147
0.50337261 0.64894402 1.812619
0.54969037 0.70865655 1.7988181
0.60901546 0.78513801 1.8159181
0.67285293 0.86743677 1.8136214
0.74936181 0.96607149 1.8169377
0.81538856 1.0511926 1.7897027
0.90984845 1.1729696 1.8088444
0.94850332 1.2228031 1.714991
0.94929028 1.2238177 1.5624079
0.94324172 1.2160199 1.4288424
0.92949915 1.1983031 1.3038793
0.92493427 1.1924181 1.1870281
0.92592031 1.1936892 1.0850703
0.92195255 1.1885741 0.98858237
0.9211849 1.1875844 0.89641607
0.91783702 1.1832684 0.80464345
0.91493827 1.1795313 0.72608119
0.92396796 1.1911722 0.64574903
0.92888469 1.197511 0.57231182
0.92616647 1.1940067 0.49463493
0.92080116 1.1870897 0.42017049
0.91348088 1.1776525 0.34581411
0.9212907 1.1877208 0.28538176
0.92729449 1.1954608 0.22781211
0.92585802 1.193609 0.16877367
0.91683251 1.1819733 0.11116274
0.91904557 1.1848264 0.039265424
0.91930586 1.1851619 -0.016362138
0.90601021 1.1680213 -0.072607256
0.92196786 1.1885939 -0.13160518
0.91226119 1.1760801 -0.18605168
0.91329342 1.1774107 -0.24433386
0.91892225 1.1846673 -0.30503294
0.91731459 1.1825948 -0.36277193
0.91234481 1.1761879 -0.43209848
0.90091312 1.1614501 -0.49182221
0.9139747 1.1782891 -0.57990086
0.91443139 1.1788778 -0.65647709
0.90943432 1.1724356 -0.7216813
0.90810007 1.1707156 -0.79194653
0.89661175 1.1559049 -0.86600882
0.89250672 1.1506127 -0.95242965
0.8502419 1.0961252 -0.98264855
0.89019096 1.1476272 -1.1296512
0.9011662 1.1617764 -1.25023
0.90639663 1.1685195 -1.3760115
0.90442508 1.1659778 -1.5081813
0.85506117 1.1023383 -1.5562201
0.23160991 0.28448832 1.8234646
0.27561253 0.3385371 1.8183317
0.32434222 0.3983922 1.8292309
0.38032085 0.46715117 1.8335828
0.43618113 0.53576481 1.8235136
0.48721632 0.59845173 1.8125606
0.54401702 0.66822052 1.8269994
0.5934571 0.72894812 1.8105367
0.65723848 0.80729133 1.8353251
0.73232424 0.8995198 1.8339753
0.80015498 0.98283684 1.8226858
0.8776415 1.0780141 1.8198162
0.95553094 1.1736864 1.8238204
0.97350991 1.1957701 1.7200327
0.98462874 1.2094274 1.5939547
0.96110541 1.1805335 1.4320325
0.9568249 1.1752757 1.3203459
0.95270091 1.1702102 1.2192494
0.95104283 1.1681736 1.1248503
0.95665437 1.1750664 1.0438542
0.95379132 1.1715496 0.96013212
0.94896984 1.1656274 0.87656671
0.9487645 1.1653751 0.79482508
0.94693267 1.163125 0.71137798
0.94597173 1.1619447 0.64181149
0.96865278 1.1898041 0.57937741
0.95403993 1.171855 0.49463493
0.95459336 1.1725347 0.42286387
0.95327282 1.1709127 0.35033455
