# .PCD v0.7 - Point Cloud Data file format
VERSION 0.7
FIELDS x y z
SIZE 4 4 4
TYPE F F F
COUNT 1 1 1
WIDTH 1525
HEIGHT 1
VIEWPOINT 0 0 0 1 0 0 0
POINTS 1525
DATA ascii
0.3802776 2.6719697 -0.47282872
0.38296714 2.6908674 -0.5839256
0.38500959 2.7052183 -0.69710952
0.38305625 2.6914935 -0.82141972
0.40361586 2.8359528 -1.0178732
0.40948677 2.8772039 -1.1889566
0.40987802 2.8799531 -1.3333679
0.40892094 2.8732283 -1.4628199
0.39952451 2.8072054 -1.5676663
0.40366384 2.8362901 -1.7555952
0.40884346 2.8726838 -1.9571751
0.40289825 2.8309107 -2.1206646
0.36880153 2.5913346 -2.1385441
0.32345796 2.2727339 -2.0534008
0.31052983 2.1818964 -2.1515808
0.28443944 1.9985758 -2.1648068
0.25035909 1.7591146 -2.0988894
0.044946268 0.27003574 1.2810779
0.053347975 0.32051292 1.2793849
0.060860578 0.36564839 1.2564622
0.070558704 0.4239144 1.2797726
0.079692803 0.47879177 1.2811352
0.088301636 0.53051335 1.2708888
0.096900836 0.5821771 1.2584833
0.1082547 0.65039074 1.2801846
0.11700383 0.70295519 1.2628001
0.12741706 0.76551753 1.2602173
0.1381633 0.83008057 1.2417234
0.15302402 0.91936332 1.2509815
0.16945486 1.0180793 1.2745193
0.18081799 1.0863487 1.2420756
0.19822747 1.1909442 1.2529795
0.21281306 1.278574 1.2489833
0.22916266 1.3768018 1.2294312
0.24797519 1.4898269 1.2175895
0.27121657 1.6294603 1.2140019
0.29743502 1.7869799 1.2305832
0.3257452 1.9570667 1.221753
0.36000189 2.1628797 1.2216586
0.40238491 2.4175155 1.2252775
0.41046524 2.4660618 1.0967939
0.39565444 2.377079 0.94923818
0.39431396 2.3690255 0.8269431
0.41061428 2.4669573 0.74673796
0.42294398 2.5410337 0.66322368
0.42508674 2.5539074 0.56511796
0.42831922 2.573328 0.46586013
0.41015154 2.4641771 0.331673
0.43150243 2.5924528 0.25018904
0.43454751 2.6107473 0.13291648
0.43507859 2.6139381 0.023125319
0.43815967 2.6324492 -0.084425651
0.43894887 2.6371906 -0.18694735
0.44072244 2.6478462 -0.29098922
0.44352168 2.6646638 -0.39465821
0.44556755 2.6769555 -0.50297004
0.44622895 2.6809289 -0.6305548
0.44919676 2.6987596 -0.76191795
0.45034808 2.7056768 -0.8780092
0.48001945 2.8839412 -1.089433
0.47976199 2.8823946 -1.2290365
0.48088247 2.8891263 -1.3618374
0.47930175 2.8796294 -1.4954612
0.46528777 2.795434 -1.5910865
0.47877365 2.8764567 -1.7869451
0.47640973 2.8622541 -1.9571751
0.469482 2.8206327 -2.1206646
0.4359996 2.6194713 -2.1551507
0.37310234 2.2415869 -2.0193274
0.36415294 2.187819 -2.1371102
0.33905631 2.0370393 -2.1761231
0.304764 1.8310122 -2.1494448
0.043346286 0.22722918 1.2792529
0.052865788 0.27713215 1.2792587
0.064017169 0.33558974 1.2750221
0.076631442 0.40171608 1.297055
0.08727432 0.457508 1.288398
0.096868098 0.50780034 1.2795137
0.10825012 0.56746703 1.2862204
0.11737274 0.61528951 1.263227
0.12990373 0.68097919 1.2735354
0.14057557 0.73692298 1.2641531
0.15155101 0.79445821 1.2513866
0.16684748 0.87464517 1.2687229
0.18048547 0.94613802 1.2524568
0.20201275 1.058988 1.2622739
0.21571994 1.1308435 1.2508628
0.23375174 1.2253696 1.255679
0.25067928 1.3141068 1.2339704
0.26936507 1.4120612 1.2115798
0.29408866 1.5416666 1.2234688
0.31754881 1.6646491 1.2060291
0.35641238 1.8683791 1.2205448
0.39433306 2.0671663 1.215
0.43953562 2.3041263 1.2113671
0.46555543 2.440527 1.1552862
0.47002479 2.4639561 1.0518538
0.46059474 2.4145222 0.90682667
0.43426222 2.2764823 0.7307151
0.48240268 2.5288434 0.70791161
0.4823685 2.5286644 0.58547211
0.48669472 2.5513432 0.47262719
0.46417439 2.4332874 0.33712733
0.49261144 2.5823596 0.24156427
0.49219257 2.5801637 0.13191333
0.49652469 2.6028736 0.031820077
0.50202399 2.6317019 -0.067208372
0.49930713 2.6174595 -0.16881338
0.505193 2.6483145 -0.27442724
0.50286144 2.6360919 -0.37715909
0.50727367 2.6592216 -0.48343977
0.50527793 2.6487598 -0.58852863
0.51158404 2.6818175 -0.70607162
0.50991738 2.6730804 -0.81254244
0.53268713 2.7924438 -0.98924363
0.54949129 2.8805344 -1.177362
0.54409409 2.8522413 -1.2965654
0.5445053 2.8543968 -1.4330153
0.53747159 2.8175247 -1.5492835
0.53406918 2.7996886 -1.6830372
0.54140216 2.8381298 -1.8853127
0.54350376 2.8491464 -2.0641146
0.5168047 2.7091851 -2.1548152
0.41320902 2.1661174 -1.8833994
0.43124649 2.2606733 -2.1507864
0.39487374 2.0700006 -2.1632318
0.35510507 1.861526 -2.1420133
0.055209976 0.25643948 1.3038752
0.068137288 0.31648433 1.3106086
0.079509743 0.36930713 1.2960674
0.091192901 0.42357311 1.2996806
0.10275165 0.47726122 1.3014468
0.11224865 0.52137291 1.2836162
0.12511122 0.58111697 1.2675371
0.13955672 0.64821351 1.266982
0.15277036 0.70958829 1.2667856
0.16618423 0.77189308 1.2635916
0.1806543 0.83910376 1.2665579
0.19568101 0.90889978 1.2651128
0.2144406 0.99603444 1.2723328
0.23284732 1.08153 1.2643081
0.25410858 1.1802844 1.2529795
0.27452058 1.275094 1.2404732
0.29862869 1.3870716 1.2333909
0.32778665 1.5225046 1.2388041
0.3578589 1.6621842 1.2325099
0.3960329 1.8394949 1.2336597
0.4367668 2.0286958 1.2254499
0.48789212 2.2661631 1.242323
0.51590341 2.39627 1.1790394
0.52527702 2.4398084 1.0561813
0.52003187 2.4154458 0.9299401
0.48675805 2.2608955 0.74586755
0.53697306 2.4941344 0.71655685
0.54424202 2.5278971 0.62380832
0.5509212 2.5589206 0.52660304
0.54228324 2.5187988 0.41675028
0.54141235 2.5147538 0.30163845
0.55393255 2.5729079 0.20713201
0.55729574 2.5885291 0.10695003
0.55564243 2.5808499 0.0086624026
0.56161726 2.6086018 -0.093181655
0.56255889 2.6129754 -0.19567193
0.56649822 2.631273 -0.31556702
0.5671162 2.6341431 -0.43882722
0.56742823 2.6355925 -0.54238141
0.56992924 2.6472092 -0.67198503
0.57532972 2.6722934 -0.80643857
0.59502482 2.7637732 -0.97344875
0.61019033 2.834214 -1.1529521
0.61408049 2.8522832 -1.3143003
0.61082727 2.8371725 -1.4628199
0.59938264 2.7840145 -1.586696
0.6089291 2.828356 -1.7859472
0.61110485 2.8384619 -1.9722539
0.59867662 2.7807353 -2.1240523
0.55415845 2.573957 -2.1511981
0.49101019 2.2806456 -2.0867352
0.46386796 2.1545753 -2.1658096
0.4234471 1.9668286 -2.1574934
0.38088301 1.7691267 -2.1234922
0.054002125 0.22493504 1.2792529
0.067814961 0.28246963 1.2773849
0.081374168 0.3389478 1.2731428
0.095748276 0.39882025 1.2861861
0.10872901 0.45288894 1.288398
0.11893223 0.49538842 1.26097
0.13294838 0.55376989 1.2679762
0.14726362 0.61339712 1.272186
0.16072191 0.66945493 1.2647524
0.17394195 0.72452044 1.2555534
0.18753971 0.7811591 1.242988
0.20652264 0.86022872 1.2605376
0.22627746 0.94251341 1.2603837
0.24673074 1.0277075 1.2540101
0.27033138 1.1260113 1.2582209
0.29312736 1.2209632 1.2474874
0.31245631 1.3014742 1.2184564
0.33736828 1.4052399 1.2180244
0.37348625 1.5556822 1.2331915
0.4108218 1.7111959 1.2351251
0.44661748 1.8602957 1.2217745
0.49624625 2.0670145 1.2180686
0.5485118 2.2847161 1.2036639
0.57240492 2.384238 1.1303813
0.56912339 2.3705695 1.0129656
0.53065509 2.2103374 0.83018869
0.58938456 2.4549634 0.80515885
0.60044652 2.5010397 0.71635509
0.60185105 2.5068901 0.61300707
0.60458356 2.5182717 0.5122363
0.59487385 2.477828 0.40360093
0.61001468 2.540894 0.29772446
0.61222261 2.5500908 0.19778909
0.61587197 2.5652912 0.097890526
0.61629575 2.5670567 1.6165338e-16
0.62034398 2.5839186 -0.11890316
0.62121481 2.5875459 -0.21817204
0.62577039 2.6065214 -0.32319987
0.62704599 2.6118345 -0.42840859
0.62734979 2.6130998 -0.53454751
0.63591808 2.6487894 -0.64770561
0.62968481 2.6228259 -0.75118673
0.63587064 2.6485918 -0.87191188
0.67457056 2.8097887 -1.0660405
0.68213874 2.8413124 -1.2290365
0.67634434 2.8171771 -1.3587024
0.67182589 2.7983561 -1.5100837
0.64975601 2.7064285 -1.6190927
0.66558129 2.7723455 -1.8339034
0.67140752 2.7966137 -2.0467203
0.63853616 2.6596944 -2.1514406
0.50836945 2.117511 -1.8847035
0.53116649 2.2124677 -2.1638968
0.4853563 2.0216546 -2.1765666
0.43648872 1.8181064 -2.1509223
0.070692547 0.26661825 1.2704004
0.085831106 0.3237136 1.2664685
0.10295811 0.38830841 1.2888429
0.11742129 0.44285655 1.2805039
0.13177487 0.49699137 1.2806385
0.14385435 0.54254931 1.2606927
0.15947253 0.60145354 1.2652755
0.17539063 0.66148901 1.2669927
0.18861119 0.71135062 1.2493622
0.20622928 0.77779758 1.2540337
0.22525981 0.84957153 1.2523522
0.24790956 0.93499547 1.2492895
0.27310929 1.0300367 1.2728063
0.28880239 1.0892235 1.2460278
0.31190765 1.1763655 1.2575284
0.33718523 1.2717004 1.2430545
0.36238807 1.3667533 1.2237484
0.40017664 1.5092736 1.2337146
0.43576124 1.6434815 1.2325099
0.46837315 1.7664779 1.2067652
0.52861613 1.9936856 1.2271034
0.57930261 2.1848505 1.2018472
0.61204332 2.3083327 1.1486964
0.61130172 2.3055358 1.0094131
0.60205549 2.2706633 0.88414764
0.64673412 2.4391696 0.84130025
0.64711303 2.4405987 0.73595029
0.65223497 2.4599164 0.62273705
0.65620309 2.4748821 0.50641543
0.65584213 2.4735205 0.39958337
0.65466958 2.4690983 0.28259677
0.66487736 2.5075972 0.17290077
0.66864628 2.5218117 0.074013852
0.66882581 2.5224888 -0.042681348
0.67282867 2.5375857 -0.15767112
0.67544627 2.5474582 -0.27700043
0.67424154 2.5429144 -0.39317304
0.67617142 2.5501931 -0.52479297
0.67819941 2.5578415 -0.62919974
0.68636531 2.5886393 -0.74582112
0.68833077 2.5960522 -0.85971731
0.72615439 2.7387047 -1.0452735
0.72662008 2.7404611 -1.2034519
0.72860622 2.7479517 -1.3332268
0.72869927 2.7483029 -1.4682741
0.71603197 2.7005277 -1.5806797
0.71941429 2.7132845 -1.7540327
0.7218169 2.7223458 -1.9401581
0.71402401 2.6929545 -2.1185288
0.65181243 2.4583228 -2.1340549
0.57848275 2.1817582 -2.0956357
0.54910362 2.0709543 -2.1707449
0.49782863 1.8775699 -2.1667943
0.075781219 0.26084065 1.2917506
0.092510484 0.31842318 1.2880018
0.10972219 0.37766623 1.2914447
0.12758693 0.4391571 1.2914188
0.14422643 0.49643064 1.2795137
0.15888692 0.5468924 1.2679762
0.17705858 0.60943961 1.2591003
0.19766542 0.68036884 1.2651192
0.21808712 0.75066078 1.2449282
0.24061854 0.82821447 1.2637498
0.26552042 0.91392732 1.286171
0.28969839 0.99714845 1.2822908
0.30980679 1.0663619 1.2606713
0.33489811 1.1527269 1.2457786
0.36793432 1.2664382 1.2542561
0.39584765 1.3625165 1.2333909
0.4301312 1.4805213 1.2263539
0.47210145 1.6249839 1.2266408
0.52269804 1.7991384 1.2459486
0.56878173 1.9577595 1.2280331
0.61748981 2.1254139 1.2048744
0.63792956 2.1957679 1.1060058
0.65846825 2.2664626 1.0170875
0.69050699 2.3767407 0.9469974
0.69190615 2.3815565 0.84489882
0.69505453 2.3923934 0.74387687
0.70246804 2.4179108 0.64826375
0.70323974 2.420567 0.55019033
0.67365539 2.318737 0.41490629
0.68941623 2.3729863 0.30617198
0.71182781 2.4501276 0.20922822
0.71632469 2.4656057 0.11210182
0.71978164 2.4775047 0.01688594
0.71664864 2.4667206 -0.081263646
0.72639298 2.5002611 -0.1820644
0.72115189 2.4822211 -0.28021184
0.72879958 2.5085447 -0.3816475
0.72968954 2.5116079 -0.48474649
0.73106807 2.5163527 -0.60795426
0.73372436 2.5254958 -0.73240703
0.73711032 2.5371504 -0.86483335
0.77975398 2.6839309 -1.0623552
0.7840187 2.6986101 -1.2109579
0.77693146 2.6742156 -1.3619648
0.7802707 2.6857095 -1.5343542
0.76424962 2.6305645 -1.6541021
0.78105497 2.6884089 -1.8398129
0.7819429 2.6914651 -1.9945376
0.76233774 2.6239839 -2.1061933
0.7222141 2.4858773 -2.157712
0.59856904 2.060288 -1.9659675
0.60104191 2.0687997 -2.1590083
0.551498 1.8982686 -2.1762414
0.4833352 1.6636508 -2.0969152
0.081916116 0.25901634 1.2712986
0.096491933 0.30510464 1.2600002
0.11348019 0.35882103 1.2756448
0.12766507 0.4036732 1.2608131
0.14529179 0.45940837 1.2717838
0.15864524 0.50163162 1.2432609
0.18002738 0.56924129 1.2552508
0.20385143 0.64457226 1.2714446
0.22191101 0.70167613 1.2493622
0.24387908 0.77113849 1.2513866
0.26676226 0.84349447 1.2605376
0.29160812 0.92205638 1.2746674
0.31621683 0.99986827 1.2609006
0.34263757 1.0834099 1.2509687
0.37068406 1.1720921 1.2455093
0.40037367 1.2659698 1.23009
0.43686548 1.3813558 1.2292293
0.47684583 1.5077726 1.2244346
0.51962078 1.6430255 1.2348527
0.56859815 1.7978905 1.227512
0.62055266 1.9621693 1.2152803
0.68158007 2.1551361 1.2018472
0.72939879 2.3063376 1.1537697
0.73589039 2.3268638 1.0327972
0.74312311 2.3497336 0.91837919
0.74328405 2.3502421 0.79497814
0.74721789 2.3626812 0.68139803
0.7521525 2.378284 0.57587469
0.73825681 2.3343463 0.45376647
0.76084274 2.4057624 0.3686808
0.75853604 2.3984687 0.26994574
0.76710635 2.4255676 0.17512625
0.76867962 2.4305425 0.063992761
0.76580399 2.4214497 -0.041536637
0.7708351 2.4373579 -0.13674636
0.77770704 2.4590869 -0.23698919
0.78039354 2.4675815 -0.33782786
0.77593541 2.453485 -0.43638927
0.78233135 2.4737086 -0.53965062
0.78433156 2.4800334 -0.645491
0.79081237 2.5005255 -0.7582134
0.78465474 2.4810553 -0.85806882
0.83149582 2.6291654 -1.0481431
0.83630282 2.6443648 -1.1951283
0.83701092 2.6466041 -1.3575714
0.83539784 2.6415033 -1.5199245
0.8150177 2.5770621 -1.6563205
0.8331117 2.6342747 -1.8767316
0.83316499 2.6344433 -2.0491815
0.79839534 2.5245025 -2.148849
0.64502448 2.0395486 -1.9133962
0.6688742 2.1149604 -2.1798279
0.61068404 1.9309651 -2.1860557
0.53759807 1.6998694 -2.1199841
0.087071307 0.25431448 1.29234
0.10253343 0.29947564 1.281484
0.12009163 0.35075897 1.2876903
0.13694294 0.39997759 1.2820938
0.15450323 0.45126697 1.2842846
0.17026578 0.49730563 1.2651469
0.18714343 0.54660124 1.2532376
0.21060494 0.61512667 1.2624043
0.23189384 0.67730647 1.2494323
0.25575861 0.74700981 1.2635916
0.27621099 0.80674624 1.2582798
0.30382997 0.88741469 1.2590007
0.33431044 0.97644091 1.2745193
0.35408744 1.0342047 1.2492568
0.38262588 1.1175587 1.250224
0.41620228 1.2156273 1.2462447
0.44837275 1.3095896 1.2273699
0.49043828 1.432453 1.2288404
0.52859789 1.5439081 1.2241453
0.57796949 1.6881107 1.2349629
0.63180435 1.8453496 1.2188143
0.69395566 2.0268786 1.2090443
0.76685411 2.2397976 1.2127825
0.7695381 2.247637 1.1046897
0.77965128 2.2771749 1.0093156
0.78214306 2.2844529 0.90880513
0.78051555 2.2796993 0.80334687
0.78988123 2.3070543 0.71076572
0.78866541 2.3035033 0.60990149
0.80495578 2.3510835 0.5254069
0.80128932 2.3403747 0.42506725
0.80274892 2.3446379 0.32904065
0.81259811 2.373405 0.23881681
0.80525714 2.3519638 0.14116505
0.80965418 2.3648064 0.046379466
0.81601518 2.3833854 -0.063195936
0.82074606 2.397203 -0.17718144
0.82117838 2.3984659 -0.27482316
0.82291782 2.4035463 -0.38816389
0.83024162 2.4249372 -0.49242079
0.8330161 2.4330409 -0.596654
0.83465511 2.4378281 -0.69946051
0.83776206 2.4469028 -0.80927211
0.84851384 2.4783063 -0.9308182
0.88189894 2.5758159 -1.0827403
0.88896018 2.5964403 -1.2362638
0.88800192 2.5936413 -1.3818022
0.88523936 2.5855727 -1.5462099
0.85980332 2.5112801 -1.6586473
0.89027035 2.6002669 -1.880141
0.87678838 2.5608892 -2.007483
0.85713083 2.5034742 -2.1189723
0.7770741 2.2696478 -2.1177475
0.71608967 2.0915267 -2.1301718
0.6666804 1.9472141 -2.1688693
0.60125625 1.7561258 -2.1494448
0.088061243 0.23870043 1.264661
0.10503925 0.28472134 1.2640809
0.12540233 0.33991787 1.2900891
0.14342082 0.38875914 1.2848333
0.16388702 0.44423524 1.2749102
0.18326291 0.49675587 1.2743815
0.20574316 0.55769128 1.2675371
0.22789365 0.61773276 1.258122
0.25122812 0.68098366 1.2667856
0.273287 0.74077684 1.2635916
0.29708278 0.80527812 1.2665579
0.31974426 0.86670476 1.2570547
0.34904996 0.9461413 1.2678252
0.37634903 1.0201387 1.2675087
0.39752081 1.0775273 1.2397629
0.4258506 1.1543186 1.2303658
0.46953905 1.2727413 1.243086
0.50687891 1.3739555 1.2261404
0.54964191 1.4898696 1.2158052
0.60198444 1.6317502 1.2121905
0.6641649 1.8002977 1.231346
0.72400761 1.9625086 1.2168702
0.80344969 2.1778457 1.2148486
0.81536442 2.2101419 1.123634
0.82031697 2.2235665 0.99384719
0.82804626 2.2445176 0.88259852
0.82593828 2.2388036 0.77825701
0.82896185 2.2469995 0.68111348
0.83713317 2.2691488 0.59183788
0.83416772 2.2611105 0.49309543
0.84690535 2.2956374 0.40398076
0.83788842 2.2711959 0.30530608
0.84859943 2.3002295 0.20105524
0.85421258 2.3154445 0.099685498
0.8618269 2.3360839 -0.0081267618
0.86083895 2.3334062 -0.11946554
0.86881316 2.3550212 -0.22234887
0.87210858 2.3639538 -0.32054538
0.87748247 2.3785205 -0.42138499
0.87486196 2.371417 -0.51710474
0.88083893 2.3876183 -0.62273705
0.8852846 2.3996689 -0.7303834
0.87827718 2.3806744 -0.83061337
0.90273279 2.4469643 -0.96220541
0.93480027 2.5338869 -1.1359863
0.93240446 2.5273929 -1.2740906
0.93316883 2.5294647 -1.4260097
0.93221056 2.5268674 -1.5549999
0.91888887 2.4907572 -1.6953676
0.93066919 2.5226893 -1.8783753
0.92615902 2.510464 -2.0485849
0.88557112 2.4004455 -2.1469107
0.71275192 1.9319986 -1.9119273
0.74399203 2.0166788 -2.1778619
0.67245257 1.8227625 -2.1529851
0.60335732 1.6354716 -2.1526942
0.084501952 0.21342756 1.2694125
0.10306596 0.26031491 1.2694935
0.12386094 0.31283703 1.2557036
0.14833423 0.37464949 1.2779807
0.17174116 0.43376866 1.2774779
0.19360662 0.48899448 1.2541933
0.21726209 0.5487414 1.2584833
0.24238403 0.61219215 1.258122
0.2683976 0.67789501 1.253364
0.29471183 0.74435711 1.2566533
0.32053056 0.80956775 1.258078
0.34681451 0.87595344 1.2559161
0.37530261 0.94790626 1.2589765
0.40483624 1.0224997 1.2567824
0.43231717 1.0919085 1.2429552
0.46622813 1.1775578 1.2364825
0.5093354 1.2864344 1.2430865
0.54624707 1.3796625 1.2341173
0.59187335 1.4949015 1.2392963
0.63584536 1.605962 1.2292219
0.6987285 1.7647867 1.2267462
0.7685768 1.9412034 1.2236909
0.84655225 2.1381469 1.213127
0.85857052 2.1685016 1.1031125
0.86424768 2.1828403 0.96947604
0.86895645 2.1947334 0.8533228
0.8712917 2.2006316 0.74058849
0.87472928 2.2093141 0.63669485
0.88303643 2.2302954 0.54555357
0.88282382 2.2297585 0.44988772
0.88471687 2.2345397 0.35917687
0.89643604 2.2641389 0.26940158
0.88855362 2.2442303 0.17407702
0.89777428 2.267519 0.077195592
0.89818072 2.2685454 -0.023932967
0.90822053 2.2939031 -0.11850598
0.90964627 2.2975042 -0.2107558
0.9133296 2.3068073 -0.30735826
0.91924411 2.3217456 -0.40667868
0.92027867 2.3243587 -0.50293547
0.91970032 2.3228979 -0.60265839
0.92473191 2.3356061 -0.70845956
0.92461282 2.3353055 -0.81304359
0.94054192 2.3755379 -0.93306005
0.97784972 2.4697664 -1.0867215
0.97862846 2.4717333 -1.2079819
0.9779911 2.4701235 -1.3499713
0.98042184 2.476263 -1.5068161
0.94904947 2.3970253 -1.6109545
0.96923447 2.4480069 -1.8010961
0.96589428 2.4395704 -1.9682337
0.94675648 2.3912339 -2.1153138
0.86551082 2.1860309 -2.1262784
0.77469558 1.9566576 -2.0815709
0.74313861 1.8769538 -2.1648068
0.6661815 1.6825824 -2.1234922
0.1043097 0.24633572 1.2721785
0.12735158 0.30075097 1.2686332
0.15225257 0.35955665 1.2922996
0.17408761 0.41112185 1.2740378
0.20173067 0.47640315 1.2685602
0.22691336 0.53587407 1.262319
0.25352356 0.5987162 1.2624043
0.27915087 0.65923715 1.2494323
0.31055743 0.73340625 1.2592734
0.33951482 0.80179143 1.258078
0.37473035 0.8849557 1.2667006
0.40568271 0.95805222 1.2677372
0.4320119 1.0202308 1.2495579
0.47077084 1.111763 1.2529795
0.50576138 1.194396 1.2335817
0.54873502 1.2958817 1.2314546
0.59350681 1.401614 1.2189044
0.64566255 1.5247838 1.2085751
0.7208004 1.702228 1.2293359
0.79160899 1.8694481 1.2228732
0.87672406 2.0704541 1.2239994
0.90274698 2.1319094 1.1386002
0.9007864 2.1272793 1.0315845
0.9046312 2.136359 0.93145728
0.90681839 2.1415243 0.83213824
0.9111076 2.1516535 0.7367292
0.91737324 2.1664505 0.64693046
0.93533659 2.2088723 0.54555357
0.92454392 2.1833847 0.43145132
0.93114215 2.198967 0.32499075
0.94325978 2.2275836 0.23028764
0.9385429 2.2164443 0.12087876
0.95141846 2.246851 0.0080061601
0.95084399 2.2454941 -0.085154772
0.956662 2.259234 -0.1796093
0.95340729 2.2515476 -0.27045852
0.96025521 2.2677197 -0.36804542
0.96174252 2.2712321 -0.46546361
0.96429974 2.277271 -0.57945013
0.96824288 2.2865832 -0.70031637
0.9719559 2.2953517 -0.80688417
0.97557622 2.3039014 -0.93230325
1.0279649 2.4276216 -1.1088468
1.0324404 2.4381907 -1.2311347
1.0237712 2.4177177 -1.3450032
1.0210977 2.4114041 -1.5042905
0.99783343 2.3564637 -1.6224388
1.0133089 2.3930101 -1.8153809
1.0149531 2.3968933 -1.9793113
1.0148766 2.3967123 -2.140723
0.94437641 2.2302206 -2.1521778
0.76935959 1.8169043 -1.9011955
0.80522555 1.9016047 -2.1761231
0.73163253 1.727809 -2.1584694
0.1080476 0.2392989 1.2834179
0.12853049 0.28466347 1.2825158
0.15430591 0.3417497 1.2864668
0.17989665 0.39842695 1.287825
0.20490184 0.45380729 1.2763127
0.22310698 0.49412718 1.258158
0.24745418 0.54805028 1.2642814
0.27286127 0.6043207 1.266982
0.30003288 0.66449916 1.253364
0.33165976 0.73454493 1.2650871
0.35932735 0.79582185 1.244167
0.39637017 0.87786263 1.2524568
0.43493366 0.96327126 1.2540101
0.47205821 1.045493 1.2546335
0.51504272 1.1406932 1.251579
0.55657488 1.2326767 1.2475306
0.59454417 1.3167694 1.2339513
0.63609105 1.4087856 1.2213154
0.69137871 1.5312341 1.2262616
0.75055391 1.6622926 1.2302244
0.82158834 1.8196166 1.2204869
0.90753829 2.0099745 1.2193345
0.94012904 2.082155 1.132823
0.94313955 2.0888226 1.0234296
0.94707447 2.0975375 0.92400557
0.95535767 2.1158826 0.8135922
0.95925242 2.1245086 0.72103947
0.95795655 2.1216385 0.62375391
0.96304142 2.1329002 0.53224736
0.96261227 2.1319499 0.43882492
0.97271621 2.1543276 0.35326448
0.97346509 2.1559863 0.26170439
0.96865803 2.1453397 0.16976106
0.98320955 2.1775677 0.059977528
0.98332971 2.177834 -0.046924524
0.98565847 2.1829915 -0.15174237
0.99824661 2.2108712 -0.26296803
1.0047801 2.2253411 -0.37306023
1.004982 2.2257884 -0.4857749
1.0161016 2.2504156 -0.59562349
1.0139242 2.2455933 -0.69488758
1.0161185 2.2504532 -0.81422591
1.0219234 2.2633095 -0.95325875
1.0705159 2.37093 -1.1142654
1.0713776 2.3728383 -1.231336
1.0695019 2.3686841 -1.3529234
1.0691457 2.3678951 -1.5
1.0482938 2.3217134 -1.6033796
1.066493 2.3620203 -1.7728658
1.0566983 2.3403273 -1.9262286
1.0579966 2.3432028 -2.1005816
1.0057285 2.2274418 -2.1574554
0.81195188 1.798274 -1.9011955
0.84405321 1.8693707 -2.1755753
0.76094747 1.6853118 -2.1555238
0.11184163 0.23290965 1.2842681
0.13494621 0.28102484 1.2620676
0.16352591 0.34054196 1.2960674
0.18464746 0.38452747 1.2702929
0.21710983 0.4521302 1.2856289
0.23297353 0.48516628 1.2489744
0.26029742 0.54206818 1.2642814
0.28702319 0.59772444 1.266982
0.31204736 0.64983714 1.258109
0.33949354 0.7069937 1.2551112
0.3715477 0.77374631 1.2665579
0.40245277 0.83810598 1.2651128
0.44223571 0.92095381 1.2701069
0.47319081 0.9854176 1.2492568
0.51485974 1.0721929 1.242466
0.56284481 1.1721216 1.2447236
0.60591269 1.2618103 1.2248693
0.66212773 1.3788779 1.2414439
0.70640087 1.4710765 1.2241453
0.7652607 1.5936519 1.2235807
0.83892345 1.7470542 1.2198808
0.92190361 1.9198599 1.211087
0.97471446 2.0298383 1.1535113
0.97884458 2.0384393 1.0424627
0.98424882 2.0496936 0.93894136
0.98686504 2.0551419 0.84106445
0.99180889 2.0654373 0.74725074
1.0058872 2.0947554 0.6389764
1.0088038 2.1008291 0.53002971
1.0129853 2.1095371 0.43372056
1.0117906 2.1070492 0.32591942
1.0212908 2.1268332 0.22460152
1.0199362 2.1240125 0.13379498
1.0213362 2.1269279 0.051483128
1.0256639 2.1359403 -0.051701277
1.0324955 2.1501672 -0.1511101
1.0457536 2.1777771 -0.26189029
1.0398134 2.1654065 -0.36701879
1.0408331 2.1675303 -0.47008422
1.0494305 2.1854341 -0.56804359
1.0559729 2.1990585 -0.67079264
1.0565039 2.2001643 -0.77244836
1.0551901 2.1974285 -0.87520432
1.1137823 2.3194463 -1.0526432
1.1175534 2.3272996 -1.183364
1.1132528 2.3183436 -1.2962835
1.113479 2.3188148 -1.444217
1.1035423 2.2981219 -1.5814013
1.0943817 2.2790446 -1.741604
1.1115426 2.3147821 -1.9262286
1.1065915 2.3044717 -2.1026094
1.04515 2.1765201 -2.1455355
0.84559137 1.7609401 -1.9070829
0.88180691 1.8363588 -2.1749949
0.78896904 1.6430243 -2.1387143
0.12426137 0.24387668 1.2606281
0.15204105 0.29839736 1.2664685
0.17832692 0.34998628 1.2602021
0.20458594 0.40152252 1.272566
0.22983915 0.45108473 1.2730265
0.24925254 0.48918566 1.2551775
0.27674693 0.54314643 1.2603186
0.3026526 0.59398913 1.2537856
0.32871923 0.6451478 1.24472
0.35672674 0.70011568 1.2423704
0.39342886 0.77214766 1.260913
0.43230456 0.84844548 1.2608144
0.47131836 0.92501438 1.2566254
0.50853884 0.99806362 1.238611
0.55673856 1.092661 1.2343962
0.60097003 1.1794701 1.2344171
0.63850075 1.2531282 1.2172043
0.6910165 1.3561963 1.2189044
0.7371856 1.4468082 1.201542
0.802463 1.5749223 1.2063469
0.8873145 1.7414528 1.2124418
0.98630118 1.9357251 1.2166669
1.0037336 1.9699382 1.1235046
1.0142294 1.9905373 1.0299029
1.0103714 1.9829656 0.92471474
1.0124807 1.9871054 0.83108079
1.0261475 2.0139277 0.74532986
1.0252247 2.0121167 0.65023124
1.0266531 2.01492 0.56123126
1.0311874 2.0238192 0.47244886
1.0341445 2.029623 0.38376489
1.0452653 2.0514488 0.28526866
1.0500112 2.0607629 0.1820251
1.0480793 2.0569713 0.080617838
1.0486676 2.058126 -0.022657851
1.0654763 2.091115 -0.120409
1.0620778 2.084445 -0.22266532
1.0654863 2.0911348 -0.32984024
1.075796 2.1113687 -0.43918762
1.0702305 2.1004455 -0.54693282
1.0812246 2.1220226 -0.65488452
1.0927693 2.1446805 -0.77916682
1.089062 2.1374044 -0.89389372
1.1591903 2.2750392 -1.0739529
1.1526643 2.2622311 -1.1805401
1.151565 2.2600734 -1.2994099
1.1437643 2.2447639 -1.4362586
1.1334447 2.2245104 -1.5714186
1.1239635 2.2059026 -1.7294797
1.1419524 2.2412078 -1.912729
1.1395395 2.2364721 -2.0644956
1.0859574 2.1313114 -2.1256077
0.92582619 1.8170362 -1.9909108
0.9164775 1.7986884 -2.1648068
0.81840229 1.6062049 -2.1294186
0.12175246 0.22564688 1.2744645
0.14410894 0.26708069 1.2640809
0.17473809 0.32384649 1.2780806
0.1992685 0.36930934 1.2725968
0.22880282 0.42404601 1.2717838
0.25940749 0.48076645 1.2563723
0.29142869 0.54011208 1.2583116
0.32238734 0.59748852 1.2471864
0.35333678 0.65484792 1.2445189
0.38340306 0.71057051 1.2403594
0.41931346 0.77712417 1.2494615
0.46120268 0.8547585 1.2714874
0.49600509 0.91925871 1.2643348
0.53121293 0.98451024 1.2533764
0.57660258 1.068632 1.2601806
0.61743444 1.1443068 1.2447236
0.65921426 1.2217383 1.2228214
0.71338707 1.3221382 1.2274483
0.76921314 1.4256021 1.2234664
0.83758169 1.5523112 1.2293441
0.89921361 1.6665353 1.2151442
0.99330455 1.8409164 1.2168702
1.0397978 1.9270834 1.1642895
1.0473143 1.9410139 1.0668167
1.0610296 1.9664329 0.98028463
1.0674958 1.9784168 0.86857331
1.060791 1.9659907 0.76105392
1.0667728 1.9770769 0.65479988
1.0700953 1.9832346 0.5514313
1.0807306 2.0029452 0.45014703
1.0843318 2.0096192 0.34893426
1.0863096 2.0132849 0.23794012
1.0944902 2.0284462 0.15361568
1.0964772 2.0321286 0.06550651
1.0967716 2.0326743 -0.037775446
1.099895 2.0384631 -0.13152726
1.1108921 2.0588441 -0.22266532
1.1144572 2.0654516 -0.32984024
1.1112336 2.0594771 -0.43372056
1.1248902 2.0847874 -0.54146421
1.1237563 2.0826859 -0.63410664
1.1386663 2.1103187 -0.74168313
1.1423085 2.117069 -0.84596133
1.1545454 2.1397481 -0.9761672
1.18197 2.1905746 -1.1212624
1.1905545 2.2064846 -1.2465979
1.1969808 2.2183948 -1.3721741
1.1916363 2.2084897 -1.4929758
1.1597288 2.1493545 -1.5822151
1.1722795 2.1726151 -1.7568165
1.1787046 2.1845229 -1.9393337
1.1731832 2.1742899 -2.0961163
1.1168218 2.0698338 -2.1551328
0.90140122 1.6705896 -1.8776332
0.95523965 1.7703696 -2.1713841
0.85908508 1.592164 -2.1370509
0.13459681 0.23597333 1.2712986
0.16058306 0.28153208 1.258949
0.18995027 0.3330183 1.2839851
0.21659356 0.37972894 1.287825
0.24255548 0.42524505 1.2795442
0.26852822 0.47078007 1.2691174
0.2999858 0.52593112 1.2623014
0.33435598 0.58618844 1.2493955
0.37375182 0.65525669 1.2616847
0.40951127 0.71794969 1.2517383
0.45071268 0.79018348 1.2549773
0.50373638 0.88314384 1.2868203
0.53414595 0.93645751 1.2622739
0.57038939 0.99999905 1.2508628
0.61709839 1.0818887 1.2293115
0.67615104 1.185419 1.2341806
0.73138434 1.2822533 1.2277229
0.79660213 1.3965921 1.2392963
0.84771055 1.4861948 1.2176255
0.91570294 1.6053982 1.2117281
1.0091468 1.7692227 1.2117646
1.0830122 1.8987225 1.1714681
1.0671145 1.8708508 1.0359942
1.0844438 1.9012325 0.93471748
1.0828172 1.8983806 0.83621657
1.0998585 1.9282573 0.7400912
1.1018747 1.931792 0.62462127
1.1029594 1.9336935 0.53703797
1.1123137 1.9500936 0.45165578
1.1200432 1.9636446 0.36565447
1.1161565 1.9568306 0.27912062
1.1206225 1.9646605 0.19290954
1.1284028 1.9783008 0.10692571
1.1345185 1.9890227 0.027497351
1.134033 1.9881715 -0.072410017
1.1417216 2.001651 -0.16113746
1.1469979 2.0109015 -0.26376349
1.1491873 2.01474 -0.37774503
1.1608864 2.0352507 -0.47137874
1.1655777 2.0434752 -0.56748378
1.1635306 2.0398862 -0.66231471
1.1784432 2.0660307 -0.76992768
1.1821039 2.0724487 -0.87131345
1.2119229 2.124727 -1.0194499
1.2246238 2.1469941 -1.159143
1.2173519 2.1342449 -1.2790437
1.226716 2.1506622 -1.4114954
1.2252032 2.1480098 -1.5339593
1.1829711 2.0739691 -1.6104755
1.2177536 2.1349494 -1.8228184
1.222742 2.1436949 -1.9895662
1.1923139 2.090349 -2.1243656
1.0989629 1.926687 -2.1513386
0.96185035 1.6863031 -2.0591564
0.91617221 1.6062208 -2.1555238
0.11787522 0.19579008 1.2797545
0.14542793 0.24155499 1.2588097
0.17700791 0.29400915 1.2642496
0.20998399 0.34878224 1.2766588
0.24100511 0.40030813 1.2665583
0.27337554 0.45407528 1.2524701
0.30572456 0.50780678 1.2462202
0.33900553 0.56308633 1.2361267
0.37556776 0.62381595 1.2423375
0.40738338 0.67666155 1.2397854
0.44910109 0.74595445 1.258078
0.48283291 0.80198282 1.2479167
0.5193513 0.86263967 1.2434336
0.56382674 0.93651313 1.2492568
0.60572731 1.0061097 1.2429552
0.65903211 1.0946487 1.2392824
0.70419472 1.1696635 1.2185634
0.76742995 1.2746968 1.2292677
0.81498462 1.3536849 1.2097261
0.89296985 1.483218 1.2235478
0.9682743 1.6082982 1.2220564
1.0703486 1.7778431 1.2254499
1.0975428 1.8230124 1.1314265
1.1062469 1.8374701 1.0316595
1.1147051 1.8515191 0.92293531
1.1190046 1.8586603 0.8219552
1.1290674 1.8753747 0.73775125
1.1399918 1.89352 0.63639653
1.1372803 1.8890163 0.53954697
1.1485833 1.9077904 0.4404456
1.1523006 1.913965 0.34138155
1.1590219 1.9251288 0.24113731
1.1736389 1.9494078 0.14415525
1.1653091 1.9355718 0.056715153
1.1654514 1.9358084 -0.044372145
1.1684915 1.9408578 -0.14352299
1.1793978 1.9589733 -0.24787971
1.1840534 1.9667062 -0.3353872
1.1852638 1.9687165 -0.4414807
1.1942749 1.9836841 -0.55054975
1.2002262 1.9935691 -0.66448414
1.2085997 2.0074775 -0.78116649
1.1956862 1.9860282 -0.88115078
1.262924 2.0977097 -1.0393448
1.2561872 2.08652 -1.1421592
1.2602884 2.0933321 -1.261798
1.2659465 2.10273 -1.3886344
1.2553703 2.0851631 -1.5208683
1.2217848 2.0293779 -1.6204219
1.2501816 2.0765445 -1.8182158
1.2548138 2.0842388 -2.0009725
1.2165083 2.0206134 -2.1329861
1.0928764 1.8152617 -2.1096318
1.0094444 1.6766815 -2.1264668
0.92259157 1.5324196 -2.1411715
0.14403406 0.22696134 1.29234
0.1721815 0.27131462 1.3009005
0.20316815 0.32014179 1.2852361
0.23649171 0.37265131 1.2863914
0.26679969 0.42040902 1.2763127
0.29698801 0.46797821 1.2747135
0.33119631 0.52188188 1.2672997
0.36669096 0.57781249 1.2669927
0.39977041 0.62993735 1.2665949
0.43695313 0.68852794 1.2708664
0.47182414 0.74347585 1.2634182
0.51669037 0.81417376 1.276774
0.55863065 0.880261 1.278895
0.59585136 0.93891156 1.2459158
0.64838219 1.0216868 1.2503426
0.69931316 1.1019412 1.2250659
0.76384753 1.203631 1.2256465
0.83460283 1.3151236 1.2224108
0.90157825 1.4206599 1.2057289
0.98793423 1.5567352 1.2002339
1.1094629 1.7482338 1.2135777
1.1583736 1.8253046 1.1313857
1.1479799 1.8089268 1.0133243
1.1529158 1.8167046 0.89401883
1.1576146 1.8241086 0.78902233
1.1651418 1.8359697 0.68560922
1.1635 1.8333826 0.58947086
1.1747106 1.8510476 0.50613987
1.1789412 1.8577141 0.42023337
1.1864798 1.869593 0.33836049
1.1872128 1.870748 0.25244316
1.196853 1.8859386 0.16845915
1.2047812 1.8984314 0.083429426
1.2056103 1.8997378 1.3777277e-16
1.2047322 1.8983541 -0.085862435
1.2181252 1.9194583 -0.17392746
1.2191558 1.921082 -0.25923535
1.2235606 1.9280229 -0.34889439
1.2207931 1.9236622 -0.43770736
1.2266127 1.9328324 -0.53111243
1.2336792 1.9439673 -0.64119154
1.2374511 1.9499109 -0.75595146
1.237136 1.9494144 -0.87759775
1.2873334 2.0285127 -1.0198083
1.2904426 2.0334122 -1.1294214
1.2949742 2.0405529 -1.2480329
1.2918169 2.0355778 -1.3640133
1.2949016 2.0404384 -1.4917912
1.2777277 2.0133767 -1.5970678
1.2683817 1.9986498 -1.7436188
1.2814355 2.0192192 -1.9408958
1.2774082 2.0128732 -2.1045117
1.2077338 1.9030838 -2.1861498
0.95200193 1.500115 -1.8845284
1.0016072 1.5782803 -2.1645818
0.1486208 0.22242674 1.2721785
0.18422119 0.2757065 1.2880018
0.21525881 0.32215756 1.2723122
0.24572913 0.36775962 1.2754881
0.28331837 0.42401591 1.2823187
0.31867647 0.47693303 1.2770983
0.35277358 0.52796298 1.2701204
0.38669661 0.57873237 1.2720199
0.42194828 0.63149023 1.2702676
0.451603 0.67587161 1.2487403
0.49379283 0.7390132 1.257628
0.5328508 0.79746753 1.2555937
0.58385217 0.87379652 1.2720441
0.62890488 0.94122261 1.2682976
0.67461073 1.0096263 1.2601806
0.71610951 1.0717336 1.2420444
0.76680148 1.1475995 1.2318811
0.82662445 1.2371309 1.2292677
0.89549232 1.340199 1.2340423
0.96184766 1.4395068 1.2235478
1.0569289 1.5818058 1.2384232
1.1433406 1.7111301 1.2152803
1.2655916 1.8940917 1.2112366
1.2937398 1.9362184 1.1107186
1.2962389 1.9399587 0.97837871
1.2791052 1.9143163 0.86653513
1.264922 1.8930897 0.75906789
1.2534316 1.8758929 0.6575982
1.2449036 1.86313 0.56130379
1.2447395 1.8628843 0.47369364
1.2538794 1.8765632 0.38781035
1.2567451 1.8808519 0.28528601
1.2624624 1.8894086 0.18634388
1.2658291 1.894447 0.08454182
1.266673 1.8957101 -0.014922459
1.2707907 1.9018726 -0.10986991
1.2676535 1.8971775 -0.19460918
1.2681177 1.8978722 -0.28276962
1.2776457 1.9121319 -0.37453017
1.2744982 1.9074214 -0.46151724
1.2671549 1.8964314 -0.56600893
1.2682184 1.898023 -0.67344695
1.2817369 1.9182547 -0.79438627
1.2846819 1.9226624 -0.89630431
1.3316623 1.9929734 -1.0328758
1.3288412 1.9887514 -1.1408544
1.3233641 1.9805543 -1.2498847
1.3302337 1.9908353 -1.392822
1.3129901 1.9650284 -1.5201383
1.291494 1.9328573 -1.6314735
1.3200737 1.97563 -1.8314724
1.3339077 1.996334 -2.023596
1.3025577 1.9494153 -2.1483769
1.2125844 1.8147608 -2.1873231
1.0384606 1.5541662 -2.0578065
0.85279608 1.2762995 -1.8579285
0.15381987 0.21886353 1.2721785
0.19209921 0.27332953 1.297686
0.22446412 0.31938013 1.2818784
0.25911993 0.36869037 1.272566
0.29350486 0.41761518 1.2713585
0.32511267 0.46258855 1.258854
0.36233255 0.5155471 1.2501705
0.40739167 0.5796597 1.2651192
0.44859496 0.63828605 1.2576778
0.49267748 0.70100915 1.2554899
0.54621744 0.77718884 1.2750388
0.58744276 0.83584648 1.2701069
0.62621409 0.89101249 1.2528179
0.67760223 0.9641304 1.2391157
0.73235601 1.0420371 1.2434682
0.78504604 1.1170075 1.2185634
0.8638429 1.2291241 1.2274483
0.9452492 1.3449535 1.2247872
1.0273896 1.4618276 1.2137259
1.138186 1.6194748 1.2100555
1.2758459 1.8153452 1.2362602
1.3738098 1.9547337 1.2141099
1.3733521 1.9540824 1.1010751
1.3871455 1.9737084 0.99619389
1.3864249 1.9726831 0.88952082
1.399467 1.99124 0.79376012
1.3771567 1.9594958 0.68111348
1.3739759 1.95497 0.58470732
1.3801719 1.9637859 0.49109098
1.3672535 1.9454049 0.3925781
1.369167 1.9481276 0.30030107
1.3631729 1.9395989 0.21003753
1.3610471 1.9365742 0.11887247
1.3626035 1.9387888 0.036192358
1.3566895 1.9303738 -0.051483128
1.3545716 1.9273604 -0.14148435
1.3491085 1.9195871 -0.25434613
1.3427577 1.910551 -0.34116971
1.3439356 1.9122269 -0.44902739
1.3369883 1.902342 -0.552863
1.3324997 1.8959553 -0.66173834
1.3488225 1.9191803 -0.77351463
1.3416432 1.9089651 -0.86945134
1.3640385 1.9408303 -0.98867416
1.3622277 1.9382539 -1.0952661
1.3635696 1.9401634 -1.2050079
1.3612372 1.9368446 -1.3190019
1.3504387 1.9214799 -1.4497689
1.3365737 1.901752 -1.5789269
1.3314956 1.8945267 -1.729158
1.367009 1.9450572 -1.9424053
1.3539368 1.9264573 -2.0923951
1.2919309 1.8382317 -2.1934946
1.0298412 1.4653158 -1.9122438
0.91002893 1.2948402 -1.8571042
0.14099212 0.19088806 1.2883257
0.17507909 0.23703814 1.2764248
0.20544747 0.27815366 1.2739003
0.23690593 0.32074499 1.279296
0.26773429 0.36248323 1.272566
0.30078223 0.40722662 1.2730265
0.33341736 0.45141104 1.2716764
0.36722821 0.49718726 1.2672997
0.40130597 0.54332489 1.2604172
0.43861568 0.59383816 1.2595922
0.47563931 0.64396417 1.2566533
0.51730847 0.70037973 1.258078
0.56737435 0.76816344 1.258734
0.62304288 0.84353262 1.2609006
0.67347664 0.91181451 1.2534447
0.71306384 0.96541131 1.2320393
0.77972543 1.0556638 1.23191
0.84007537 1.1373712 1.2237484
0.91358346 1.2368931 1.231406
0.97428012 1.3190699 1.2134385
1.0697836 1.4483713 1.2288953
1.1662453 1.57897 1.2177134
1.2855532 1.7405001 1.2117807
1.4065442 1.9043087 1.2127825
1.4114672 1.9109738 1.1046897
1.4296961 1.9356538 0.9844864
1.4286525 1.9342411 0.87821615
1.4192592 1.9215233 0.77042288
1.418533 1.9205402 0.67058909
1.4092283 1.9079427 0.57221514
1.4153558 1.9162385 0.47926793
1.407596 1.9057326 0.38321865
1.403278 1.8998866 0.29264629
1.4096493 1.9085125 0.18673265
1.4011614 1.8970211 0.087508194
1.4020957 1.8982859 -0.015446054
1.3943505 1.8877999 -0.120409
1.401732 1.8977934 -0.22456035
1.4002471 1.8957831 -0.33123198
1.3970137 1.8914053 -0.42782977
1.3958334 1.8898073 -0.53700769
1.4035025 1.9001906 -0.64958179
1.3961532 1.8902404 -0.76068854
1.3901036 1.8820498 -0.88062513
1.4074607 1.9055495 -0.99641126
1.400704 1.8964016 -1.0962158
1.4012564 1.8971497 -1.2082232
1.3987453 1.8937498 -1.3218257
1.3930715 1.8860682 -1.4368711
1.4000365 1.8954979 -1.5671264
1.3426328 1.8177795 -1.6531832
1.3866256 1.8773412 -1.8689461
1.3891869 1.8808086 -2.0505655
1.3433814 1.8187931 -2.1787424
1.128746 1.5282 -2.0020332
0.95073181 1.2871879 -1.8287034
0.15593959 0.20103613 1.264661
0.19254097 0.24822234 1.2717758
0.23066022 0.29736534 1.2756448
0.26339459 0.33956626 1.2797726
0.29532057 0.380725 1.2717838
0.32724008 0.42187536 1.2616795
0.3685568 0.47514054 1.2642814
0.41147166 0.53046608 1.2626151
0.45105708 0.58149928 1.2493622
0.49903631 0.64335376 1.2597852
0.54574281 0.70356739 1.2687229
0.59642816 0.76891059 1.282634
0.63767153 0.82208121 1.2677372
0.68405503 0.88187844 1.2422798
0.74484277 0.96024549 1.231275
0.80930465 1.0433493 1.223294
0.88330066 1.1387444 1.2227597
0.9594844 1.2369598 1.2285845
1.0371453 1.3370796 1.2266408
1.1101407 1.4311848 1.2131355
1.2365963 1.5942104 1.2243049
1.3487536 1.7388026 1.2072818
1.4551333 1.8759465 1.1772474
1.4536535 1.8740387 1.0653032
1.4598235 1.8819932 0.96535844
1.4640565 1.8874502 0.86352187
1.4715085 1.8970574 0.76566046
1.4465668 1.8649027 0.65732956
1.4430051 1.860311 0.55980271
1.4490348 1.8680844 0.46760964
1.4468131 1.8652203 0.37387836
1.4371626 1.8527788 0.26715958
1.4430455 1.860363 0.16207764
1.4396106 1.8559347 0.074348219
1.4402082 1.8567052 -0.030760549
1.4318959 1.845989 -0.13266112
1.4329276 1.8473191 -0.23797196
1.4252017 1.837359 -0.33972409
1.4273944 1.8401858 -0.43950149
1.4280194 1.8409915 -0.53255123
1.4267749 1.8393871 -0.62375391
1.4404234 1.8569826 -0.72690856
1.4339275 1.8486083 -0.82273889
1.4314325 1.8453915 -0.94653642
1.4361812 1.8515137 -1.0555475
1.4269111 1.8395627 -1.1575551
1.4265386 1.8390824 -1.2669901
1.4271132 1.8398231 -1.4059868
1.4392018 1.8554078 -1.5615889
1.3900334 1.7920202 -1.6590874
1.4219327 1.8331445 -1.8703178
1.4244082 1.836336 -2.051568
1.368271 1.7639643 -2.1652632
1.0889503 1.4038662 -1.8845284
0.96574241 1.2450277 -1.8367492
0.16971213 0.20845877 1.29234
0.20514064 0.25197589 1.2793849
0.24652028 0.30280286 1.2922996
0.28187457 0.34622881 1.2740378
0.31729826 0.38974002 1.2637343
0.3492136 0.42894188 1.2533789
0.38747358 0.47593695 1.2583116
0.42347237 0.52015454 1.2516031
0.46290988 0.56859595 1.2509649
0.50205392 0.61667687 1.2482194
0.54613364 0.67082036 1.2498553
0.59101635 0.72595018 1.2479167
0.64763677 0.79549754 1.266748
0.68600011 0.84261948 1.2417312
0.74144644 0.9107247 1.2429552
0.8041231 0.98771089 1.2434682
0.86414391 1.061435 1.22972
0.93198806 1.1447685 1.2277229
1.0000923 1.2284214 1.2209816
1.0750762 1.3205248 1.2118273
1.1827012 1.4527215 1.2281768
1.291361 1.5861892 1.2168776
1.4412725 1.7703266 1.2234284
1.4906616 1.8309917 1.1356924
1.4942749 1.8354299 1.0016185
1.4831259 1.8217356 0.88414764
1.4885886 1.8284453 0.76895511
1.4779379 1.815363 0.65196359
1.4702593 1.8059314 0.537633
1.470652 1.8064137 0.43698111
1.4673822 1.8023974 0.34735212
1.4746821 1.8113639 0.2584056
1.4672413 1.8022243 0.16760308
1.4637312 1.7979128 0.086025007
1.4710521 1.806905 1.4267136e-16
1.4636716 1.7978396 -0.088533714
1.4667655 1.80164 -0.17774166
1.4667428 1.801612 -0.28010654
1.4526911 1.7843522 -0.36698234
1.467555 1.8026097 -0.46236408
1.4557216 1.7880747 -0.54823655
1.4596988 1.7929599 -0.64387435
1.4640613 1.7983184 -0.75906241
1.4672011 1.802175 -0.86595958
1.4645315 1.798896 -0.98464245
1.4690543 1.8044513 -1.0912079
1.4697422 1.8052963 -1.2021494
1.4617047 1.7954237 -1.3299522
1.467044 1.801982 -1.4519788
1.4571058 1.7897748 -1.5676891
1.423339 1.7482989 -1.6605893
1.4598112 1.793098 -1.8640416
1.4625434 1.7964538 -2.04495
1.3731939 1.6867051 -2.109565
1.0821406 1.3292019 -1.8061821
1.0065174 1.2363135 -1.8339443
0.15715817 0.18400857 1.2670999
0.19709383 0.23076722 1.2640809
0.23898448 0.27981487 1.2780806
0.27703056 0.32436112 1.2702929
0.31865337 0.37309515 1.2576804
0.35467541 0.41527155 1.2673416
0.39052984 0.4572517 1.2642814
0.42761567 0.50067365 1.258122
0.46817136 0.54815823 1.258109
0.50934947 0.59637159 1.2551112
0.5537976 0.64841366 1.2582798
0.60380852 0.70696896 1.2651128
0.65090835 0.76211578 1.2599992
0.70617479 0.82682449 1.2675087
0.75472838 0.88367337 1.2544347
0.81742781 0.95708501 1.2586501
0.87624669 1.0259531 1.23633
0.95607841 1.119424 1.2325599
1.0390435 1.2165637 1.2331915
1.1270545 1.3196112 1.2350202
1.2272476 1.4369223 1.2213181
1.3503258 1.5810283 1.2186342
1.4992379 1.7553821 1.217793
1.5240738 1.7844613 1.1193289
1.5170532 1.7762411 0.99755561
1.5346056 1.7967923 0.90411448
1.524585 1.7850597 0.79975158
1.4997423 1.7559726 0.68951666
1.5056607 1.7629021 0.58074284
1.5079538 1.7655871 0.47505537
1.5058179 1.7630863 0.38280436
1.5087812 1.7665558 0.28010654
1.5089287 1.7667285 0.1752276
1.5054919 1.7627045 0.093631722
1.500217 1.7565284 0.0075796023
1.4989363 1.755029 -0.095725708
1.501681 1.7582425 -0.18957271
1.5023334 1.7590065 -0.2789095
1.5071536 1.7646501 -0.37013242
1.4968773 1.7526182 -0.45846227
1.5037626 1.7606797 -0.55054975
1.5015354 1.758072 -0.64387435
1.4875062 1.7416459 -0.74972963
1.4873273 1.7414366 -0.87049174
1.5149306 1.7737559 -1.0051742
1.5064884 1.7638713 -1.1064135
1.5009736 1.7574142 -1.2127134
1.4979674 1.7538943 -1.3249711
1.5035834 1.76047 -1.4466796
1.4881234 1.7423687 -1.5564511
1.4484464 1.6959127 -1.6427974
1.4942942 1.7495937 -1.830193
1.4886373 1.7429703 -1.9969009
1.2847624 1.5042635 -1.8813498
1.1646692 1.3636523 -1.840896
1.0409536 1.2188002 -1.7997338
0.18264177 0.2039153 1.2810779
0.21899544 0.24450332 1.2578788
0.26128763 0.29172155 1.271034
0.30065876 0.33567852 1.272566
0.3353053 0.37436056 1.2637343
0.3717255 0.41502291 1.2625277
0.41238788 0.46042147 1.2672997
0.45065635 0.50314736 1.2604172
0.49255419 0.54992533 1.2595922
0.53771555 0.60034692 1.2650871
0.58472109 0.6528275 1.2663007
0.63256437 0.7062434 1.2639155
0.68858963 0.7687943 1.2745193
0.73919064 0.82528919 1.2495579
0.79354882 0.88597882 1.242466
0.8626883 0.96317148 1.2378083
0.93388796 1.0426642 1.2248693
1.0155153 1.1337992 1.2189044
1.0994549 1.2275158 1.2193867
1.2113318 1.3524239 1.2246325
1.3320303 1.4871808 1.2204869
1.4597021 1.6297235 1.2096573
1.557536 1.7389528 1.1671439
1.5618365 1.7437541 1.0361412
1.5538833 1.7348746 0.90865654
1.5581592 1.7396486 0.80415332
1.5391786 1.7184571 0.69709009
1.5364457 1.7154059 0.60092998
1.5310808 1.7094162 0.50615013
1.5294214 1.7075635 0.41712928
1.5323267 1.7108071 0.32789302
1.5262867 1.7040638 0.23794012
1.5377806 1.7168963 0.15361568
1.5337522 1.7123986 0.072766341
1.5278158 1.7057709 -0.014987908
1.5196562 1.6966609 -0.10191699
1.5360384 1.7149512 -0.18875559
1.5301105 1.7083328 -0.27651545
1.5285443 1.7065842 -0.36540732
1.5246658 1.7022541 -0.45456046
1.5253538 1.703022 -0.54361004
1.5232567 1.7006806 -0.63582587
1.5186588 1.6955472 -0.72862566
1.5166126 1.6932627 -0.83014905
1.5252365 1.7028911 -0.93526208
1.5246099 1.7021916 -1.038368
1.52268 1.7000369 -1.159707
1.5155913 1.6921225 -1.2852255
1.5137835 1.6901041 -1.4074472
1.5155476 1.6920737 -1.5321885
1.464664 1.6352633 -1.6059494
1.4906855 1.6643157 -1.7692964
1.4661829 1.6369592 -1.8769048
1.3290517 1.4838554 -1.8373607
1.2292737 1.3724555 -1.8344623
1.1159811 1.245967 -1.8174301
0.80415267 0.89781773 -1.4427966
0.18261711 0.19446747 1.2825496
0.21668784 0.23074912 1.281484
0.25955808 0.27640128 1.2852361
0.29546604 0.31463936 1.258015
0.33553025 0.35730341 1.2686031
0.38132071 0.40606532 1.2735013
0.42312083 0.45057791 1.2672997
0.46561876 0.49583364 1.2692313
0.50191212 0.53448212 1.2509649
0.54067612 0.57576162 1.2397854
0.59214783 0.63057339 1.2498553
0.64959198 0.69174516 1.2507674
0.72224808 0.7691161 1.268589
0.78245348 0.83322835 1.2583709
0.83190417 0.88588798 1.231275
0.9039008 0.9625566 1.223294
0.98654586 1.0505646 1.2227597
1.0797725 1.1498408 1.2296168
1.1602019 1.2354895 1.2229462
1.25945 1.3411781 1.2062451
1.406047 1.497288 1.2219905
1.5533574 1.6541576 1.2065419
1.5899069 1.6930789 1.1234232
1.5922544 1.6955787 1.0204602
1.5772014 1.6795489 0.89019752
1.5745815 1.676759 0.78362757
1.5611171 1.6624209 0.68093342
1.5578802 1.6589739 0.58593071
1.5649934 1.6665487 0.49900985
1.5634164 1.6648693 0.40784737
1.5729318 1.6750022 0.32039535
1.5597254 1.6609389 0.22943066
1.5713083 1.6732733 0.14541976
1.5739625 1.6760998 0.057718959
1.5743234 1.6764842 -0.03010607
1.5582572 1.6593753 -0.12925956
1.5600644 1.6612998 -0.22445925
1.5530645 1.6538457 -0.31126383
1.5575812 1.6586555 -0.39862567
1.5594131 1.6606063 -0.48940527
1.5587585 1.6599092 -0.58092457
1.5495068 1.6500571 -0.66778773
1.5503854 1.6509926 -0.76330101
1.5446272 1.6448609 -0.87461954
1.5568717 1.6578999 -0.98889768
1.5669184 1.6685987 -1.1009748
1.5551556 1.6560725 -1.2015885
1.5472999 1.647707 -1.3049999
1.5468427 1.6472201 -1.422267
1.5537438 1.6545691 -1.552669
1.4790614 1.5750405 -1.6024122
1.4989048 1.5961715 -1.777054
1.4215472 1.5137939 -1.8331753
1.3070798 1.3918986 -1.8519614
1.17397 1.250151 -1.8190428
0.8277173 0.88142937 -1.4001665
0.17133889 0.17405164 1.2564828
0.20645204 0.20972072 1.2559836
0.24639174 0.25029278 1.2827878
0.28638759 0.29092187 1.2657988
0.32779619 0.33298606 1.2665583
0.37166715 0.37755162 1.2634153
0.41105562 0.41756371 1.2494293
0.45291024 0.46008101 1.2535142
0.49648181 0.50434244 1.2540911
0.5407443 0.54930568 1.2517024
0.58072746 0.58992189 1.2388897
0.63817453 0.64827853 1.2549773
0.69730854 0.70834875 1.2665318
0.74432284 0.75610745 1.2505538
0.80001009 0.81267637 1.2472534
0.85817969 0.87176692 1.2232947
0.92819756 0.94289339 1.2204103
0.99754906 1.0133429 1.2144679
1.0733709 1.0903652 1.2089163
1.1559658 1.1742678 1.2026796
1.2620631 1.2820449 1.2134486
1.3886364 1.4106221 1.2100555
1.5409917 1.5653896 1.2144959
1.6152604 1.6408342 1.1417079
1.6206338 1.6462927 1.0315845
1.6015102 1.6268663 0.91655391
1.6050652 1.6304777 0.81866229
1.5923685 1.6175799 0.71567982
1.5828332 1.6078936 0.62041688
1.5914593 1.6166563 0.53158242
1.5838773 1.6089543 0.43886068
1.5942041 1.6194445 0.35484236
1.5897924 1.6149629 0.2507084
1.5819515 1.606998 0.15029067
1.5848234 1.6099154 0.064088628
1.5853252 1.6104251 -0.029582486
1.5829111 1.6079727 -0.1281257
1.5842903 1.6093737 -0.22987078
1.5826899 1.607748 -0.32960466
1.5786419 1.603636 -0.42466599
1.5797949 1.6048071 -0.51472521
1.5720954 1.5969858 -0.60046017
1.5717593 1.5966444 -0.70908344
1.568334 1.5931649 -0.81642753
1.5713814 1.5962605 -0.942132
1.5854487 1.6105506 -1.068868
1.5902859 1.6154643 -1.1894814
1.5755173 1.600462 -1.2901034
1.5765709 1.6015321 -1.404286
1.5713987 1.5962781 -1.5430497
1.5058908 1.5297331 -1.6212062
1.527902 1.5520927 -1.7913469
1.435102 1.4578235 -1.8378609
1.3244025 1.3453712 -1.8310746
1.1164744 1.1341511 -1.6880717
0.85872936 0.8723253 -1.4268961
0.16911913 0.16388784 1.2784911
0.21323711 0.20664114 1.2861685
0.25601298 0.24809384 1.3020779
0.28504705 0.27622983 1.2589064
0.32901606 0.31883872 1.2805039
0.36923498 0.3578136 1.2806385
0.40010905 0.38773265 1.2625277
0.44387624 0.43014601 1.2672997
0.49441388 0.47912037 1.2647524
0.54097128 0.52423763 1.2506498
0.59649897 0.57804769 1.2490195
0.65327072 0.63306338 1.2549773
0.70493639 0.68313092 1.2507985
0.76657587 0.74286371 1.2581792
0.8237803 0.7982986 1.2546335
0.8777563 0.85060501 1.2383921
0.93723416 0.90824306 1.2250659
