# .PCD v0.7 - Point Cloud Data file format
VERSION 0.7
FIELDS x y z
SIZE 4 4 4
TYPE F F F
COUNT 1 1 1
WIDTH 1458
HEIGHT 1
VIEWPOINT 0 0 0 1 0 0 0
POINTS 1458
DATA ascii
0.33508974 1.059544 1.0661527
0.33682144 1.0650195 0.98609573
0.33128437 1.0475115 0.89965016
0.33418721 1.0566901 0.83894277
0.33098727 1.0465721 0.76859242
0.3292233 1.0409944 0.70565045
0.32673103 1.033114 0.64305717
0.32839957 1.0383898 0.59287471
0.32688099 1.0335881 0.53753561
0.32991704 1.043188 0.49286261
0.32416984 1.0250155 0.43572599
0.32314944 1.0217891 0.38874352
0.32197982 1.0180907 0.3379648
0.32010621 1.0121665 0.28818578
0.32017094 1.0123711 0.2463643
0.32573494 1.0299643 0.20753366
0.32218814 1.0187495 0.15730347
0.32709372 1.0342607 0.10683868
0.32523295 1.0283771 0.055355728
0.32565403 1.0297085 0.007068533
0.32242373 1.0194944 -0.039675325
0.32748738 1.0355055 -0.092630573
0.32282874 1.020775 -0.14212687
0.31483516 0.99549955 -0.18291913
0.32390809 1.0241878 -0.23690259
0.32330227 1.0222722 -0.28728914
0.31634006 1.000258 -0.33077639
0.3176066 1.0042627 -0.38076556
0.31787285 1.0051047 -0.43396029
0.31459811 0.99474996 -0.48373601
0.31864697 1.0075524 -0.54717672
0.31899077 1.0086395 -0.60769349
0.31389084 0.99251366 -0.65520167
0.31465232 0.99492145 -0.72389591
0.31203225 0.98663688 -0.78688216
0.31529561 0.99695539 -0.86963707
0.31433645 0.99392259 -0.93451083
0.30238912 0.95614552 -0.97690666
0.28677148 0.90676296 -0.99997151
0.30860966 0.97581464 -1.1773469
0.12075526 0.35269725 1.8222576
0.14874823 0.43445805 1.8333631
0.17643489 0.51532412 1.8098099
0.20567691 0.6007331 1.8119649
0.23348966 0.6819675 1.8011116
0.26086318 0.76191902 1.80882
0.29017934 0.84754449 1.8216377
0.31711358 0.92621297 1.8125035
0.34752214 1.0150291 1.8168776
0.35396674 1.0338522 1.6988988
0.3505941 1.0240016 1.5493884
0.35190409 1.0278277 1.4351772
0.35371602 1.0331199 1.3159211
0.35499984 1.0368698 1.2065556
0.35151294 1.0266854 1.1067321
0.35734928 1.0437318 1.0310311
0.35090554 1.0249113 0.93344647
0.34952438 1.0208772 0.86025721
0.34919271 1.0199084 0.79589647
0.34781006 1.0158701 0.73282748
0.34564623 1.0095501 0.67002785
0.35065088 1.0241674 0.625
0.34952623 1.0208826 0.56923652
0.33860859 0.98899478 0.50282562
0.34193274 0.99870378 0.45625952
0.34214163 0.99931395 0.40151054
0.34441385 1.0059506 0.3519128
0.33917952 0.99066234 0.3027299
0.34007496 0.99327767 0.25327554
0.34332982 1.0027844 0.2072393
0.34610021 1.0108759 0.15730347
0.34492269 1.0074368 0.10487834
0.34601238 1.0106195 0.061835881
0.34332305 1.0027646 0.013874971
0.34642997 1.0118392 -0.032676209
0.34561059 1.0094459 -0.080450706
0.34400821 1.0047657 -0.1304002
0.34158549 0.99768955 -0.18120398
0.34162149 0.99779469 -0.23259526
0.34083924 0.99550998 -0.28440908
0.33910957 0.99045795 -0.33763552
0.33138138 0.96788579 -0.37614292
0.33172852 0.96889967 -0.42812335
0.3339844 0.9754886 -0.48628837
0.33310124 0.97290909 -0.5367415
0.33768153 0.98628706 -0.59431386
0.33558708 0.98016965 -0.64424276
0.33836004 0.98826879 -0.70458305
0.33463284 0.97738254 -0.75574088
0.3329505 0.97246879 -0.8121258
0.33529428 0.97931439 -0.88211173
0.33267051 0.97165102 -0.95143294
0.31837144 0.92988688 -0.98287845
0.30600762 0.89377517 -1.0332111
0.32603917 0.95228249 -1.2048886
0.11536907 0.31272155 1.8095566
0.14199194 0.384886 1.8039404
0.16841356 0.45650497 1.8159405
0.19160341 0.51936376 1.7966495
0.21977296 0.59572065 1.8119649
0.24863055 0.67394263 1.8236184
0.27114567 0.73497254 1.7857199
0.31006676 0.8404727 1.8216377
0.34213668 0.92740208 1.8301005
0.36957961 1.0017893 1.8082669
0.37448099 1.0150751 1.682078
0.37065777 1.0047119 1.5329927
0.36975479 1.0022641 1.4112575
0.38016817 1.0304909 1.3236165
0.37700254 1.0219101 1.1991534
0.37560385 1.0181187 1.1067321
0.37931144 1.0281686 1.0242032
0.37074843 1.0049576 0.9169001
0.37061292 1.0045903 0.83847749
0.37447226 1.0150515 0.77352506
0.36786577 0.99714381 0.69518268
0.3676402 0.99653238 0.63981551
0.37256971 1.0098944 0.59515136
0.37089029 1.0053421 0.54011816
0.36183512 0.98079699 0.47917911
0.36839715 0.99858421 0.4354459
0.36484793 0.98896354 0.37846673
0.36335638 0.98492056 0.32848683
0.37131503 1.0064934 0.28494933
0.36520782 0.98993915 0.23031223
0.36854443 0.99898332 0.18057486
0.36768234 0.99664658 0.12808292
0.36935636 1.0011842 0.078141369
0.36675835 0.99414206 0.027747566
0.36679676 0.99424618 -0.023123778
0.36256528 0.98277622 -0.072092533
0.36787227 0.99716145 -0.12344652
0.36198375 0.98119986 -0.1726692
0.3689383 1.000051 -0.22777733
0.36138478 0.97957635 -0.2761001
0.35980651 0.97529817 -0.32776931
0.35805124 0.97054034 -0.37396616
0.35942385 0.97426099 -0.41955939
0.3506332 0.9504329 -0.45368889
0.35369313 0.95872712 -0.50531518
0.35000825 0.94873887 -0.54762101
0.36038712 0.97687203 -0.61639452
0.35805047 0.97053826 -0.6653986
0.35778323 0.96981382 -0.72045285
0.35076869 0.95080012 -0.7654022
0.35488927 0.96196949 -0.84709406
0.35355893 0.95836341 -0.92786622
0.3435173 0.93114436 -0.97317314
0.32327601 0.87627798 -0.98854917
0.33706701 0.91366005 -1.1277018
0.14449945 0.36496395 1.8078775
0.1707091 0.431162 1.8012656
0.19906014 0.50276852 1.8109939
0.22600985 0.57083571 1.8086365
0.25651485 0.64788252 1.8212491
0.28047872 0.70840836 1.7841214
0.31913057 0.80603182 1.8023508
0.35646203 0.90032035 1.8068918
0.38961443 0.98405373 1.7789713
0.39227775 0.99078053 1.6330867
0.39298886 0.99257654 1.4863551
0.39427337 0.99582088 1.3585982
0.39458159 0.99659932 1.2412474
0.39393538 0.99496722 1.1351014
0.39247453 0.99127752 1.0408807
0.39004701 0.98514628 0.96033853
0.38915968 0.98290515 0.88704687
0.38647121 0.97611487 0.81654131
0.39137602 0.98850298 0.76536709
0.38957283 0.98394865 0.702124
0.38632545 0.97574669 0.64153802
0.38981593 0.98456264 0.58547413
0.37865648 0.95637709 0.5142588
0.37983105 0.95934373 0.46074721
0.38261348 0.96637136 0.41729286
0.38111699 0.96259165 0.37170839
0.38255152 0.96621484 0.32891217
0.38402748 0.96994275 0.27952456
0.38455644 0.97127867 0.23159039
0.38428384 0.97059017 0.18406707
0.39057887 0.98648959 0.138515
0.38887185 0.98217815 0.087776698
0.38624898 0.97555357 0.04008745
0.38652503 0.97625083 -0.0057176705
0.38230294 0.96558702 -0.055553209
0.38458595 0.97135323 -0.10519747
0.38265082 0.96646565 -0.14839986
0.38352183 0.9686656 -0.19544303
0.37992239 0.95957446 -0.24181776
0.3827661 0.96675682 -0.29201257
0.37408009 0.9448185 -0.33508527
0.37476242 0.94654179 -0.38950193
0.37152889 0.93837482 -0.43751451
0.36804175 0.92956734 -0.48223424
0.36425146 0.91999418 -0.52472049
0.36639673 0.92541254 -0.57607734
0.37385878 0.94425946 -0.63922113
0.37371737 0.94390231 -0.69446653
0.3698993 0.934259 -0.74352849
0.36905161 0.93211794 -0.81182331
0.37185058 0.93918735 -0.89563066
0.36125302 0.91242099 -0.95597291
0.34383118 0.86841846 -0.98854917
0.3416568 0.8629266 -1.0747224
0.14691348 0.34694797 1.82144
0.17852649 0.4216046 1.8027695
0.21126632 0.49892235 1.8002342
0.24400647 0.57624084 1.8045795
0.27351534 0.64592838 1.7980171
0.30319244 0.71601325 1.7882671
0.33803192 0.79828948 1.8023508
0.37190917 0.87829328 1.8032982
0.41208491 0.97317153 1.8031149
0.41765997 0.98633748 1.6533598
0.40984222 0.96787524 1.4735491
0.40867287 0.96511376 1.3384849
0.41285473 0.97498953 1.2261102
0.41048941 0.96940362 1.1239907
0.41171888 0.97230709 1.051288
0.40616301 0.95918649 0.95031196
0.4043498 0.9549045 0.8643834
0.4062618 0.95941979 0.79408121
0.40565076 0.95797682 0.72844207
0.40607944 0.95898914 0.67308199
0.40394062 0.95393813 0.60566819
0.39775059 0.93931991 0.53101093
0.40888724 0.96561998 0.49597305
0.39427134 0.93110335 0.43312433
0.39777985 0.93938899 0.38395256
0.40393168 0.95391697 0.33908933
0.40229073 0.95004177 0.28369489
0.40293178 0.95155567 0.23619427
0.40688649 0.96089506 0.18634406
0.40176031 0.94878918 0.14137797
0.40382358 0.95366174 0.095161684
0.40505779 0.95657641 0.049897254
0.40552479 0.95767927 6.3681631e-17
0.40118393 0.94742805 -0.048286203
0.4076238 0.96263629 -0.098357603
0.4053143 0.95718223 -0.14839986
0.40215597 0.94972354 -0.19696639
0.39811164 0.94017255 -0.24511763
0.39306751 0.92826045 -0.29382047
0.39095262 0.92326593 -0.34400001
0.39645821 0.93626785 -0.39284021
0.39050573 0.92221057 -0.43027079
0.38281584 0.90405023 -0.47354534
0.38470173 0.90850395 -0.53011805
0.389227 0.9191907 -0.59092367
0.39353329 0.92936039 -0.64916939
0.39027464 0.92166483 -0.69758129
0.38894498 0.91852474 -0.75334859
0.39289668 0.92785704 -0.82140952
0.38916007 0.91903269 -0.87910938
0.3858875 0.91130424 -0.94737291
0.37422121 0.88375336 -0.99163425
0.35699892 0.84308153 -1.0325528
0.1525863 0.3379412 1.8124605
0.185524 0.41089013 1.8251438
0.21891184 0.48483598 1.8031671
0.25374132 0.5619747 1.7971643
0.290153 0.64261764 1.8073334
0.32161829 0.71230555 1.7974378
0.36259601 0.80306113 1.806576
0.40727022 0.90200359 1.8180815
0.42712101 0.94596821 1.7445951
0.4271453 0.94602197 1.5794586
0.43166775 0.95603812 1.4504324
0.43233484 0.95751554 1.3237637
0.42926455 0.9507156 1.1999882
0.43472171 0.96280181 1.1205488
0.43439895 0.96208704 1.0373458
0.43472862 0.96281713 0.96379155
0.42754138 0.94689918 0.8776049
0.42767864 0.94720316 0.81381637
0.43014923 0.95267498 0.75596434
0.42428049 0.93967712 0.68890709
0.42398852 0.93903053 0.63447255
0.42726311 0.94628292 0.58145928
0.41592613 0.92117429 0.50531518
0.41708562 0.92374223 0.4525924
0.41333124 0.91542727 0.39692599
0.42411298 0.93930614 0.35486928
0.42218786 0.93504244 0.30389643
0.41970727 0.92954856 0.24957019
0.42406046 0.93918979 0.20148265
0.42341101 0.93775141 0.15147741
0.42591411 0.94329518 0.10193782
0.42330265 0.93751144 0.052792963
0.42385072 0.93872529 0.0067412863
0.42356831 0.9380998 -0.038192138
0.42654377 0.94468969 -0.084980875
0.42461237 0.94041216 -0.13011245
0.42155451 0.93363971 -0.17946783
0.41762713 0.9249416 -0.2273118
0.42072088 0.93179345 -0.27991956
0.41862208 0.92714512 -0.33174917
0.4156073 0.92046809 -0.38263431
0.41909558 0.92819381 -0.44149193
0.40771529 0.90298927 -0.47788978
0.40354919 0.89376235 -0.52003545
0.40447453 0.89581174 -0.57751334
0.41185856 0.91216558 -0.64375961
0.40999287 0.90803355 -0.70411712
0.40672514 0.90079635 -0.7652716
0.40793118 0.90346742 -0.84103435
0.40754044 0.90260202 -0.91745317
0.40024599 0.88644665 -0.97898698
0.37076271 0.8211484 -0.99189228
0.3920761 0.86835235 -1.1455743
0.1553674 0.32355186 1.8148485
0.18538705 0.38606763 1.8100231
0.21747871 0.45289838 1.8116252
0.25382203 0.52858317 1.8387698
0.28402528 0.59148133 1.8150425
0.31458443 0.65512061 1.7987367
0.35293615 0.73498791 1.815304
0.38844839 0.80894196 1.8097295
0.42840818 0.89215803 1.8180815
0.4515025 0.94025183 1.7531891
0.45189115 0.94106126 1.6113963
0.44830534 0.93359375 1.4722178
0.44605938 0.92891657 1.3520892
0.45513448 0.94781542 1.2586098
0.45274475 0.94283879 1.1439306
0.45307511 0.9435268 1.0604622
0.45046133 0.93808359 0.96616966
0.45178688 0.940844 0.88746893
0.44419551 0.92503506 0.79812306
0.44368592 0.92397386 0.73281318
0.44290575 0.92234915 0.66445965
0.43638149 0.9087624 0.59381986
0.43953437 0.91532826 0.53989232
0.43368191 0.90314054 0.47786731
0.43432283 0.90447527 0.42589694
0.44212964 0.92073286 0.38062102
0.43654063 0.90909386 0.32646692
0.44242343 0.9213447 0.28104356
0.43886909 0.91394281 0.23173776
0.44717324 0.93123621 0.18797672
0.45049727 0.93815845 0.13932332
0.44420391 0.92505258 0.088660039
0.44553369 0.92782182 0.039323878
0.44152349 0.91947061 -0.0055543082
0.43665102 0.90932369 -0.050658733
0.44389829 0.92441612 -0.096484125
0.4458749 0.92853242 -0.14360753
0.44246903 0.92143965 -0.19175543
0.44230366 0.92109531 -0.24176623
0.44093296 0.91824079 -0.29327801
0.43449411 0.90483189 -0.34072584
0.42710203 0.88943797 -0.38740665
0.4277063 0.89069635 -0.43603587
0.42430615 0.88361561 -0.47674704
0.42018205 0.87502712 -0.51746941
0.42254171 0.87994111 -0.56926459
0.42595339 0.88704592 -0.63294011
0.42420208 0.88339883 -0.6925742
0.41862538 0.8717854 -0.74373585
0.42697942 0.88918269 -0.83134997
0.42361614 0.8821786 -0.90067214
0.41796851 0.87041748 -0.97189283
0.39582685 0.82430756 -1.0066967
0.40412161 0.84158134 -1.1225091
0.17015597 0.33394989 1.8320547
0.20847994 0.40916494 1.8333631
0.2454914 0.48180398 1.8109939
0.28409529 0.55756837 1.8045795
0.32792607 0.64359111 1.8220469
0.36192295 0.7103138 1.790549
0.40670449 0.79820246 1.8216377
0.44229692 0.8680566 1.8037049
0.47091514 0.92422295 1.756602
0.46417883 0.91100228 1.5895637
0.46278074 0.90825838 1.4592124
0.47535968 0.93294591 1.3645678
0.4733569 0.92901528 1.2398645
0.46870527 0.91988587 1.1291702
0.47836775 0.93884957 1.0675794
0.46624964 0.91506642 0.96610802
0.46430185 0.91124374 0.88122565
0.46704963 0.91663647 0.8110131
0.46792755 0.91835952 0.74199706
0.46732017 0.91716748 0.67328721
0.45888841 0.90061921 0.60885674
0.46087608 0.90452027 0.56128097
0.45405242 0.89112806 0.50411028
0.45397225 0.89097071 0.45834523
0.45318991 0.88943529 0.41221815
0.46518943 0.91298568 0.37169337
0.46841264 0.91931158 0.3191486
0.46150634 0.90575713 0.26289901
0.47559077 0.93339944 0.21789667
0.46625566 0.91507828 0.16382121
0.46442816 0.91149157 0.11995661
0.46636161 0.91528618 0.075220197
0.47194523 0.92624468 0.030635173
0.45845163 0.89976203 -0.018719679
0.46217573 0.90707093 -0.063371159
0.46945485 0.92135704 -0.11096584
0.4620907 0.90690404 -0.15778859
0.46732655 0.91718 -0.20709108
0.47121295 0.92480749 -0.25997972
0.460812 0.90439445 -0.30548805
0.45362729 0.89029372 -0.35383528
0.4515793 0.88627428 -0.39432731
0.44748408 0.87823695 -0.44142702
0.45024753 0.8836605 -0.49851909
0.43994692 0.86344445 -0.54130435
0.43741229 0.85846996 -0.59042341
0.44035897 0.8642531 -0.65425569
0.43793204 0.85949004 -0.71378732
0.44454926 0.87247705 -0.79294372
0.44287655 0.86919415 -0.85927987
0.43753636 0.85871351 -0.91655499
0.43083474 0.84556073 -0.97417063
0.41668513 0.81779063 -1.0170999
0.4019303 0.7888326 -1.0715853
0.16951503 0.31416646 1.8050386
0.20118077 0.37285337 1.7905605
0.23857172 0.44215098 1.8116252
0.27266917 0.50534463 1.8006605
0.30672947 0.56846946 1.7868295
0.34687445 0.64287114 1.8080086
0.3832759 0.7103349 1.7970598
0.4219045 0.78192621 1.7918113
0.46087766 0.85415614 1.7829496
0.48315367 0.89544088 1.7102188
0.48022833 0.89001924 1.5610402
0.48085737 0.89118505 1.4395018
0.48770782 0.90388113 1.3294886
0.47983164 0.88928407 1.2015971
0.48210928 0.89350528 1.1177294
0.49203879 0.91190785 1.0567507
0.47582698 0.8818621 0.94884557
0.48426601 0.89750242 0.88457668
0.48269159 0.89458448 0.81038719
0.48251116 0.89425009 0.74505013
0.48063231 0.89076793 0.68112046
0.48051628 0.89055288 0.6261946
0.47057244 0.87212372 0.56352615
0.46753508 0.86649448 0.51254094
0.47218966 0.87512094 0.47031927
0.47141618 0.87368745 0.42524934
0.47997457 0.88954896 0.38043004
0.47888023 0.88752073 0.32646692
0.47660112 0.88329685 0.27246654
0.48214442 0.89357036 0.22509719
0.48662525 0.90187478 0.1772504
0.48519167 0.89921796 0.12998495
0.48269001 0.89458156 0.084464371
0.47456712 0.87952721 0.034899496
0.47483832 0.8800298 -0.0087265354
0.46935174 0.86986136 -0.056125861
0.47246715 0.87563527 -0.10018806
0.47911173 0.88794982 -0.14965628
0.47049206 0.87197483 -0.19595189
0.47483069 0.88001561 -0.24699859
0.47320661 0.87700576 -0.29755074
0.46606252 0.86376536 -0.34394053
0.46669593 0.86493933 -0.39708298
0.46234798 0.85688114 -0.44372177
0.46541014 0.86255634 -0.49938956
0.45462337 0.84256494 -0.54166591
0.45474422 0.84278893 -0.59984541
0.45071656 0.83532435 -0.64929795
0.4520331 0.83776432 -0.7140848
0.4588362 0.85037267 -0.79299158
0.45830595 0.84938991 -0.8709147
0.45287257 0.83932012 -0.94130129
0.43889388 0.81341308 -0.99766296
0.41260266 0.76468688 -1.0332053
0.16045788 0.28131261 1.7909541
0.1984712 0.34795704 1.8163521
0.23518638 0.41232562 1.8190863
0.26844397 0.47063234 1.8002342
0.30710959 0.53842044 1.8066231
0.35227725 0.61760777 1.8050101
0.39095113 0.68541026 1.7722782
0.44603994 0.78199124 1.8306113
0.48034239 0.84212983 1.7949063
0.49881366 0.87451345 1.7049373
0.49853671 0.87402791 1.5643326
0.49653971 0.87052679 1.4346189
0.50973123 0.89365405 1.3407671
0.50383866 0.88332313 1.2092506
0.50483102 0.88506293 1.1144098
0.50644886 0.8878994 1.0424702
0.49953759 0.87578267 0.94226694
0.49307835 0.86445838 0.85187173
0.49541572 0.8685562 0.78299004
0.49782142 0.87277383 0.72666335
0.49435058 0.86668885 0.66668427
0.48094568 0.84318751 0.59776753
0.48326772 0.84725851 0.55045921
0.48424369 0.84896958 0.5047363
0.50240976 0.88081813 0.47554585
0.49458495 0.8670997 0.41221815
0.5036189 0.88293797 0.36495006
0.49699819 0.87133062 0.31028336
0.49406746 0.86619246 0.25789142
0.49928519 0.8753401 0.21305871
0.49363947 0.8654421 0.16562004
0.49681512 0.87100965 0.12090069
0.49895513 0.87476146 0.077046812
0.49521065 0.86819667 0.031637538
0.5003773 0.87725478 -0.012110026
0.49466181 0.86723447 -0.056692787
0.49296579 0.86426103 -0.10018806
0.49499768 0.8678233 -0.14818907
0.49090502 0.8606481 -0.19595189
0.48100179 0.84328592 -0.23980446
0.48898983 0.85729045 -0.29468969
0.48738816 0.85448241 -0.33750942
0.47900963 0.83979332 -0.38327143
0.48383611 0.84825504 -0.43733972
0.47809342 0.83818698 -0.48504558
0.47493216 0.83264476 -0.53957593
0.47219288 0.8278423 -0.58831203
0.46517661 0.81554145 -0.6288107
0.46897635 0.82220304 -0.68770874
0.47550762 0.83365363 -0.75320262
0.47603244 0.83457369 -0.81515634
0.47169918 0.82697672 -0.87046504
0.47252104 0.8284176 -0.94130129
0.45777035 0.80255687 -0.98430115
0.43550438 0.76352048 -1.0246328
0.20355515 0.33810398 1.8176498
0.24525915 0.40737408 1.7981919
0.28855163 0.47928265 1.7948332
0.33842808 0.56212717 1.8150425
0.3859016 0.64098042 1.8007566
0.42539942 0.70658606 1.789042
0.471986 0.78396612 1.8008405
0.51463521 0.85480618 1.7907978
0.52560669 0.87302983 1.6508048
0.52251631 0.86789674 1.4878615
0.5207237 0.86491919 1.3428185
0.52164745 0.86645359 1.2268831
0.5233224 0.86923563 1.1317964
0.52728349 0.87581497 1.0563239
0.51734793 0.859312 0.96230662
0.51427162 0.85420233 0.88020623
0.52017134 0.86400175 0.8203187
0.51078689 0.84841424 0.74625063
0.5208686 0.86515981 0.70220685
0.51657629 0.85803038 0.64267623
0.50663441 0.84151697 0.57859373
0.50550723 0.83964473 0.52111346
0.50278401 0.83512145 0.46495199
0.50871938 0.84498006 0.41486546
0.51777929 0.86002851 0.37034526
0.51633006 0.85762137 0.31684199
0.50847101 0.84456748 0.26184532
0.51940799 0.86273378 0.21634653
0.51389205 0.85357189 0.16562004
0.52252156 0.86790538 0.11879198
0.51452947 0.85463059 0.069756471
0.51049399 0.84792763 0.022685025
0.51050651 0.84794849 -0.021596735
0.51456875 0.8546958 -0.068659551
0.51234174 0.85099679 -0.11537058
0.51453006 0.8546316 -0.15799882
0.510373 0.8477267 -0.20243248
0.5103361 0.84766549 -0.24783115
0.50905168 0.845532 -0.29468969
0.50681037 0.84180915 -0.34073538
0.50280273 0.83515257 -0.39014041
0.49824718 0.82758576 -0.43640754
0.49716121 0.825782 -0.48714963
0.48992255 0.81375867 -0.53467071
0.48618722 0.8075543 -0.5861553
0.48639497 0.80789936 -0.6405611
0.4862783 0.80770558 -0.69285291
0.49246305 0.81797844 -0.75946784
0.48934367 0.81279713 -0.81388181
0.49188635 0.81702048 -0.88347346
0.48550993 0.80642933 -0.9537043
0.46303618 0.76910055 -0.99482757
0.42537445 0.70654458 -1.0049136
0.20188406 0.31811836 1.82144
0.2389982 0.37660092 1.8057275
0.28019467 0.44151616 1.8162198
0.32050097 0.50502872 1.8139254
0.36005133 0.56735009 1.8092476
0.40706345 0.64142936 1.8284605
0.44819295 0.7062391 1.7836057
0.5128724 0.80815756 1.824128
0.54154724 0.85334188 1.7374218
0.5364024 0.84523487 1.5676258
0.53448421 0.84221232 1.4378822
0.54240614 0.85469526 1.3282287
0.53933662 0.84985852 1.2048886
0.54040825 0.85154712 1.1103272
0.53566653 0.84407538 1.0084633
0.5317151 0.8378489 0.91530776
0.54032195 0.85141116 0.85179299
0.53427452 0.84188193 0.77031523
0.53425366 0.84184903 0.70303863
0.52652079 0.82966399 0.6350854
0.52069175 0.82047892 0.57670999
0.52708584 0.83055437 0.53549975
0.52325481 0.82451761 0.48422629
0.52993619 0.83504581 0.43389648
0.53457695 0.84235853 0.38672936
0.53315336 0.84011525 0.33534145
0.53018874 0.83544374 0.28606585
0.53130168 0.83719748 0.23920469
0.53112811 0.83692396 0.19380711
0.53541386 0.84367722 0.14710787
0.52791417 0.83185965 0.097036973
0.53512251 0.84321815 0.051255304
0.51974088 0.81898057 0.0063485899
0.52474916 0.82687235 -0.036338151
0.5338884 0.84127355 -0.084982179
0.53116673 0.83698481 -0.13159896
0.52727538 0.83085304 -0.17794354
0.53253543 0.83914161 -0.22945008
0.5158689 0.81287932 -0.27038202
0.51905173 0.81789464 -0.31942707
0.51546168 0.81223768 -0.36806145
0.51546395 0.81224126 -0.42078626
0.51873666 0.81739819 -0.47871965
0.51736832 0.81524205 -0.52698237
0.50621587 0.79766858 -0.56344503
0.50816417 0.80073857 -0.61439967
0.51315123 0.80859691 -0.67212111
0.51182306 0.80650407 -0.72635281
0.51774967 0.81584287 -0.79299158
0.51318544 0.80865085 -0.84919053
0.51092178 0.80508393 -0.91279721
0.51133311 0.80573201 -0.99686229
0.47988826 0.75618291 -1.0234718
0.18190265 0.27223656 1.8106349
0.23245557 0.34789434 1.8123283
0.2806077 0.41995913 1.8212615
0.32727939 0.4898082 1.806371
0.36944944 0.55292016 1.790499
0.41353586 0.61890018 1.7915219
0.46234846 0.69195336 1.7745519
0.5240258 0.78426003 1.7975631
0.55382812 0.82886237 1.7223128
0.55141622 0.82525271 1.5730537
0.55417818 0.82938623 1.4378822
0.55902439 0.83663911 1.3202753
0.55700994 0.83362424 1.2081848
0.55997962 0.83806872 1.1243503
0.56212384 0.84127778 1.0386379
0.55033928 0.82364094 0.93184888
0.54979175 0.8228215 0.85836697
0.55459917 0.83001631 0.80118203
0.55288738 0.82745445 0.73975313
0.54984027 0.8228941 0.67861694
0.53526986 0.80108792 0.6093803
0.53785074 0.80495054 0.56317961
0.54449874 0.81489992 0.52111346
0.55660897 0.8330242 0.47786731
0.5538401 0.82888031 0.41547397
0.55360681 0.82853115 0.36146328
0.55198896 0.82610989 0.30732828
0.55401021 0.82913488 0.25789142
0.54936779 0.82218701 0.20567816
0.55412072 0.82930022 0.1590956
0.55213487 0.82632822 0.11103531
0.55434042 0.82962906 0.066500291
0.56097859 0.83956379 0.023143308
0.54984158 0.82289606 -0.024826974
0.55992454 0.83798629 -0.06605716
0.54668033 0.81816489 -0.10884306
0.54352236 0.81343865 -0.15166087
0.54465735 0.81513733 -0.19722959
0.53892165 0.80655324 -0.24297172
0.53234619 0.7967124 -0.2861065
0.5347954 0.80037791 -0.33732629
0.54087156 0.80947149 -0.39333692
0.53082478 0.79443538 -0.4354279
0.53372616 0.79877764 -0.49344781
0.52222723 0.78156823 -0.53181744
0.52262288 0.7821604 -0.58922863
0.51699668 0.77374023 -0.6410464
0.519979 0.77820355 -0.70208335
0.51964855 0.77770901 -0.76761585
0.52537256 0.78627563 -0.84773481
0.52132243 0.78021413 -0.91410547
0.51330936 0.76822174 -0.98430115
0.48472464 0.72544169 -1.017043
0.19954754 0.28392741 1.8171588
0.23800039 0.3386403 1.792841
0.27756229 0.3949312 1.7859139
0.32339239 0.46014085 1.8043802
0.36660674 0.52162862 1.8004452
0.4110992 0.58493501 1.8034546
0.45501566 0.64742178 1.7931553
0.50413144 0.71730644 1.7975881
0.54864043 0.78063643 1.7804495
0.56406593 0.80258465 1.6737047
0.56014919 0.79701167 1.5254853
0.56373197 0.80210942 1.4132327
0.56463856 0.80339938 1.2884614
0.5691514 0.80982053 1.192794
0.57605553 0.81964409 1.1029251
0.55555391 0.79047328 0.98534858
0.56293505 0.80097556 0.91495484
0.56350625 0.80178827 0.83886606
0.56137377 0.7987541 0.76449418
0.56130391 0.79865468 0.69791734
0.54376709 0.77370232 0.61854839
0.54180473 0.7709102 0.56757832
0.55353349 0.78759855 0.53224921
0.55636251 0.79162377 0.47978386
0.5626086 0.80051106 0.43307462
0.56294137 0.8009845 0.37950075
0.56123847 0.79856157 0.32895401
0.56395972 0.80243355 0.28008896
0.55969816 0.79636997 0.22920039
0.56537676 0.80444974 0.18223552
0.5639708 0.80244929 0.13458095
0.55557889 0.79050881 0.085603528
0.56309432 0.80120218 0.037414953
0.55199689 0.78541207 -0.0052275844
0.56853873 0.80894876 -0.04965559
0.56675214 0.80640674 -0.092737168
0.55241209 0.78600287 -0.13394164
0.55949533 0.7960813 -0.18253642
0.55395967 0.78820491 -0.22795102
0.55808431 0.79407358 -0.27944416
0.54993469 0.78247792 -0.32465386
0.55175412 0.78506666 -0.37434974
0.54630518 0.77731365 -0.42300612
0.54457694 0.77485466 -0.47606325
0.54617244 0.77712476 -0.53467071
0.53603232 0.7626968 -0.5839203
0.53153664 0.75630015 -0.63235974
0.52693301 0.74974978 -0.67809796
0.53411144 0.75996369 -0.743828
0.5365833 0.76348078 -0.81656325
0.5305531 0.75490069 -0.88715184
0.53099626 0.75553125 -0.97098684
0.49608111 0.70585203 -0.99903774
0.22968397 0.31096724 1.8091558
0.27055299 0.36629948 1.7930772
0.32361236 0.43813613 1.8098099
0.36826539 0.49859148 1.8066231
0.41111717 0.55660814 1.790969
0.46433422 0.62865829 1.7974378
0.51596707 0.69856358 1.7904991
0.57575029 0.77950358 1.8178245
0.5735774 0.77656174 1.6596267
0.57581002 0.77958447 1.5286566
0.57634443 0.78030795 1.4082069
0.58807987 0.79619652 1.3076059
0.58427858 0.79105002 1.1850985
0.58693898 0.79465187 1.1020123
0.58257449 0.78874284 1.0132086
0.57877153 0.78359401 0.93461436
0.57734358 0.78166074 0.86352819
0.57763243 0.7820518 0.80145854
0.56703103 0.76769865 0.72740263
0.56809902 0.76914459 0.67422557
0.56502992 0.76498938 0.61027241
0.5590539 0.75689846 0.55014861
0.572779 0.77548075 0.50858021
0.58004302 0.78531545 0.46176803
0.5758189 0.77959651 0.40393302
0.5803901 0.78578538 0.35677531
0.57775509 0.78221786 0.30778936
0.57995307 0.78519374 0.25927821
0.58625919 0.79373151 0.21538459
0.57990015 0.78512204 0.16552696
0.57805216 0.78262007 0.11730959
0.57461816 0.77797085 0.073995456
0.5879783 0.79605901 0.025915179
0.57619846 0.78011036 -0.017978305
0.5692544 0.77070886 -0.059643447
0.57870907 0.78350949 -0.10774364
0.57565415 0.77937341 -0.14696743
0.56534731 0.76541913 -0.18819141
0.57724971 0.78153366 -0.2366177
0.57553858 0.779217 -0.2857905
0.56132919 0.75997895 -0.32763019
0.56887347 0.7701931 -0.3795861
0.56308997 0.7623629 -0.42817345
0.55583405 0.75253916 -0.47669002
0.5522688 0.74771219 -0.52992988
0.54378241 0.73622257 -0.57330358
0.54552251 0.7385785 -0.62370425
0.54098219 0.73243135 -0.66916561
0.54865754 0.74282289 -0.73456728
0.55464429 0.7509284 -0.80085969
0.55351657 0.74940151 -0.86308563
0.55454129 0.75078887 -0.93338096
0.54912621 0.7434575 -0.99766296
0.50671613 0.68603885 -1.0074669
0.23206504 0.29917645 1.8006219
0.28269318 0.36444584 1.7915814
0.33031216 0.42583588 1.7906585
0.37593174 0.48464829 1.7877057
0.42411661 0.54676783 1.790969
0.470548 0.60662687 1.7816253
0.52772659 0.68034101 1.8051705
0.57525933 0.74161983 1.7887081
0.61020488 0.7866714 1.71149
0.59682071 0.76941663 1.5138702
0.60782409 0.78360212 1.380767
0.59453613 0.76647133 1.2471762
0.5996049 0.77300596 1.1633296
0.61013657 0.7865833 1.0816284
0.58683401 0.75654185 0.96585208
0.59018302 0.76085937 0.88818753
0.58995569 0.76056629 0.81307513
0.58872581 0.75898075 0.75216365
0.59331673 0.76489931 0.69210136
0.5808506 0.74882811 0.6154421
0.58090848 0.74890268 0.55829221
0.5952813 0.76743203 0.5164187
0.59284329 0.76428896 0.45749238
0.59483105 0.76685154 0.40076765
0.59415901 0.76598519 0.34805423
0.59198719 0.76318526 0.29529542
0.58200455 0.75031579 0.24227449
0.58232468 0.75072849 0.19546016
0.59888768 0.77208132 0.15913513
0.59671271 0.76927739 0.11200972
0.59307164 0.76458335 0.067663781
0.59431612 0.76618773 0.02539164
0.59441769 0.76631868 -0.017978305
0.59337133 0.76496971 -0.060264733
0.58503193 0.75421864 -0.10243001
0.59991598 0.77340698 -0.14846709
0.5952487 0.76739001 -0.19207166
0.59502316 0.76709926 -0.23980446
0.58141333 0.74955356 -0.28324541
0.57263565 0.73823738 -0.32740495
0.57964307 0.74727136 -0.38209873
0.58003056 0.74777091 -0.43128097
0.57245278 0.73800164 -0.47974092
0.57397723 0.73996699 -0.5379582
0.56305468 0.72588569 -0.58665103
0.56316942 0.72603363 -0.6404025
0.55267161 0.71249992 -0.68102711
0.56531763 0.7288031 -0.75190562
0.56570798 0.72930634 -0.81301093
0.56848675 0.7328887 -0.88209808
0.56026173 0.72228503 -0.93835557
0.54611856 0.70405179 -0.98740345
0.48797077 0.6290881 -0.96365589
0.21302842 0.26166451 1.7986246
0.26789671 0.32905969 1.8109531
0.32263517 0.3962954 1.8196034
0.37779438 0.46404788 1.8348926
0.41831145 0.51381534 1.802057
0.4686535 0.57565087 1.8031888
0.52705997 0.64739197 1.7954084
0.59179837 0.72691071 1.800632
0.61009663 0.74938661 1.6822015
0.6186555 0.75989956 1.5455478
0.62188357 0.76386458 1.4100255
0.61350131 0.75356865 1.2836863
0.61598319 0.75661719 1.1915096
0.61497015 0.75537276 1.1009649
0.61052173 0.7499088 1.0123734
0.60535109 0.74355763 0.93609405
0.60813725 0.74697989 0.87303507
0.60939181 0.74852091 0.80991238
0.60799873 0.74680978 0.74900782
0.60461962 0.74265915 0.68941462
0.59974563 0.7366724 0.63025308
0.59254074 0.7278226 0.57373315
0.60042953 0.73751247 0.53259712
0.60888755 0.7479015 0.48610631
0.611076 0.75058955 0.43220535
0.61065364 0.75007081 0.38222501
0.60957593 0.74874705 0.32893008
0.61257929 0.7524361 0.28051117
0.61422855 0.75446188 0.23132342
0.61419588 0.75442177 0.18360621
0.61895645 0.76026917 0.13778137
0.60984308 0.74907523 0.088756569
0.6117996 0.75147837 0.043376334
0.61241078 0.75222909 -0.0021162101
0.61173886 0.75140381 -0.045473415
0.62247968 0.76459682 -0.089502551
0.61307424 0.75304407 -0.13215391
0.61469781 0.75503826 -0.17934273
0.6085574 0.74749601 -0.22584866
0.61941892 0.76083732 -0.27901036
0.60449475 0.74250579 -0.32151395
0.59994137 0.73691285 -0.37071529
0.59984028 0.73678863 -0.42300612
0.59230173 0.72752899 -0.4715721
0.59636909 0.73252499 -0.52359438
0.59214842 0.7273407 -0.5747484
0.57575673 0.70720661 -0.61511219
0.57856971 0.71066183 -0.67809796
0.58387738 0.71718132 -0.74889129
0.58747089 0.72159523 -0.81962079
0.58254457 0.71554416 -0.88715184
0.57868016 0.71079755 -0.96374065
0.55917633 0.68684083 -1.018858
0.22538187 0.26388827 1.8171588
0.2826263 0.33091286 1.8392169
0.335758 0.39312211 1.8179169
0.39049655 0.45721272 1.8234223
0.43639967 0.51095837 1.8092476
0.48092154 0.56308675 1.7822872
0.5459891 0.63927114 1.7926595
0.61559099 0.72076446 1.8064181
0.63352245 0.74175948 1.6769145
0.62537599 0.73222119 1.4970495
0.6285497 0.73593718 1.385432
0.63257426 0.74064934 1.2693653
0.63535279 0.74390256 1.1633296
0.62229228 0.72861063 1.0479881
0.62957484 0.73713744 0.98217309
0.62348324 0.73000509 0.89132553
0.6265927 0.7336458 0.82586038
0.62382513 0.73040539 0.75216365
0.61284047 0.71754396 0.67465341
0.60873055 0.7127319 0.61307454
0.61434871 0.71930993 0.5613991
0.62394333 0.73054379 0.51487911
0.62623 0.73322111 0.46381328
0.62595373 0.7328977 0.41658479
0.63135111 0.73921716 0.36953181
0.62888736 0.73633248 0.32049203
0.62506467 0.7318567 0.27144045
0.62583768 0.73276174 0.22690839
0.63857299 0.74767292 0.18223552
0.63055086 0.73828018 0.13322155
0.6339758 0.74229026 0.086486042
0.63591236 0.74455774 0.040610906
0.63645756 0.74519604 -0.0021380265
0.62927198 0.73678285 -0.045473415
0.64012647 0.74949181 -0.092737168
0.62364107 0.73018986 -0.1370932
0.61878145 0.7245 -0.18195944
0.63150376 0.73939592 -0.23344536
0.61726749 0.72272736 -0.27703074
0.61429733 0.71924973 -0.32452831
0.60373718 0.7068854 -0.36853021
0.61552721 0.72068977 -0.42817345
0.61338222 0.71817827 -0.48122993
0.60369831 0.70683992 -0.52992988
0.60334879 0.70643067 -0.58900416
0.5923149 0.69351161 -0.63269639
0.58186656 0.68127823 -0.6720798
0.59556478 0.69731677 -0.74259806
0.60116428 0.70387292 -0.80997801
0.59952527 0.70195395 -0.8721984
0.59566045 0.69742876 -0.93535113
0.58950084 0.69021684 -0.99929446
0.53156149 0.62237853 -0.98411757
0.25536129 0.28510493 1.8201939
0.31105372 0.34728426 1.8109498
0.36929101 0.41230485 1.8175888
0.42143267 0.47051981 1.8025275
0.47926566 0.53508902 1.8236184
0.53070736 0.59252244 1.8131925
0.59180284 0.66073412 1.8036907
0.64116263 0.7158432 1.7653835
0.64490944 0.72002643 1.6007979
0.64442497 0.71948552 1.4593002
0.65195513 0.72789276 1.3419116
0.64969194 0.72536594 1.2187471
0.64943695 0.72508126 1.1148492
0.64296162 0.7178517 1.0155241
0.63970542 0.71421623 0.93609405
0.6414755 0.71619248 0.86004508
0.64351827 0.7184732 0.79509777
0.63676137 0.71092921 0.72740263
0.62160271 0.69400495 0.65693772
0.62669212 0.69968718 0.60999572
0.63235056 0.70600468 0.55829221
0.64210528 0.71689564 0.511724
0.65036452 0.72611684 0.46495199
0.65099365 0.72681934 0.414175
0.65644324 0.7329036 0.36665329
0.64177626 0.7165283 0.30791295
0.6380046 0.71231729 0.25623086
0.65183568 0.72775942 0.21325207
0.65121305 0.72706425 0.16552696
0.65576166 0.73214263 0.11850662
0.64543921 0.72061789 0.070838436
0.64694554 0.72229964 0.02539164
0.64034301 0.71492809 -0.020942289
0.65229613 0.72827351 -0.067286365
0.66272765 0.73992002 -0.11537058
0.65168869 0.72759533 -0.16126652
0.6394037 0.71387935 -0.20479062
0.63856208 0.71293974 -0.25309175
0.63630348 0.71041811 -0.30070579
0.62619865 0.6991362 -0.34508526
0.64018232 0.71474868 -0.4011246
0.62692714 0.69994956 -0.44568259
0.62996048 0.70333624 -0.50335658
0.61885262 0.69093454 -0.5532006
0.61198968 0.68327224 -0.60713071
0.60597157 0.67655319 -0.65534282
0.60512829 0.67561167 -0.70701385
0.59921098 0.6690051 -0.76536161
0.61293823 0.6843313 -0.86232096
0.60725516 0.67798632 -0.92821103
0.60641807 0.67705166 -1.0116611
0.52060521 0.58124363 -0.95080286
0.24977396 0.26598224 1.8136611
0.3036913 0.32339838 1.7960192
0.35606956 0.37917557 1.8066102
0.41374448 0.44059312 1.8329194
0.45998463 0.48983389 1.8092476
0.50813967 0.54111379 1.8031888
0.56341088 0.59997165 1.8008337
0.63357884 0.67469299 1.8067284
0.65685552 0.69948006 1.7090548
0.64739156 0.68940198 1.5432787
0.65306324 0.69544172 1.4311776
0.65979028 0.70260531 1.3145047
0.66073936 0.70361596 1.1999784
0.66018188 0.7030223 1.109423
0.64577258 0.68767792 1.0072124
0.6472798 0.68928301 0.93531692
0.64601737 0.68793863 0.86475545
0.651878 0.69417953 0.80973446
0.65047956 0.69269037 0.74910367
0.63083893 0.67177522 0.67108887
0.63608068 0.67735708 0.62529093
0.6366244 0.67793608 0.56851745
0.64101255 0.68260902 0.51773334
0.63850969 0.6799438 0.45998025
0.64475 0.686589 0.4168849
0.65658432 0.69919127 0.37540463
0.64797592 0.69002432 0.32248047
0.65103954 0.69328672 0.27495649
0.65266049 0.69501281 0.22669695
0.65249121 0.69483256 0.179897
0.66432744 0.70743686 0.13638964
0.66122514 0.70413321 0.088756569
0.65650785 0.69910985 0.042929158
0.66400909 0.70709789 -0.0021162101
0.66317493 0.70620954 -0.048652448
0.64725798 0.68925977 -0.092076674
0.65703559 0.69967186 -0.14022654
0.65181094 0.69410813 -0.18508473
0.65180576 0.69410264 -0.23188534
0.65000492 0.69218498 -0.28013128
0.64029658 0.68184662 -0.32435387
0.64272946 0.68443733 -0.37221551
0.63007784 0.67096478 -0.4158223
0.63539046 0.67662215 -0.46910706
0.63232547 0.67335826 -0.51995498
0.62201124 0.66237468 -0.5650326
0.61291647 0.65268975 -0.60392833
0.59980291 0.63872522 -0.64835685
0.61711192 0.65715742 -0.73001164
0.61976725 0.65998507 -0.80275041
0.61783147 0.6579237 -0.87921596
0.61586601 0.65583068 -0.95220548
0.58611333 0.6241473 -0.99146926
0.26827624 0.27252376 1.7895974
0.32119274 0.32627806 1.8027695
0.37517625 0.3811163 1.8127584
0.42430604 0.4310239 1.8011615
0.47720888 0.48476437 1.7954596
0.54136395 0.54993516 1.7908089
0.60101396 0.6105296 1.7961447
0.65843993 0.66886479 1.7887081
0.67374623 0.68441343 1.6509829
0.660752 0.67121345 1.4749167
0.67406988 0.68474215 1.3658909
0.68191838 0.69271493 1.258266
0.67538166 0.68607473 1.1372163
0.67460656 0.68528736 1.0448384
0.66894102 0.67953217 0.95564324
0.67036492 0.68097854 0.88140744
0.66085476 0.67131782 0.80635184
0.65939575 0.66983575 0.74600089
0.66758054 0.67815012 0.69774538
0.65623468 0.66662461 0.63393027
0.6489144 0.65918845 0.5766114
0.6659413 0.67648494 0.53571481
0.66293818 0.6734342 0.48020762
0.67161119 0.6822446 0.4312548
0.67794484 0.68867844 0.38433424
0.66994411 0.68055111 0.32882383
0.67936862 0.69012481 0.28685549
0.681427 0.6922158 0.23768589
0.67429066 0.68496644 0.19118851
0.66574246 0.67628294 0.14501163
0.66954625 0.68014693 0.10347949
0.67212272 0.68276417 0.060696945
0.68736827 0.69825113 0.019241018
0.6731993 0.68385786 -0.027223486
0.6785593 0.68930268 -0.072931945
0.68237627 0.69318008 -0.11943196
0.67065656 0.68127483 -0.16426902
0.66451681 0.67503786 -0.20890501
0.66368502 0.67419291 -0.25570723
0.65431404 0.66467357 -0.30080256
0.64370197 0.65389347 -0.34419635
0.64456093 0.65476602 -0.39474386
0.64979613 0.66008413 -0.45050409
0.64041752 0.65055698 -0.49823791
0.64130813 0.65146172 -0.55607694
0.62812358 0.63806844 -0.60392833
0.62182671 0.63167191 -0.65140015
0.62588763 0.63579708 -0.70966667
0.63361961 0.64365143 -0.7748155
0.63300073 0.64302278 -0.8359018
0.63078445 0.64077139 -0.91100109
0.62826133 0.63820833 -0.99678373
0.52515525 0.53346986 -0.91215235
0.23806772 0.23070367 1.7997221
0.29885504 0.28961068 1.8025846
0.35272899 0.34181818 1.7939739
0.40597612 0.39341822 1.7929878
0.45965478 0.44543645 1.7889394
0.52610189 0.50982821 1.7963552
0.58025557 0.56230676 1.7527163
0.65810955 0.63775253 1.788928
0.67852926 0.65754062 1.6828959
0.67914814 0.6581403 1.5432787
0.69181001 0.67041057 1.424903
0.68546605 0.66426283 1.2840916
0.68600273 0.66478294 1.182313
0.68045819 0.65940988 1.0710067
0.67690498 0.65596658 0.98036087
0.67577994 0.65487629 0.89691609
0.67294925 0.65213317 0.82726151
0.67029321 0.64955932 0.75417489
0.66439253 0.64384115 0.68304545
0.66132456 0.64086807 0.619708
0.66651678 0.64589965 0.57154965
0.6716435 0.65086782 0.51977497
0.67443937 0.65357721 0.46954066
0.676377 0.65545493 0.4168849
0.68210453 0.66100526 0.37175992
0.68051744 0.65946728 0.31937283
0.68297505 0.6618489 0.27495649
0.69166201 0.67026711 0.22901019
0.69155467 0.67016309 0.18175159
0.68980342 0.66846603 0.1349979
0.69366032 0.6722036 0.088756569
0.69566691 0.67414814 0.049717646
0.68218702 0.66108525 0.009334743
0.70327979 0.68152553 -0.036338151
0.68690729 0.66565949 -0.081582889
0.68340558 0.66226608 -0.12633501
0.67879778 0.65780079 -0.16772519
0.67923963 0.65822899 -0.21510014
0.67816818 0.65719068 -0.2618936
0.66836381 0.64768964 -0.30690053
0.65729702 0.6369651 -0.35019439
0.65135926 0.63121104 -0.39674133
0.66516721 0.64459187 -0.45050409
0.66305196 0.64254206 -0.50000179
0.65291834 0.6327219 -0.54494095
0.65178639 0.631625 -0.60359287
0.63326424 0.61367577 -0.64068592
0.63271636 0.61314481 -0.69146466
0.65163791 0.63148105 -0.76986992
0.64270639 0.6228258 -0.82910585
0.64278758 0.62290448 -0.90095174
0.63735443 0.61763942 -0.97708791
0.59236538 0.57404196 -0.99180597
0.27228102 0.25169399 1.8124605
0.3231819 0.29874626 1.8071812
0.38220161 0.35330355 1.7856927
0.4523021 0.41810375 1.7762353
0.52229667 0.48280606 1.7941585
0.57943118 0.53562069 1.7722782
0.65135694 0.60210818 1.8036907
0.69933772 0.64646119 1.735919
0.68323749 0.63157821 1.540875
0.70054936 0.64758116 1.4311776
0.69473916 0.6422103 1.2903113
0.70418119 0.65093839 1.1921862
0.69322056 0.6408065 1.07411
0.69451743 0.64200532 0.97727925
0.6888563 0.63677222 0.89999902
0.68459517 0.6328333 0.81758881
0.68149722 0.62996954 0.74484891
0.67509711 0.6240533 0.67409301
0.67162353 0.6208424 0.61112726
0.67934269 0.62797791 0.55725867
0.69132495 0.63905418 0.50850719
0.68821776 0.63618195 0.45080918
0.69427669 0.64178282 0.40864983
0.69326842 0.64085072 0.35887223
0.69713217 0.64442235 0.31420785
0.68554997 0.63371587 0.26329723
0.69386023 0.64139777 0.21924162
0.69356078 0.64112097 0.17186444
0.69871628 0.64588666 0.12738132
0.69501716 0.64246726 0.081773818
0.70443565 0.65117359 0.03665138
0.70493919 0.65163904 -0.0052275844
0.69672835 0.64404905 -0.047649305
0.69432199 0.64182466 -0.092076674
0.69060385 0.63838768 -0.13426654
0.69243532 0.64008063 -0.18008356
0.67833143 0.62704313 -0.2217731
0.69793636 0.64516574 -0.27703074
0.68068647 0.62922007 -0.31803775
0.68946415 0.63733411 -0.37221551
0.68358749 0.63190174 -0.41690329
0.67578048 0.62468505 -0.46258977
0.66673112 0.61631989 -0.50716805
0.65476769 0.60526103 -0.55447125
0.65914917 0.60931122 -0.6183545
0.64028645 0.59187472 -0.65407765
0.65057039 0.60138106 -0.71742523
0.65384334 0.6044066 -0.78948182
0.6574958 0.60778284 -0.8722381
0.65836173 0.60858333 -0.95513672
0.62633902 0.57898182 -0.99427336
0.25586545 0.22557573 1.8182818
0.30939087 0.27276474 1.8136915
0.36304748 0.3200694 1.8062813
0.41954672 0.36988017 1.7739135
0.48518139 0.42774495 1.8077703
0.54349035 0.47915116 1.8103956
0.59055269 0.52064222 1.7840065
0.66313285 0.58463025 1.7828523
0.71136135 0.6271494 1.7152984
0.70180506 0.61872435 1.5494354
0.71561176 0.63089663 1.4311776
0.70967668 0.62566411 1.2903113
0.71462023 0.63002247 1.1843942
0.7008245 0.6178599 1.0560275
0.70423359 0.6208654 0.97009337
0.70262402 0.6194464 0.88696432
0.70264375 0.6194638 0.81250006
0.70970041 0.62568504 0.75428349
0.7000187 0.61714947 0.68898499
0.68455619 0.60351747 0.61412501
0.69119847 0.60937339 0.56330168
0.70897144 0.62504244 0.52257192
0.71311945 0.62869936 0.46882603
0.70920426 0.62524766 0.40864983
0.70116264 0.61815804 0.35531905
0.71212113 0.62781918 0.31420785
0.70815682 0.62432426 0.26293182
0.70093685 0.61795896 0.22003238
0.7223559 0.63684243 0.18175159
0.72761524 0.64147907 0.1395732
0.7166391 0.63180238 0.094096452
0.74150568 0.65372521 0.053969357
0.71259028 0.62823284 0.0062176911
0.71961141 0.63442278 -0.035596553
0.71750164 0.63256276 -0.081582889
0.70640802 0.62278241 -0.12501901
0.71599561 0.63123506 -0.17260525
0.71626806 0.63147521 -0.22045204
0.70901406 0.62507999 -0.25879356
0.699624 0.6168015 -0.30080256
0.6820842 0.60133815 -0.33771816
0.69706494 0.6145454 -0.39564425
0.68237996 0.60159886 -0.4387897
0.68719655 0.60584521 -0.49225244
0.68199879 0.60126281 -0.54494095
0.67554754 0.59557527 -0.59609193
0.66304266 0.58455074 -0.63778901
0.67442745 0.5945878 -0.70086586
0.66533554 0.58657217 -0.74757051
0.67739987 0.59720832 -0.82028753
0.68020546 0.59968179 -0.88915819
0.66504687 0.58631772 -0.95075983
0.63491082 0.55974919 -0.99983454
0.30663782 0.25775602 1.8163521
0.36652502 0.30809647 1.7869627
0.42826408 0.35999358 1.8157628
0.48352516 0.40644535 1.8025275
0.54146254 0.45514682 1.7957059
0.60401917 0.50773114 1.7722782
0.67775011 0.56970847 1.771013
0.72279233 0.60757047 1.6947063
0.72778642 0.61176842 1.5401839
0.72808194 0.6120168 1.3969367
0.72823185 0.6121428 1.2739936
0.73714906 0.6196385 1.1760354
0.72046202 0.60561156 1.04989
0.71815103 0.60366905 0.95678777
0.72704399 0.6111443 0.88764274
0.72109848 0.60614657 0.80635184
0.71720165 0.60287094 0.73366779
0.71154249 0.59811395 0.65997499
0.69827235 0.58695918 0.59665287
0.70817035 0.59527934 0.55725867
0.71937996 0.60470206 0.51159352
0.71514803 0.60114473 0.45693353
0.72373807 0.60836542 0.40864983
0.71642029 0.60221416 0.35225004
0.72827333 0.61217767 0.30798766
0.72397101 0.60856122 0.25674731
0.73986483 0.62192136 0.21427521
0.73165512 0.61502039 0.16532008
0.73688418 0.61941582 0.11927181
0.73272258 0.61591768 0.073232614
0.73432815 0.61726725 0.03665138
0.7425077 0.62414294 -0.0052820384
0.72629374 0.61051369 -0.047649305
0.73925382 0.62140775 -0.09086369
0.74298728 0.62454605 -0.13532248
0.72226465 0.60712683 -0.17700501
0.72256774 0.60738164 -0.22334595
0.72088891 0.60597044 -0.27114382
0.70311332 0.59102851 -0.31179628
0.69827652 0.58696276 -0.35816839
0.70560902 0.59312636 -0.41281602
0.70368278 0.5915072 -0.46459642
0.70708728 0.59436893 -0.51995498
0.69413817 0.58348405 -0.56799519
0.69972759 0.58818251 -0.62970042
0.67970371 0.57135063 -0.6660791
0.68412602 0.575068 -0.72371846
0.69129044 0.58109033 -0.79022247
0.68438447 0.57528526 -0.84472764
0.69136667 0.58115441 -0.92107093
0.68453175 0.57540905 -0.9844901
0.61674458 0.51842797 -0.9687407
0.303341 0.24302197 1.818935
0.36848745 0.29521412 1.8094103
0.43662658 0.34980386 1.8157628
0.50479233 0.40441492 1.8077703
0.57931387 0.46411794 1.8031888
0.6449306 0.5166868 1.7772729
0.73153621 0.58607101 1.800632
0.7386055 0.59173459 1.647517
0.73742026 0.59078503 1.508504
0.74379712 0.59589386 1.3835015
0.73631293 0.58989787 1.2548959
0.74361885 0.59575099 1.1714145
0.73159558 0.58611858 1.0665988
0.73598158 0.58963245 0.99376291
0.73476791 0.58866006 0.92520022
0.73220909 0.58661008 0.85595477
0.74335331 0.59553826 0.79395217
0.7182222 0.57540447 0.70616329
0.72879195 0.58387244 0.65387714
0.73061126 0.58533001 0.59640259
0.73670107 0.59020889 0.54500002
0.73295015 0.5872038 0.49150363
0.74898422 0.60004956 0.45007017
0.73676634 0.59026116 0.38622159
0.742733 0.59504133 0.33819157
0.75454074 0.60450113 0.2921415
0.74926621 0.60027546 0.24159779
0.75728166 0.60669702 0.19632436
0.75604588 0.60570699 0.14803271
0.75260675 0.60295171 0.1045574
0.76344532 0.61163503 0.058769051
0.74134535 0.59392965 0.012435116
0.74886376 0.599953 -0.029316973
0.7469036 0.59838265 -0.075320736
0.75881267 0.60792357 -0.12260596
0.75334799 0.60354555 -0.16911392
0.74632955 0.59792274 -0.21419767
0.73767227 0.59098691 -0.25879356
0.71971285 0.5765987 -0.30074456
0.72161263 0.57812071 -0.35376778
0.71604329 0.57365888 -0.39774045
0.72171909 0.578206 -0.45354089
0.71117032 0.56975484 -0.50121468
0.70148498 0.56199545 -0.54275227
0.70183647 0.56227702 -0.5980553
0.68189198 0.5462985 -0.63480806
0.68761039 0.55087978 -0.69146466
0.69627148 0.55781865 -0.75693089
0.6948328 0.55666608 -0.81940848
0.69206923 0.554452 -0.88097852
0.69725049 0.55860293 -0.95807338
0.66313058 0.53126776 -0.99705184
0.26497391 0.20222171 1.8095566
0.31970042 0.24398765 1.7955115
0.38003287 0.29003191 1.8078597
0.43306059 0.33050138 1.78889
0.50005972 0.38163349 1.8140277
0.56339329 0.42996815 1.8166496
0.61344969 0.46816999 1.7908089
0.68104243 0.51975513 1.7961447
0.73872769 0.56377918 1.7709981
0.75234163 0.57416898 1.647517
0.73847479 0.56358612 1.4830798
0.75312006 0.57476306 1.3752663
0.75807357 0.57854342 1.2597666
0.76146913 0.58113486 1.1543167
0.75363684 0.57515746 1.0437076
0.75386637 0.57533264 0.96082145
0.75151128 0.57353532 0.87771749
0.75095063 0.57310736 0.80325657
0.7404393 0.56508541 0.72445017
0.73547804 0.56129909 0.66604459
0.74510491 0.56864607 0.61307454
0.73830926 0.56345981 0.55119187
0.75102681 0.57316554 0.50233459
0.75454915 0.57585371 0.44894114
0.74844271 0.57119346 0.39239207
0.74580991 0.56918412 0.34611705
0.75030971 0.57261825 0.29873675
0.75250012 0.57428998 0.25364268
0.75335866 0.57494515 0.20685451
0.76024145 0.58019793 0.16218299
0.76555157 0.58425051 0.11611255
0.75318062 0.57480925 0.069377854
0.75493836 0.57615072 0.024868101
0.7550174 0.57621109 -0.02072414
0.74548429 0.56893563 -0.064539976
0.75015432 0.57249969 -0.10960205
0.75295347 0.57463592 -0.15637966
0.74629784 0.56955653 -0.20061122
0.74547237 0.56892657 -0.24797879
0.74298888 0.5670312 -0.29469168
0.73118973 0.55802637 -0.33818355
0.7407704 0.56533808 -0.3895537
0.72543252 0.55363256 -0.43282634
0.72253466 0.55142099 -0.48453954
0.72370446 0.5523138 -0.54295611
0.71083194 0.54248977 -0.58764172
0.69139963 0.52765954 -0.62325114
0.6976952 0.53246415 -0.6795612
0.70704806 0.53960204 -0.74465609
0.70611864 0.53889275 -0.80684018
0.70383233 0.53714788 -0.86815447
0.71518701 0.54581344 -0.95220548
0.69102752 0.52737552 -1.0066062
0.26966467 0.19592285 1.8095566
0.32535997 0.23638786 1.7955115
0.38469222 0.27949527 1.7981919
0.44308373 0.32191917 1.7984562
0.51580584 0.37475488 1.8004452
0.58491176 0.4249633 1.7894648
0.65630519 0.47683361 1.8061819
0.72599041 0.5274629 1.8097295
0.75425738 0.5480001 1.7126855
0.76110643 0.55297619 1.5813078
0.75658661 0.54969233 1.4435426
0.77046967 0.55977899 1.3351494
0.76810604 0.55806172 1.2125099
0.76140952 0.55319643 1.0898758
0.7669301 0.55720735 1.0165817
0.7510336 0.54565787 0.92428678
0.75529099 0.54875106 0.84617245
0.74707866 0.54278439 0.76632798
0.74825329 0.54363787 0.70012492
0.73896116 0.53688675 0.63070518
0.74833822 0.54369956 0.5766114
0.75388265 0.54772782 0.52588516
0.75729829 0.5502094 0.47567737
0.7608729 0.5528065 0.41997311
0.75992113 0.55211502 0.37119928
0.77258998 0.56131947 0.32882383
0.76868278 0.55848074 0.27807564
0.7785911 0.56567955 0.23216926
0.77065331 0.55991238 0.18300696
0.76873916 0.55852169 0.13672477
0.78121459 0.56758565 0.091925517
0.7757619 0.56362402 0.046059005
0.77665216 0.56427079 0.0031499646
0.7760241 0.56381452 -0.038727421
