# .PCD v0.7 - Point Cloud Data file format
VERSION 0.7
FIELDS x y z
SIZE 4 4 4
TYPE F F F
COUNT 1 1 1
WIDTH 457
HEIGHT 1
VIEWPOINT 0 0 0 1 0 0 0
POINTS 457
DATA ascii
-0.14491373 0.12743348 0.76875615
-0.14475249 0.12801835 0.76786369
-0.14435452 0.12936339 0.76581216
-0.14419317 0.1299437 0.76492673
-0.14403182 0.13052404 0.76404124
-0.14387047 0.13110431 0.76315588
-0.14348264 0.13242656 0.76113898
-0.14324589 0.13317455 0.75999856
-0.14301933 0.13391189 0.75887418
-0.14278263 0.13465238 0.75774527
-0.14240466 0.13595778 0.75575393
-0.14201662 0.13725871 0.75376976
-0.14131539 0.13989827 0.74974138
-0.1410781 0.14085165 0.74828589
-0.14085095 0.14180192 0.74683487
-0.14068964 0.142355 0.74599123
-0.1403217 0.14362086 0.74406022
-0.14017041 0.14417377 0.74321651
-0.13979241 0.14542767 0.74130422
-0.13957566 0.14613602 0.740224
-0.13935897 0.14683685 0.73915535
-0.13869871 0.14893028 0.73596346
-0.13825487 0.15054196 0.7335043
-0.13811357 0.15107509 0.73269063
-0.137821 0.15214144 0.73106349
-0.1376697 0.15267465 0.73025
-0.13752854 0.1532048 0.72944093
-0.13717048 0.15441443 0.72759593
-0.13687783 0.15546866 0.72598737
-0.1365954 0.15651217 0.72439498
-0.13644415 0.15703785 0.72359306
-0.13630281 0.15755881 0.72279805
-0.13616163 0.15807681 0.72200763
-0.13602042 0.15859482 0.72121716
-0.13581368 0.15926366 0.72019726
-0.13546558 0.16044134 0.71840096
-0.1353243 0.16095477 0.71761751
-0.13518299 0.16146818 0.71683413
-0.13504185 0.1619786 0.71605527
-0.13490056 0.16249202 0.71527189
-0.13475932 0.16299787 0.71450007
-0.13420445 0.16502576 0.71140569
-0.13372514 0.16668192 0.70887929
-0.13338703 0.1678201 0.70714331
-0.13304894 0.16895828 0.70540732
-0.13290775 0.16945657 0.70464712
-0.13277659 0.16994718 0.70389837
-0.13230731 0.17156383 0.70143229
-0.13217603 0.17205745 0.70067894
-0.13190363 0.17303421 0.69918865
-0.13177249 0.1735248 0.69843996
-0.13157558 0.17414501 0.69749433
-0.13124745 0.17525123 0.6958071
-0.13091937 0.17634991 0.69413143
-0.13013381 0.17648928 0.69394094
-0.12863851 0.17664286 0.69374973
-0.12431964 0.17670152 0.69378793
-0.12360983 0.17671116 0.69379419
-0.11641173 0.17680888 0.69385791
-0.11204718 0.17700142 0.69369209
-0.11060756 0.17702097 0.69370484
-0.097666964 0.17719668 0.69381934
-0.094115585 0.1771116 0.69405526
-0.079694688 0.17744067 0.69397843
-0.078975871 0.17745043 0.69398481
-0.078257069 0.17746021 0.69399112
-0.076819435 0.17747971 0.69400388
-0.071786761 0.17754805 0.6940484
-0.066813439 0.17734902 0.69450134
-0.051024023 0.17730141 0.69504303
-0.049583409 0.17732096 0.69505578
-0.048862595 0.17733073 0.69506216
-0.037366111 0.1772173 0.69557738
-0.020782467 0.17744245 0.69572419
-0.020061653 0.17745224 0.69573057
-0.019339841 0.17746204 0.69573694
-0.018619027 0.17747183 0.69574332
-0.017898221 0.17748162 0.6957497
-0.017177407 0.1774914 0.69575608
-0.0056402422 0.17764805 0.69585818
-0.0020383038 0.17783025 0.69568557
0.00084447861 0.17786939 0.69571108
0.0030123815 0.17776552 0.69593477
0.028249659 0.1781082 0.69615811
0.028970465 0.17811799 0.69616449
0.041949056 0.17829421 0.69627935
0.055023495 0.17807648 0.6970014
0.070227817 0.17814963 0.69734043
0.078262344 0.17799218 0.69782043
0.084141299 0.17780246 0.69828594
0.10936618 0.17841446 0.69809574
0.11219111 0.1785861 0.69791627
0.11520897 0.17836052 0.69835192
0.11974059 0.17801923 0.69900995
0.13750771 0.17758495 0.70020348
0.13895734 0.17760462 0.70021635
0.13968714 0.17761452 0.70022279
0.14687084 0.1778499 0.70007491
0.15541996 0.17823254 0.69974166
0.16130273 0.17817912 0.6999982
0.16938491 0.1781556 0.70027417
0.17010474 0.17816536 0.70028055
0.17664301 0.17825413 0.70033842
0.17809264 0.17827383 0.70035124
0.17882244 0.17828374 0.70035768
0.20528854 0.17823869 0.70121229
0.20808348 0.1784099 0.70103258
0.21569453 0.17810881 0.70172036
0.223087 0.17807132 0.70199728
0.22381681 0.17808124 0.70200372
0.22539072 0.17796932 0.70222211
0.2261916 0.17637429 0.70469272
0.2264203 0.17588103 0.7054562
0.22664914 0.17539072 0.70621514
0.22687799 0.17490046 0.70697403
0.22734554 0.173917 0.70849657
0.22757424 0.17342374 0.70926005
0.22780304 0.17292589 0.71003056
0.22827064 0.17193031 0.71157169
0.22849943 0.17143247 0.7123422
0.22873808 0.17093179 0.71311736
0.22955877 0.16928707 0.7156648
0.22979765 0.1687848 0.71644241
0.2315833 0.16507977 0.72217906
0.23194645 0.16442624 0.72319239
0.2323098 0.16376349 0.72421986
0.23268291 0.16310252 0.72524488
0.23304613 0.16243683 0.72627687
0.23341946 0.16177425 0.7273044
0.23390698 0.16073203 0.72891766
0.23415571 0.16020718 0.72973019
0.23638465 0.15568304 0.7367366
0.23727585 0.15415379 0.73910892
0.23752463 0.15361685 0.73994005
0.23778328 0.15307704 0.74077582
0.23803206 0.1525401 0.74160689
0.2382907 0.15200028 0.74244267
0.2395748 0.14950791 0.74630421
0.23983353 0.14896351 0.74714702
0.24099313 0.1466043 0.75080055
0.24152045 0.145493 0.75252098
0.24177922 0.1449365 0.75338238
0.2442815 0.13947214 0.76183921
0.24495353 0.13816728 0.76386088
0.2456256 0.1368503 0.76590115
0.2467103 0.13454477 0.7694701
0.24740236 0.13320839 0.7715407
0.2478157 0.13245547 0.772708
0.24822913 0.13169798 0.77388227
0.24893132 0.13034502 0.77597862
0.25018078 0.12780228 0.77991641
0.2504594 0.12720367 0.78084296
0.25130528 0.12540801 0.78362268
0.25201747 0.12402335 0.78576797
0.25245085 0.12323889 0.78698421
0.25288445 0.12245284 0.78820294
0.25317311 0.12184222 0.78914821
0.25346178 0.12123166 0.79009342
0.25375044 0.12062104 0.79103869
0.25402895 0.12000735 0.79198837
0.2562243 0.11548851 0.79898566
0.25695637 0.11404966 0.80121464
0.25770867 0.1126019 0.80345792
0.25875941 0.11051346 0.80669284
0.25921294 0.10968074 0.80798376
0.25951156 0.10904303 0.80897087
0.25981024 0.10840076 0.80996501
0.26010871 0.10776008 0.81095672
0.2604174 0.10711792 0.81195098
0.26210684 0.10392939 0.81689245
0.26258051 0.10308023 0.81820917
0.26335272 0.10156614 0.82055479
0.2638264 0.10070483 0.82189012
0.26413509 0.10004301 0.82291454
0.26445362 0.099378347 0.82394361
0.26522431 0.097591043 0.82670832
0.26601487 0.095789798 0.82949495
0.2671257 0.093560092 0.83294839
0.26744422 0.092882685 0.83399701
0.26824468 0.09105254 0.83682829
0.26937547 0.088783719 0.84034234
0.26970404 0.088093407 0.84141105
0.27003255 0.087402515 0.84248066
0.27035105 0.0867109 0.8435511
0.27067962 0.086014219 0.84462959
0.27100807 0.085321851 0.84570146
0.27234411 0.082781352 0.84963834
0.27267265 0.082077406 0.85072798
0.27401862 0.079510383 0.85470587
0.27453241 0.078573585 0.8561582
0.27487096 0.077857062 0.85726744
0.27520946 0.077139944 0.85837758
0.27554798 0.076422244 0.85948861
0.27622497 0.07498078 0.86171997
0.27656344 0.074256703 0.86284077
0.27742568 0.072575681 0.86544514
0.27777418 0.07184539 0.86657578
0.27812275 0.071109898 0.86771441
0.27899504 0.069409907 0.87034816
0.27951887 0.068435974 0.87185776
0.28005272 0.06746123 0.87336892
0.2805866 0.066481069 0.87488836
0.281479 0.064746156 0.87757629
0.28272989 0.062247138 0.88144702
0.28307837 0.061490498 0.88261807
0.28343681 0.060733099 0.88379061
0.28397828 0.059454374 0.88576829
0.28450972 0.058168896 0.88775605
0.28688583 0.053285699 0.89531761
0.28744975 0.052254997 0.8969155
0.28801373 0.051218826 0.89852178
0.28856763 0.050181355 0.90012974
0.2891416 0.049138963 0.90174586
0.2899012 0.047832642 0.90377235
0.29027966 0.047036726 0.90500456
0.29123217 0.04518022 0.90788078
0.29218462 0.043310985 0.91077656
0.29256302 0.042506903 0.91202128
0.29295143 0.041697532 0.91327441
0.29332983 0.040887371 0.91452849
0.29430243 0.038987782 0.91747141
0.29469079 0.038170841 0.91873616
0.29507923 0.037348725 0.92000884
0.29566032 0.035971604 0.92213863
0.29662982 0.033757549 0.92556387
0.29702812 0.0329271 0.92684966
0.2980206 0.030979648 0.92986661
0.29902309 0.029019617 0.93290311
0.30003557 0.027046986 0.93595928
0.3010481 0.025061328 0.93903542
0.30145642 0.02420526 0.94036078
0.30186483 0.023343749 0.9416945
0.30475652 0.017563429 0.95064759
0.30517492 0.016682632 0.95201123
0.30559319 0.015805513 0.95336914
0.30601153 0.01492323 0.95473504
0.30706406 0.012854785 0.95793939
0.30748239 0.011965245 0.95931637
0.30833906 0.010174766 0.96208847
0.30875733 0.0092781708 0.9634763
0.30918568 0.0083763376 0.96487248
0.30961397 0.0074736699 0.96626991
0.31004223 0.0065701678 0.96766865
0.31156301 0.0035336465 0.97237194
0.31645557 -0.0057782382 0.98680198
0.3175883 -0.007991612 0.99023104
0.31827268 -0.0092639551 0.99220318
0.31941542 -0.011502363 0.99567091
0.31987369 -0.012463413 0.99715883
0.32033193 -0.013425425 0.99864817
0.32079032 -0.014397457 1.0001529
0.3212482 -0.015347473 1.0016239
0.32193878 -0.016974993 1.0041411
0.32239744 -0.01797346 1.0056864
0.32308695 -0.019559696 1.0081402
0.3235555 -0.020560391 1.0096892
0.32425565 -0.022196747 1.0122203
0.32616255 -0.025854632 1.0178882
0.32713342 -0.027552977 1.0205224
0.32785833 -0.028929926 1.0226562
0.32833648 -0.02993913 1.0242186
0.32882458 -0.030949108 1.0257823
0.33099958 -0.035734549 1.033188
0.3314974 -0.036750123 1.0347607
0.33198521 -0.037766978 1.0363351
0.33248386 -0.03883002 1.0379807
0.32300246 -0.055097304 1.062654
0.32190275 -0.05511222 1.0626442
0.32080302 -0.055127181 1.0626346
0.31503311 -0.055155061 1.0625061
0.30622542 -0.055274628 1.0624281
0.26526982 -0.056107946 1.0624909
0.2492846 -0.055187143 1.060604
0.2394221 -0.054993607 1.0600144
0.23702134 -0.054974236 1.0599134
0.21543996 -0.056026049 1.0608864
0.2130741 -0.055678762 1.0602834
0.15418069 -0.054203175 1.0562719
0.13472393 -0.055551805 1.0577633
0.11246653 -0.059218712 1.0627279
0.085652612 -0.056650318 1.0579921
0.061155792 -0.053299986 1.0521255
0.02187755 -0.053724878 1.0516115
0.01970312 -0.053754427 1.0515924
0.011004686 -0.053169258 1.0504365
0.0045255199 -0.052987419 1.0499653
-0.028063875 -0.052553467 1.0483323
-0.02914739 -0.052624069 1.0484085
-0.037857201 -0.053398632 1.0493382
-0.045463983 -0.05355715 1.0493556
-0.0875213 -0.059707813 1.0575428
-0.15439478 -0.051520236 1.042998
-0.18659692 -0.055473335 1.0481064
-0.18860343 -0.054474659 1.0465149
-0.19567312 -0.049218662 1.0382421
-0.19552426 -0.048564799 1.0372435
-0.19536631 -0.047865339 1.0361751
-0.19520834 -0.047166295 1.0351075
-0.19505955 -0.046513923 1.0341111
-0.19490166 -0.045815937 1.0330451
-0.19460957 -0.044786692 1.0314748
-0.19432843 -0.043713056 1.0298362
-0.19403644 -0.042685844 1.0282691
-0.1936112 -0.041283138 1.0261298
-0.19318607 -0.039882205 1.0239934
-0.19289424 -0.038858719 1.022432
-0.19247831 -0.037506066 1.0203693
-0.19206335 -0.036109157 1.0182387
-0.19163758 -0.034759656 1.0161811
-0.19095029 -0.032394119 1.0125726
-0.19037308 -0.030049168 1.0089926
-0.18995343 -0.028395258 1.0064678
-0.1896712 -0.027428299 1.0049928
-0.18926591 -0.026089467 1.002951
-0.18886065 -0.024751879 1.0009111
-0.18845487 -0.023448102 0.99892312
-0.1880593 -0.022136204 0.99692237
-0.18765381 -0.02082596 0.99492443
-0.18713433 -0.019195527 0.99243867
-0.1867387 -0.017902099 0.99046624
-0.18646699 -0.016939946 0.98899829
-0.1859197 -0.014717788 0.98560566
-0.18564416 -0.013458647 0.98368227
-0.18550642 -0.012829706 0.98272151
-0.18523476 -0.011881799 0.98127544
-0.18497312 -0.010934904 0.97983062
-0.18458752 -0.0096744448 0.97790849
-0.18420196 -0.0084153265 0.97598839
-0.18394029 -0.0074805543 0.97456217
-0.18367866 -0.0065466389 0.97313726
-0.18317911 -0.0049867555 0.97075915
-0.18267944 -0.0034377128 0.96839768
-0.18230374 -0.002207987 0.9665224
-0.18192801 -0.00098406523 0.964656
-0.18167637 -6.9491565e-05 0.96326047
-0.18130064 0.0011475831 0.96140456
-0.18104899 0.0020557716 0.96001881
-0.18079737 0.0029631108 0.95863438
-0.18040815 0.0044638738 0.95634371
-0.18004239 0.0056619868 0.95451659
-0.17980073 0.0065568164 0.95315105
-0.179435 0.0077481568 0.95133436
-0.1790693 0.0089382604 0.94951952
-0.17799513 0.012172736 0.94458956
-0.17752506 0.013632357 0.94236439
-0.17716917 0.014793955 0.940593
-0.17692751 0.015663028 0.93926698
-0.17668588 0.016531508 0.93794185
-0.1763268 0.017969992 0.93574584
-0.17595772 0.01940196 0.93356007
-0.17572607 0.020257588 0.93225437
-0.17548443 0.021112718 0.93094975
-0.17525285 0.02196683 0.92964637
-0.17501123 0.022815615 0.92835146
-0.17477962 0.023663662 0.92705739
-0.17453796 0.024506673 0.92577136
-0.17430642 0.025353245 0.92447954
-0.17395751 0.026755307 0.92233908
-0.17359862 0.02815051 0.92020941
-0.17303114 0.030087825 0.91725433
-0.17279956 0.030915912 0.91599089
-0.17256801 0.031743061 0.91472888
-0.17223212 0.032838985 0.91305763
-0.1718962 0.03392911 0.91139531
-0.17145583 0.035277989 0.90933913
-0.17101549 0.036625598 0.90728492
-0.17068945 0.037698619 0.90564853
-0.17024899 0.039029863 0.90361941
-0.16992295 0.040096194 0.90199327
-0.16959688 0.041156787 0.90037596
-0.16937527 0.041952893 0.89916128
-0.16904657 0.043284461 0.89712834
-0.16892949 0.043820389 0.89630967
-0.16881242 0.044355702 0.89549196
-0.16869529 0.04488644 0.89468127
-0.16857825 0.045421191 0.89386439
-0.16835672 0.046208832 0.8926627
-0.16814522 0.046995733 0.89146185
-0.16792366 0.047777332 0.8902694
-0.16771214 0.048558172 0.88907784
-0.16739613 0.049591094 0.88750267
-0.16708 0.050613947 0.88594294
-0.16676399 0.051640466 0.8843776
-0.16644786 0.052656673 0.88282806
-0.16603722 0.053919587 0.88090289
-0.16550952 0.055690885 0.87820131
-0.16529801 0.056452051 0.87703991
-0.16499189 0.057454512 0.87551117
-0.16478036 0.058209583 0.87435913
-0.16457884 0.058963954 0.87320787
-0.16427267 0.059954852 0.87169689
-0.16406113 0.060703278 0.87055504
-0.16385961 0.061450996 0.86941397
-0.16364805 0.062193684 0.86828095
-0.16344659 0.062940203 0.86714172
-0.16323508 0.063681647 0.86601061
-0.1626305 0.065892667 0.86263674
-0.16241901 0.06662719 0.86151624
-0.16221753 0.067360967 0.86039656
-0.16190919 0.068586379 0.85852587
-0.16141155 0.070271567 0.85595548
-0.16103058 0.071449749 0.85415941
-0.16073443 0.072400846 0.85270917
-0.16044812 0.07334204 0.85127383
-0.16024663 0.074056737 0.85018343
-0.1599604 0.074996457 0.84875035
-0.15947261 0.076639034 0.84624505
-0.15928115 0.077346347 0.84516567
-0.1590797 0.078053474 0.84408689
-0.15888819 0.078755289 0.84301597
-0.15859006 0.079937018 0.84121197
-0.15839861 0.08063738 0.84014326
-0.15792085 0.08224678 0.83768857
-0.15745312 0.083848819 0.83524483
-0.15726164 0.084536724 0.83419526
-0.15707017 0.085224338 0.8331461
-0.15687875 0.085911334 0.83209789
-0.15660241 0.086807579 0.83073121
-0.1563261 0.087703235 0.82936543
-0.15613459 0.088378973 0.82833451
-0.15595317 0.089058906 0.82729685
-0.1557617 0.089733779 0.82626724
-0.15558025 0.090407953 0.82523841
-0.15538882 0.091081932 0.82421017
-0.15512252 0.091964081 0.82286483
-0.15457974 0.093712747 0.82019842
-0.15438832 0.094379798 0.81918079
-0.15420687 0.095041201 0.81817156
-0.15402542 0.095702328 0.81716275
-0.15357764 0.097226821 0.8148374
-0.15329979 0.098336875 0.81314278
-0.15292558 0.09989468 0.81076413
-0.15274404 0.10054484 0.80977213
-0.15248771 0.10139477 0.80847591
-0.1521363 0.10243852 0.80688518
-0.15179493 0.10347457 0.80530596
-0.15153833 0.1043108 0.80403078
-0.15128188 0.10514398 0.80276024
-0.15074761 0.10705364 0.79984659
-0.15057631 0.10768559 0.79888225
-0.15014835 0.10914162 0.79666132
-0.14938895 0.11158961 0.79292852
-0.14896092 0.11302133 0.7907449
-0.14878957 0.11364116 0.78979915
-0.14802773 0.1165297 0.78539062
-0.14777017 0.11756811 0.78380531
-0.14767402 0.11799137 0.78315884
-0.14751263 0.11859892 0.78223163
-0.14709483 0.11999278 0.78010577
-0.1468582 0.12077717 0.7789095
-0.14645036 0.12215872 0.77680224
-0.14627902 0.12275888 0.77588665
-0.14611757 0.1233543 0.77497804
-0.14595635 0.12395132 0.77406698
-0.1457849 0.12454689 0.77315843
-0.14554837 0.12531616 0.77198535
-0.14531176 0.1260809 0.77081925
