# .PCD v0.7 - Point Cloud Data file format
VERSION 0.7
FIELDS x y z
SIZE 4 4 4
TYPE F F F
COUNT 1 1 1
WIDTH 974
HEIGHT 1
VIEWPOINT 0 0 0 1 0 0 0
POINTS 974
DATA ascii
0.50135767 -0.14993773 0.56485319
0.53881568 -0.14740328 0.55861431
0.54085386 -0.14796089 0.57060027
0.52322435 -0.14313801 0.56048888
0.51788694 -0.14167784 0.56579196
0.60454202 -0.15016904 0.57834095
0.55729473 -0.13843273 0.5425486
0.57306921 -0.14235114 0.56897086
0.54051024 -0.13426346 0.5460971
0.56272644 -0.13978198 0.57982749
0.54418963 -0.13517743 0.57060027
0.51852936 -0.12880337 0.55447006
0.53383237 -0.13260469 0.58089501
0.5018537 -0.12466114 0.5569582
0.67201608 -0.15021342 0.56385314
0.64469892 -0.14410728 0.55063266
0.62451816 -0.13959639 0.54414147
0.61986023 -0.13855518 0.54970515
0.60050857 -0.13422957 0.54200721
0.60920793 -0.13617414 0.56206965
0.58281231 -0.13027401 0.54722804
0.57812971 -0.12922731 0.55241859
0.5586704 -0.12487767 0.54441983
0.54699987 -0.12226897 0.5424403
0.54177171 -0.12110037 0.5479216
0.55774194 -0.1246701 0.57400465
0.5317679 -0.11886423 0.55811667
0.5134818 -0.1147768 0.54841834
0.51548636 -0.11522486 0.56026512
0.50525403 -0.11293767 0.56996793
0.78433037 -0.15601304 0.56646794
0.74763781 -0.14871442 0.5500198
0.73440421 -0.14608207 0.55155283
0.71396405 -0.14201626 0.54606479
0.7164641 -0.14251357 0.55925757
0.68844432 -0.13694012 0.54716718
0.66312563 -0.13190392 0.54750866
0.65782666 -0.13084987 0.5541141
0.63804609 -0.12691528 0.54707366
0.6556927 -0.13042542 0.57223797
0.64337486 -0.12797523 0.57148147
0.60176611 -0.11969874 0.54401261
0.61044461 -0.12142497 0.56410402
0.61280268 -0.12189407 0.57629389
0.57209128 -0.11379606 0.54750532
0.58156806 -0.1156811 0.56638896
0.54856664 -0.10911673 0.54366183
0.56419688 -0.11222578 0.57025188
0.5592947 -0.11125066 0.57525009
0.55373389 -0.11014455 0.58081579
0.52164328 -0.10376134 0.55679607
0.51625216 -0.10268896 0.56199527
0.50478059 -0.10040713 0.55920923
0.94935054 -0.16568819 0.55080026
0.92697406 -0.16178283 0.55013216
0.90469402 -0.1578944 0.54908842
0.88311797 -0.15412879 0.54666895
0.87001926 -0.15184271 0.54919052
0.84862536 -0.14810884 0.54616743
0.84330708 -0.14718068 0.55459082
0.81384546 -0.14203876 0.54550952
0.78402501 -0.13683426 0.53682512
0.77938026 -0.13602367 0.54374993
0.75796193 -0.13228557 0.53999472
0.75329095 -0.13147032 0.5466885
0.74000573 -0.12915173 0.54828036
0.72735816 -0.1269443 0.54884905
0.71475774 -0.1247452 0.54923582
0.69382483 -0.12109185 0.54409921
0.69686389 -0.12162224 0.55640703
0.66839623 -0.11665384 0.54455334
0.66368949 -0.11583243 0.5504536
0.64320457 -0.11225722 0.54422992
0.63098973 -0.11012537 0.54343754
0.64804536 -0.11310203 0.56933749
0.62094957 -0.10837308 0.55522692
0.60030472 -0.10476997 0.54868704
0.61009103 -0.10647795 0.5674957
0.59798461 -0.10436504 0.56605858
0.58594996 -0.10226467 0.56445068
0.58107531 -0.1014139 0.56961977
0.54102486 -0.094423965 0.53970009
0.55726206 -0.097257845 0.56568539
0.55176926 -0.096299194 0.57120675
0.54000235 -0.094245516 0.56887192
0.52093893 -0.090918429 0.55969322
0.51610762 -0.090075247 0.56428665
1.2581434 -0.18915334 0.55981779
1.1907393 -0.1790196 0.54082513
1.1506581 -0.17299375 0.53334713
1.1376441 -0.1710372 0.5379703
1.1061956 -0.16630906 0.53504449
1.0837696 -0.16293746 0.535999
1.0614126 -0.1595763 0.5365991
1.0485141 -0.15763706 0.54024863
1.0268558 -0.15438092 0.53910434
1.0134281 -0.15236214 0.54346043
0.99130833 -0.14903662 0.54285902
0.97793168 -0.14702547 0.54674774
0.95595193 -0.14372095 0.54552746
0.93406898 -0.14043105 0.54396164
0.91169721 -0.13706756 0.54306597
0.8815468 -0.13253462 0.53563952
0.8594569 -0.1292136 0.53388923
0.87157804 -0.13103586 0.55207002
0.84118587 -0.12646666 0.54452962
0.81989133 -0.12326518 0.54100269
0.80695724 -0.12132058 0.54267979
0.80983478 -0.12175322 0.55627668
0.77247816 -0.11613688 0.54063827
0.77526325 -0.11655564 0.55405933
0.75440133 -0.11341921 0.54919463
0.74903804 -0.11261285 0.556651
0.72837174 -0.10950581 0.55125594
0.68368775 -0.10278791 0.52811533
0.71032745 -0.10679296 0.55868608
0.66614491 -0.10015044 0.53462213
0.661506 -0.099453002 0.54048026
0.64917934 -0.097599775 0.53994495
0.63691282 -0.095755607 0.53923368
0.65481502 -0.098447092 0.56429201
0.6125688 -0.092095613 0.53728753
0.63756299 -0.095853306 0.56914461
0.61670238 -0.092717089 0.5627448
0.57597613 -0.086594149 0.5337162
0.58581293 -0.088073052 0.55241859
0.58102351 -0.087353013 0.55756712
0.56137538 -0.084399037 0.54939467
0.55661291 -0.083683021 0.55432767
0.53783834 -0.080860414 0.54506099
0.53943187 -0.081099994 0.55752671
0.52774632 -0.079343133 0.55505723
0.51555347 -0.077510022 0.55298895
0.5174824 -0.077800028 0.56485319
1.3598286 -0.17178634 0.531277
1.3188682 -0.16661182 0.5269981
1.2964528 -0.16378012 0.52960956
1.2643327 -0.15972236 0.52948242
1.2328826 -0.15574935 0.52748698
1.2100723 -0.1528677 0.5303362
1.1873078 -0.1499919 0.53282493
1.1645939 -0.14712247 0.53495425
1.1335235 -0.14319736 0.53124297
1.1121123 -0.14049244 0.53015846
1.099123 -0.13885155 0.53436762
1.0861447 -0.13721201 0.53838867
1.0731606 -0.13557175 0.54226047
1.0595951 -0.133858 0.54711992
1.0372376 -0.13103369 0.54714549
1.0324612 -0.13043019 0.55624807
1.0095917 -0.12754112 0.55682832
0.97874802 -0.12364466 0.55105752
0.96471518 -0.12187187 0.55576241
0.94333035 -0.11917038 0.55310619
0.91291016 -0.1153274 0.54607213
0.91663498 -0.11579794 0.55925947
0.87798935 -0.11091588 0.54628968
0.85584027 -0.10811777 0.54428673
0.81771904 -0.103302 0.53015494
0.8373937 -0.10578746 0.55468976
0.82370877 -0.10405866 0.55738282
0.81066322 -0.10241065 0.5589608
0.79705173 -0.10069109 0.56122184
0.792772 -0.10015041 0.56734687
0.74704897 -0.094374277 0.54581261
0.76623994 -0.096798666 0.57018095
0.72162467 -0.091162391 0.54685217
0.70898509 -0.089565672 0.54709977
0.71143538 -0.089875199 0.56025189
0.68326467 -0.086316414 0.54781282
0.67078561 -0.084739931 0.54750866
0.66601998 -0.084137924 0.553388
0.66060275 -0.083453573 0.559946
0.65572971 -0.082838006 0.56573528
0.6202895 -0.078360833 0.54589427
0.6229558 -0.078697659 0.55797201
0.58809155 -0.074293256 0.53724194
0.61196703 -0.077309437 0.57019258
0.57810205 -0.073031314 0.54814631
0.59483439 -0.075145073 0.57395577
0.58273607 -0.073616721 0.57218814
0.56306332 -0.071131475 0.5638262
0.55816048 -0.070512109 0.56875736
0.53877425 -0.068063058 0.55990154
0.52021635 -0.065718643 0.55014181
0.52161193 -0.065894939 0.56256455
0.50330019 -0.063581638 0.55240047
1.3652161 -0.13987735 0.52680075
1.3420795 -0.13750687 0.53142667
1.2924325 -0.13242015 0.52161598
1.2792341 -0.1310679 0.52771336
1.2476616 -0.12783298 0.52592683
1.2070575 -0.12367275 0.51972795
1.1848416 -0.12139663 0.52097344
1.1996 -0.12290868 0.53689229
1.1592644 -0.11877599 0.52952623
1.1371536 -0.1165106 0.53000635
1.1241064 -0.11517379 0.53443396
1.1020893 -0.11291796 0.53436762
1.0896549 -0.11164397 0.53720373
1.0677514 -0.10939977 0.5365991
1.0713084 -0.1097642 0.55167925
1.0488508 -0.10746322 0.55178231
1.0264742 -0.10517059 0.55153412
1.0210432 -0.10461409 0.56162858
0.97270453 -0.099661447 0.5461809
0.94199938 -0.096515417 0.53983504
0.91148055 -0.093388528 0.5329932
0.91596109 -0.09384764 0.54507607
0.89357793 -0.091554262 0.54372448
0.85496384 -0.087597907 0.53053135
0.84132344 -0.086200356 0.53361446
0.83665901 -0.085722446 0.54097444
0.8064 -0.08262223 0.53272188
0.80941314 -0.08293093 0.5462352
0.79642981 -0.081600673 0.54766864
0.7747373 -0.079378106 0.54404157
0.76998496 -0.078891195 0.55081701
0.7484675 -0.076686569 0.54664022
0.74369359 -0.076197423 0.55318511
0.72238356 -0.074014045 0.54843771
0.70970935 -0.072715439 0.54865754
0.68866068 -0.070558853 0.5432936
0.68391806 -0.070072956 0.54931402
0.67081469 -0.068730392 0.54971242
0.66540891 -0.068176515 0.55631185
0.66055423 -0.067679115 0.56212783
0.63245004 -0.064799614 0.5490064
0.63513201 -0.065074392 0.56113511
0.61480188 -0.062991418 0.55403137
0.58734101 -0.060177866 0.53982323
0.61176401 -0.062680192 0.57220274
0.60677344 -0.062168844 0.57754743
0.57308245 -0.058716927 0.55509353
0.5676288 -0.058158163 0.56072736
0.56273943 -0.057657216 0.56568539
0.55719274 -0.057088915 0.57120675
0.5384075 -0.055164222 0.56167096
0.51922733 -0.053199057 0.55242449
0.51441193 -0.052705664 0.5569582
1.3675635 -0.10762963 0.5282855
1.3356711 -0.10511962 0.5277617
1.3032992 -0.10257193 0.52819526
1.2716017 -0.10007724 0.52670085
1.2486092 -0.098267704 0.53001744
1.2073638 -0.095021576 0.52501738
1.1759791 -0.092551619 0.52211791
1.171975 -0.092236429 0.53109968
1.1497865 -0.090490192 0.53169781
1.1276675 -0.088749439 0.5319674
1.1061857 -0.087058693 0.53072959
1.1021087 -0.086737841 0.53919643
1.0890503 -0.085710146 0.54316044
1.0670941 -0.083982207 0.5424546
1.0452229 -0.082260847 0.541426
1.0404729 -0.081887044 0.55055475
1.027465 -0.080863275 0.55378395
0.99638754 -0.078417458 0.54832715
0.96489954 -0.075939275 0.54341722
0.95029366 -0.07478974 0.54895216
0.94608241 -0.074458309 0.55622303
0.91553813 -0.072054453 0.54908842
0.8931132 -0.07028956 0.54763871
0.89677507 -0.070577748 0.56072557
0.86662143 -0.068204649 0.552463
0.84444612 -0.066459395 0.55008537
0.83131522 -0.06542594 0.55193692
0.80936068 -0.06369815 0.54888785
0.79634506 -0.062673755 0.55027872
0.77460855 -0.060963038 0.54659402
0.76172054 -0.059948716 0.54752898
0.75632995 -0.05952448 0.55499715
0.75147289 -0.059142236 0.56159657
0.71419346 -0.056208286 0.54476452
0.71730953 -0.05645353 0.55711764
0.69618279 -0.054790799 0.55174953
0.66028398 -0.051965538 0.53275192
0.67815226 -0.053371761 0.55826604
0.66561896 -0.052385394 0.55776983
0.66772056 -0.052550767 0.57077807
0.66272962 -0.052157976 0.57660127
0.62171066 -0.048929725 0.5627448
0.60944855 -0.047964666 0.56140167
0.61119598 -0.048102207 0.5742175
0.58452803 -0.046003375 0.55884767
0.56473809 -0.044445906 0.55063188
0.57410163 -0.045182828 0.569619
0.55445725 -0.043636743 0.56104636
0.54955518 -0.043250952 0.56587845
0.54399538 -0.042813394 0.57125831
0.53900492 -0.042420648 0.57599843
0.50151205 -0.039469887 0.55626237
1.371434 -0.07547459 0.5238055
1.3203273 -0.072662026 0.51754802
1.2978075 -0.071422666 0.52018714
1.2475917 -0.068659157 0.51117557
1.2344503 -0.067935973 0.51683354
1.2121041 -0.066706151 0.51841468
1.1903768 -0.065510482 0.51837373
1.1590161 -0.06378457 0.51527947
1.164144 -0.064066738 0.52826494
1.1510241 -0.063344747 0.53294551
1.1198299 -0.061628018 0.52894521
1.106771 -0.060909364 0.53314912
1.0763543 -0.059235368 0.52721214
1.0722986 -0.059012208 0.53543735
1.0681899 -0.058786068 0.54361254
1.0545506 -0.058035467 0.54831982
1.0320902 -0.056799386 0.54814541
1.0272748 -0.056534383 0.55714476
0.97868961 -0.053860549 0.54190928
0.98262638 -0.054077212 0.5553568
0.96044457 -0.052856538 0.55394262
0.92173105 -0.05072597 0.54105335
0.90841168 -0.049992982 0.54395676
0.91155988 -0.050166223 0.55806988
0.87276858 -0.048031423 0.54485601
0.88422304 -0.048661772 0.56416452
0.83740348 -0.046085123 0.54463899
0.82429975 -0.045363966 0.54641753
0.80236495 -0.044156883 0.54328692
0.79760057 -0.043894652 0.55027872
0.77642947 -0.04272956 0.54573935
0.77915388 -0.042879436 0.55917853
0.75005651 -0.041278157 0.54828036
0.72863668 -0.040099297 0.54367328
0.71591711 -0.039399359 0.54397649
0.71054548 -0.03910372 0.55099547
0.69003481 -0.037974928 0.54480261
0.66132504 -0.036394957 0.53275192
0.67210859 -0.036988381 0.55118227
0.65134269 -0.035845581 0.54494756
0.65417624 -0.036001537 0.55709726
0.63360292 -0.034869317 0.55039209
0.62878305 -0.034604076 0.55590868
0.60305512 -0.033188138 0.55463779
0.5909043 -0.032519463 0.55305934
0.60053343 -0.033049408 0.57198542
0.55965155 -0.030799512 0.5424403
0.55430257 -0.030505154 0.5479216
0.54950726 -0.030241225 0.55274522
0.55801779 -0.0307096 0.57242733
0.54609615 -0.030053502 0.57006645
0.53363532 -0.029367751 0.5681293
0.51133329 -0.028140416 0.57501858
1.3722641 -0.043125186 0.5252915
1.3222406 -0.041553114 0.51609379
1.2904083 -0.040552769 0.51507479
1.2494242 -0.039264768 0.50980139
1.2362666 -0.038851235 0.51549542
1.1955158 -0.037570626 0.50924504
1.1732576 -0.036871046 0.51039875
1.187023 -0.03730372 0.52875757
1.1459854 -0.036014054 0.52251345
1.1323256 -0.035584781 0.52827275
1.0915892 -0.034304593 0.52091837
1.0870042 -0.034160528 0.53042901
1.0829289 -0.034032438 0.53870827
1.06095 -0.033341739 0.53793412
1.0301759 -0.032374654 0.53224927
1.0254943 -0.03222749 0.54122335
1.021329 -0.032096568 0.54905075
0.96392363 -0.030292574 0.5290876
0.96799272 -0.030420396 0.54236954
0.93661189 -0.029434238 0.53692812
0.94915026 -0.029828284 0.55517924
0.88418174 -0.027786527 0.52758938
0.89602464 -0.028158728 0.54666895
0.85727102 -0.026940856 0.53334844
0.84356534 -0.026510153 0.53637189
0.84724343 -0.026625726 0.54915363
0.81680495 -0.025669221 0.5408982
0.81205601 -0.025519911 0.54800898
0.79077077 -0.024850998 0.54374993
0.77722067 -0.024425182 0.54573935
0.76430017 -0.024019096 0.5466885
0.75889415 -0.023849253 0.55417585
0.74601001 -0.023444328 0.55481482
0.72460932 -0.022771779 0.55002064
0.71978432 -0.022620145 0.55632615
0.71428585 -0.022447383 0.56337541
0.70934474 -0.022292113 0.56959027
0.68052667 -0.02138645 0.55751771
0.6449272 -0.020267669 0.53782725
0.65484279 -0.020579282 0.55709726
0.64240116 -0.020188276 0.55624926
0.63691694 -0.020015961 0.56252664
0.6016503 -0.01890767 0.5419957
0.61900741 -0.019453144 0.5674957
0.60672408 -0.019067084 0.56605858
0.58726341 -0.018455511 0.55756712
0.55303949 -0.017380003 0.53548592
0.55546921 -0.017456356 0.54731089
0.57185411 -0.017971253 0.57337588
0.55221516 -0.017354077 0.5646745
0.54034144 -0.016980922 0.56226575
0.52109021 -0.016375963 0.55298895
1.3833892 -0.010865363 0.52584803
1.3420498 -0.010540697 0.52191073
1.3200138 -0.010367605 0.52331287
1.2603791 -0.0098992307 0.51082909
1.2466391 -0.0097912867 0.51797193
1.2144701 -0.0095386226 0.51707953
1.1738007 -0.0092192609 0.51039875
1.169874 -0.0091883857 0.51933676
1.1470897 -0.0090094535 0.52125239
1.1339996 -0.0089066355 0.52579993
1.1028374 -0.0086618988 0.52160752
1.0898112 -0.0085596172 0.52567869
1.0672457 -0.0083822934 0.5263235
1.0626121 -0.0083459355 0.53561711
1.0407064 -0.008173856 0.53456837
1.026554 -0.0080627538 0.54011279
1.0129931 -0.0079562403 0.54431754
0.98249543 -0.0077166888 0.53762734
0.97776657 -0.0076795262 0.5461809
0.95558888 -0.0075053908 0.54478765
0.9329136 -0.0073272623 0.54407585
0.90234894 -0.0070872339 0.53685766
0.889081 -0.0069830157 0.53952414
0.85882932 -0.0067453715 0.53147602
0.84570175 -0.0066422853 0.53361446
0.83260304 -0.0065394077 0.53556466
0.8195352 -0.0064367685 0.53732729
0.80591708 -0.0063298084 0.53977549
0.80943573 -0.0063574654 0.55242503
0.79576492 -0.0062500583 0.55463427
0.76643407 -0.0060196854 0.54418987
0.76105964 -0.0059774858 0.55168158
0.75621653 -0.0059394585 0.55830216
0.71934497 -0.0056498386 0.54084283
0.70606273 -0.0055455603 0.54179764
0.68554825 -0.0053844186 0.5356254
0.68084812 -0.0053475238 0.54158765
0.66055375 -0.0051881108 0.5349223
0.66357672 -0.0052118641 0.54702723
0.64287287 -0.0050492324 0.54063755
0.63813066 -0.0050120098 0.54622716
0.60260266 -0.0047329394 0.5261631
0.61293799 -0.0048141517 0.54468691
0.60696024 -0.0047671837 0.5513407
0.58743995 -0.0046138801 0.54304051
0.5899623 -0.0046336697 0.55499816
0.56342655 -0.0044252612 0.53938013
0.57302392 -0.004500662 0.55823231
0.55554706 -0.0043633631 0.56164789
0.53668499 -0.0042152149 0.5521335
0.52433485 -0.0041182381 0.55014181
0.51951414 -0.0040803598 0.55469662
0.51404852 -0.0040374445 0.55976582
1.3844049 0.021747975 0.52282858
1.343061 0.021098463 0.51898152
1.3105965 0.020588426 0.51962751
1.2695291 0.019943384 0.5145852
1.2563212 0.019735841 0.5204494
1.2338992 0.019383637 0.52222306
1.2109479 0.019023029 0.52501738
1.1703268 0.018384902 0.51807052
1.1390058 0.017892925 0.51463151
1.1441193 0.017973211 0.52751124
1.1032991 0.017331926 0.52041382
1.0987163 0.017259981 0.53002316
1.0761145 0.016904917 0.53074634
1.0625138 0.016691294 0.53561711
1.0583982 0.016626563 0.5437063
1.0359061 0.016273227 0.54363006
0.9782452 0.015367446 0.52430934
0.99994749 0.015708413 0.54722786
0.97767609 0.015358534 0.5461809
0.95550048 0.015010145 0.54478765
0.94206774 0.014799144 0.54807794
0.91203851 0.014327433 0.5399819
0.90729219 0.014252838 0.54792124
0.89336663 0.014034118 0.55154246
0.85467178 0.013426241 0.53801107
0.84994477 0.013351973 0.54544979
0.82841748 0.013013776 0.54189956
0.83197743 0.013069685 0.55465561
0.81883496 0.012863274 0.55627668
0.78868377 0.012389567 0.54719681
0.78387922 0.012314136 0.55405933
0.76219082 0.011973406 0.5500198
0.7573626 0.011897529 0.556651
0.71986318 0.011308458 0.54006404
0.71512341 0.011234012 0.54632616
0.70973098 0.011149312 0.5533151
0.68138015 0.010703947 0.54083872
0.6604926 0.010375794 0.5349223
0.65046597 0.010218289 0.54707366
0.62287945 0.0097849043 0.53322178
0.61761057 0.0097021721 0.53931719
0.63530374 0.0099801077 0.56461453
0.58528388 0.0091943415 0.5305264
0.60268182 0.0094676567 0.5559541
0.61175615 0.0096101705 0.57555366
0.57781994 0.0090770973 0.55321038
0.55090284 0.0086542629 0.53789514
0.56037515 0.0088030649 0.55677837
0.55549574 0.0087263836 0.56164789
0.54298937 0.0085299267 0.55990154
0.51048928 0.008019384 0.53566438
0.51886564 0.0081509603 0.55525851
1.3339907 0.052412596 0.51246613
1.3120008 0.051548626 0.51390332
1.2987691 0.051028695 0.52018714
1.2670128 0.049780991 0.51874852
1.2624412 0.049601462 0.52979398
1.2124412 0.047636893 0.51972795
1.1809714 0.046400454 0.51696593
1.1678731 0.045885827 0.5218879
1.1456672 0.045013394 0.52251345
1.1235304 0.044143584 0.52281058
1.1110542 0.043653395 0.52588302
1.0890046 0.042787042 0.52567869
1.0754175 0.042253222 0.53074634
1.0618258 0.041719224 0.53561711
1.022727 0.040182974 0.52432323
1.0358224 0.040697571 0.54250866
1.0216482 0.040140655 0.54792684
0.96423668 0.037884917 0.52802688
0.96831924 0.038045343 0.54130429
0.95428246 0.037493851 0.54583812
0.92359143 0.036287989 0.53903812
0.90110004 0.035404291 0.53783381
0.88783902 0.034883257 0.54048592
0.84063596 0.033028658 0.52186239
0.8523497 0.033488866 0.54081285
0.83920938 0.032972571 0.542808
0.83384889 0.032761957 0.55101967
0.80414194 0.031594809 0.54153252
0.79878616 0.031384375 0.54941398
0.77759451 0.030551758 0.54489756
0.75595945 0.029701706 0.54087269
0.75121427 0.029515233 0.54745406
0.72233415 0.028380539 0.53612298
0.72500247 0.028485414 0.54923582
0.71227151 0.027985211 0.5494417
0.68329042 0.026846524 0.5378601
0.69417375 0.027274128 0.55630827
0.67380661 0.026473906 0.54971242
0.66837674 0.026260551 0.55631185
0.62536818 0.02457073 0.52982157
0.63527077 0.024959829 0.5490064
0.61544842 0.024181005 0.54133034
0.61010367 0.023971017 0.54735625
0.59054399 0.023202505 0.53918403
0.60046542 0.023592317 0.55792892
0.55868971 0.021950927 0.52941853
0.57563847 0.02261686 0.55509353
0.55590647 0.021841612 0.54670918
0.56524932 0.022208655 0.56568539
0.54568595 0.021440025 0.55692655
0.52694196 0.02070355 0.54726917
0.5146808 0.020221826 0.54515576
0.50310874 0.019767147 0.54230142
1.3603377 0.085585147 0.52321714
1.3000143 0.081789941 0.51310164
1.295496 0.081505686 0.52444917
1.2361176 0.077769905 0.5114342
1.2040429 0.07575193 0.51053149
1.1812367 0.074317127 0.51308513
1.1676013 0.073459238 0.51933676
1.1545143 0.072635859 0.52413785
1.1329389 0.071278483 0.52332461
1.119891 0.070457548 0.52771169
1.1068336 0.069636077 0.53194934
1.0848212 0.068251163 0.53160554
1.0628704 0.066870093 0.53097534
1.0587977 0.066613883 0.53908247
1.0269022 0.064607143 0.53562832
0.99576205 0.062648028 0.5305028
0.99052089 0.062318262 0.54026359
0.96773821 0.060884889 0.54025537
0.9456448 0.059494939 0.53881007
0.91560262 0.057604786 0.53099298
0.91094315 0.05731168 0.53897858
0.87998301 0.055363771 0.53241402
0.86681437 0.054535296 0.53484458
0.86153698 0.054203298 0.54333788
0.83157289 0.052318122 0.53464884
0.82628965 0.051985707 0.54281026
0.80493408 0.050642159 0.53890306
0.78313285 0.049270507 0.53551406
0.79482728 0.050006267 0.55375892
0.75680763 0.047614273 0.53840059
0.76826358 0.048334982 0.55671787
0.7306599 0.045969184 0.54048401
0.73390204 0.046173181 0.55286151
0.71260911 0.044833507 0.54788524
0.68421656 0.043047186 0.5356254
0.69454813 0.043697264 0.55479133
0.67419118 0.04241645 0.54824001
0.67646939 0.042559799 0.56122887
0.6639244 0.041770544 0.56067783
0.62056452 0.039042588 0.53457958
0.60086352 0.03780311 0.52681494
0.61800581 0.038881596 0.55268174
0.59100604 0.037182894 0.53789341
0.59362763 0.037347849 0.54982853
0.55973899 0.035215762 0.52759087
0.55454737 0.034889098 0.53306657
0.54274225 0.034146395 0.53090948
0.55165458 0.034707155 0.55033863
0.55385131 0.034845348 0.56225842
0.53503627 0.03366157 0.55272335
0.53020203 0.033357453 0.5573805
0.51109111 0.032155108 0.54795253
0.50629938 0.031853598 0.55240053
1.3782723 0.11937132 0.52584803
1.3643665 0.11816695 0.53426605
1.2856741 0.1113514 0.51647151
1.2627013 0.1093618 0.52012032
1.2489479 0.10817066 0.52728373
1.2077186 0.10459974 0.52237391
1.185467 0.10267255 0.52357066
1.1632779 0.10075071 0.52443653
1.1507722 0.099667639 0.52791059
1.1106009 0.096188396 0.51982039
1.0976219 0.095064312 0.52401239
1.0930243 0.094666123 0.53360671
1.0621516 0.091992259 0.52865064
1.0486283 0.090821028 0.53341371
1.0351038 0.089649707 0.53798038
1.0215805 0.088478386 0.54235119
0.99052918 0.085789114 0.53702152
0.98523384 0.085330479 0.54674774
0.94573689 0.081909686 0.53569818
0.92319119 0.079957038 0.53499997
0.91050941 0.078858614 0.53698605
0.88017011 0.076230973 0.52951807
0.86703271 0.07509315 0.5319919
0.86237448 0.074689686 0.53956616
0.8402459 0.072773159 0.53729957
0.80212098 0.06947118 0.52285343
0.81357664 0.070463359 0.5417822
0.7923286 0.068623036 0.53768605
0.77882856 0.067453802 0.53979266
0.76595742 0.066339076 0.54084039
0.7606355 0.065878116 0.54835546
0.73171663 0.063373476 0.53728449
0.72701758 0.062966518 0.54367328
0.70638931 0.061179902 0.53793228
0.70168561 0.060772534 0.54409921
0.6969285 0.060360517 0.55022472
0.66878849 0.057923313 0.53755635
0.66349387 0.057464745 0.54412651
0.64341849 0.055726048 0.53712869
0.61534804 0.053294864 0.52402902
0.63338977 0.054857459 0.5490064
0.60555673 0.052446868 0.53539741
0.61571544 0.053326692 0.55403137
0.61027187 0.052855249 0.56006658
0.59079194 0.05116811 0.55176693
0.57150394 0.049497601 0.54316962
0.5804922 0.050276037 0.56267321
0.55426049 0.048004117 0.54670918
0.55592841 0.048148599 0.55921847
0.56499594 0.048933886 0.57834679
0.51315683 0.04444414 0.54515582
0.51517636 0.04461908 0.55695826
1.3837889 0.15277168 0.53093213
1.3704638 0.15130058 0.53790057
1.3109446 0.14472964 0.52619147
1.289078 0.14231554 0.52727985
1.2483277 0.13781664 0.52180874
1.2351769 0.13636479 0.52748698
1.212903 0.13390574 0.52899474
1.1628449 0.12837926 0.51933676
1.149811 0.12694028 0.52413785
1.1181686 0.12344694 0.52159357
1.1046211 0.12195128 0.52710527
1.0821208 0.11946726 0.52805513
1.0780861 0.1190218 0.53634328
1.0645218 0.1175243 0.54127729
1.0421232 0.11505145 0.541426
1.0285959 0.11355799 0.54588908
1.0069066 0.11116349 0.54431754
0.98471844 0.10871389 0.54351723
0.95394969 0.10531703 0.53748333
0.94866365 0.1047334 0.54687119
0.93530333 0.10325839 0.55013216
0.90488595 0.099900298 0.54295605
0.86559457 0.095562518 0.53104985
0.85251456 0.094118476 0.53334844
0.83888489 0.092613697 0.53637189
0.82585853 0.091175616 0.53827929
0.81286365 0.089740932 0.53999931
0.79931009 0.088244639 0.54241705
0.77819186 0.085913152 0.53808588
0.77290839 0.085329823 0.54573935
0.7600596 0.083911322 0.5466885
0.73862642 0.081545047 0.54238486
0.73389381 0.081022553 0.54884905
0.71267039 0.078679495 0.54397649
0.70792496 0.0781556 0.55021268
0.67909974 0.074973285 0.53861165
0.68215376 0.075310461 0.5508126
0.66137022 0.073015921 0.54484683
0.65661913 0.07249137 0.55063266
0.64363736 0.071058147 0.55061936
0.6238054 0.068868719 0.54316103
0.6259315 0.069103442 0.55590868
0.5983122 0.066054225 0.5419957
0.61557299 0.067959838 0.5674957
0.5815497 0.064203613 0.54559863
0.58400506 0.064474694 0.55756712
0.57139856 0.063082956 0.55634904
0.54530543 0.060202252 0.54029405
0.54701525 0.060391005 0.55274522
0.54915124 0.060626831 0.5646745
0.51609462 0.056977328 0.54120237
0.51819903 0.057209667 0.55298901
0.51459593 0.05681188 0.56996799
1.3800058 0.1853579 0.50162369
1.3849094 0.18601653 0.51722676
1.3896477 0.18665305 0.53295404
1.375752 0.18478659 0.54153502
1.2481294 0.16764471 0.53941464
1.1895242 0.15977302 0.5249809
1.1674215 0.15680429 0.52596515
1.1724211 0.1574758 0.53910118
1.1233767 0.15088826 0.52702677
1.1008754 0.14786604 0.52830756
1.0790057 0.14492854 0.52805513
1.0743976 0.14430958 0.53753555
1.0343454 0.13892993 0.52889323
1.0297318 0.13831022 0.53798038
1.0162785 0.13650322 0.54235119
0.99469841 0.13360468 0.54067069
0.96393216 0.12947229 0.53495026
0.95062667 0.12768513 0.53852153
0.94593292 0.12705466 0.54687119
0.89838666 0.12066835 0.52994382
0.90228122 0.12119146 0.54295605
0.87214851 0.11714414 0.53528893
0.858477 0.11530784 0.53862917
0.83704489 0.11242911 0.53545827
0.84011728 0.11284178 0.54915363
0.80225307 0.10775602 0.5344891
0.78057605 0.10484439 0.53123319
0.78411967 0.10532039 0.54374993
0.75503117 0.10141331 0.53342605
0.74174678 0.099629015 0.53505683
0.72907901 0.097927541 0.53568083
0.72382706 0.097222082 0.54288328
0.69539744 0.093403518 0.53112918
0.70588708 0.094812416 0.55021268
0.69331151 0.093123339 0.55022472
0.67246073 0.090322725 0.54455334
0.67055911 0.09006732 0.56270629
0.63482672 0.085267834 0.54343754
0.60759884 0.08161068 0.52939904
0.60985112 0.081913203 0.54200721
0.60514015 0.081280433 0.54735625
0.57053196 0.076631978 0.52632767
0.58046991 0.077966802 0.54495496
0.58232397 0.07821583 0.55756712
0.55609131 0.074692354 0.54183352
0.55785871 0.074929737 0.55432767
0.53904206 0.072402366 0.54506105
0.56143302 0.075409852 0.57897002
0.52892745 0.071043797 0.55505729
0.50310975 0.067576051 0.53843665
1.0783778 0.17079827 0.54436129
1.0390245 0.16456529 0.53455234
1.0337865 0.16373566 0.54486328
1.0116093 0.16022313 0.54458696
0.98083711 0.15534928 0.53918934
0.98479098 0.15597555 0.55268294
0.95420063 0.15113047 0.54659009
0.91523868 0.14495954 0.53499997
0.91059262 0.14422366 0.54306597
0.87201262 0.13811317 0.53048915
0.85841554 0.13595963 0.53388923
0.83704036 0.13257414 0.53083658
0.81521124 0.12911674 0.52835548
0.79408288 0.12577036 0.52460867
0.7889623 0.12495929 0.53246939
0.76800245 0.12163961 0.52818191
0.76283926 0.12082183 0.53579688
0.77432388 0.12264081 0.55405933
0.74489033 0.11797901 0.54416853
0.74017173 0.1172316 0.55072916
0.74269205 0.11763083 0.56406689
0.70640618 0.11188369 0.54632616
0.6932897 0.10980626 0.54716718
0.67307425 0.10660443 0.54083872
0.66011709 0.10455227 0.54121548
0.63256347 0.10018817 0.52794486
0.6274184 0.099373251 0.53420138
0.63029367 0.099828683 0.54622716
0.61008203 0.096627444 0.53931719
0.59802729 0.094718158 0.53804439
0.58488387 0.092636481 0.53789341
0.60198396 0.095344834 0.56340456
0.56113482 0.088874981 0.53444272
0.56305748 0.089179508 0.54691249
0.55832219 0.088429518 0.55186647
0.54653746 0.086562969 0.5497306
0.53697819 0.085048936 0.55930418
0.5178954 0.082026534 0.55014187
0.50638217 0.080203019 0.54739803
0.95503122 0.17441964 0.53813863
0.93325132 0.17044187 0.53674161
0.92860812 0.16959393 0.54499996
0.91483402 0.16707829 0.54914802
0.86795145 0.15851605 0.53144419
0.85439605 0.15604037 0.53484458
0.84144109 0.15367436 0.53708577
0.81138003 0.14818427 0.5292483
0.82327127 0.15035602 0.54737329
0.78522295 0.14340711 0.53334737
0.78061444 0.14256549 0.54029268
0.76728696 0.14013147 0.54234117
0.74596524 0.13623741 0.53840059
0.74131495 0.13538808 0.54499745
0.72868758 0.13308191 0.54562217
0.70823735 0.12934706 0.54006404
0.69575673 0.12706774 0.5402559
0.68332726 0.12479767 0.54026788
0.67037588 0.12243232 0.54083872
0.66570753 0.1215797 0.54676491
0.6452089 0.117836 0.5406664
0.64054292 0.11698388 0.54636943
0.62029332 0.11328566 0.53972447
0.60080183 0.10972585 0.53206897
0.62504357 0.1141532 0.56461453
0.60498756 0.1104903 0.55738848
0.56402415 0.10300905 0.52883446
0.58098072 0.10610589 0.55434918
0.57619977 0.10523272 0.55948186
0.56432092 0.10306326 0.55760193
0.56011122 0.10229442 0.56197095
0.55466181 0.10129919 0.56752867
0.52915239 0.096640356 0.55096138
0.52380115 0.095663019 0.55622023
0.51900631 0.094787352 0.56084567
0.50023031 0.091358222 0.55129248
0.51467234 0.093995817 0.57851291
0.88971931 0.18425199 0.54594028
0.86832172 0.17982072 0.54339844
0.83816475 0.17357552 0.53614491
0.84180433 0.17432925 0.54897612
0.82007992 0.16983035 0.54646736
0.79091758 0.16379112 0.53714222
0.76951998 0.15935987 0.53380084
0.75687736 0.15674174 0.53494734
0.74369693 0.15401217 0.53674495
0.73908198 0.15305647 0.54335213
0.73382765 0.15196839 0.55072916
0.73693329 0.15261152 0.56323975
0.70813328 0.1466473 0.55239648
0.69565648 0.14406347 0.55254668
0.68264568 0.14136907 0.55327177
0.66265833 0.13722989 0.54676491
0.65736544 0.13613382 0.553388
0.65261155 0.1351493 0.55922514
0.61001307 0.12632757 0.53322178
0.62019992 0.12843718 0.55177522
0.61486095 0.12733155 0.55797201
0.58101857 0.12032314 0.53660023
0.56863874 0.11775938 0.53561437
0.57117987 0.1182856 0.54750538
0.56647956 0.11731222 0.55257469
0.54009283 0.11184783 0.53729868
0.54938954 0.11377307 0.55617166
0.54402119 0.11266132 0.56164795
0.53237575 0.11024968 0.55930418
0.50670046 0.10493257 0.54290318
0.50873584 0.10535405 0.55469668
0.84567398 0.19601667 0.55435824
0.80010724 0.18545488 0.53463525
0.80306274 0.18613988 0.5482173
0.76611418 0.17757568 0.53295016
0.76098484 0.17638677 0.54063827
0.7324748 0.1697785 0.53014708
0.73527086 0.17042658 0.54335213
0.72276753 0.16752851 0.5440048
0.71753472 0.16631559 0.55125594
0.69732493 0.16163123 0.54553944
0.69206923 0.160413 0.55254668
0.66443408 0.15400752 0.54010093
0.6440863 0.14929111 0.5341956
0.62447298 0.14474502 0.5272404
0.62685853 0.14529796 0.53994161
0.60742921 0.14079446 0.53254741
0.61023098 0.14144392 0.54452902
0.61287475 0.14205667 0.55660087
0.59306186 0.1374643 0.54934621
0.56022412 0.12985294 0.52696037
0.5907492 0.13692829 0.56671518
0.56473154 0.13089773 0.55131125
0.54544127 0.12642647 0.54305631
0.54080391 0.12535156 0.54792166
0.53762329 0.12461434 0.56527203
0.51256454 0.11880601 0.5484184
0.5012002 0.11617192 0.54571283
0.50256497 0.11648824 0.55808508
0.76630539 0.19675374 0.54374993
0.75374609 0.19352904 0.54489756
0.74065375 0.19016752 0.5466885
0.72817492 0.18696347 0.54745406
0.6996091 0.17962903 0.53691757
0.70276701 0.18043986 0.54923582
0.67452019 0.17318729 0.53798574
0.67756027 0.17396787 0.55022472
0.66473705 0.17067546 0.5508126
0.65255547 0.16754773 0.5504536
0.63241416 0.16237631 0.54422998
0.60563278 0.15550004 0.53049856
0.60787845 0.15607662 0.54316109
0.58145958 0.14929341 0.52878761
0.59081805 0.15169623 0.54801673
0.5998562 0.15401685 0.56749576
0.58086914 0.14914179 0.55923867
0.54801667 0.14070675 0.53691655
0.53649014 0.13774723 0.53488696
0.53194869 0.13658115 0.53970015
0.53421557 0.13716318 0.5515433
0.53573138 0.13755238 0.56406671
0.5055477 0.12980255 0.55242455
0.70947731 0.20009324 0.55045855
0.6812821 0.19214138 0.53947788
0.68432873 0.19300061 0.5517652
0.6488964 0.18300764 0.53389299
0.6368947 0.17962286 0.53347993
0.6243946 0.17609744 0.5335927
0.61250955 0.1727455 0.53281426
0.59280396 0.16718794 0.52605289
0.60289061 0.17003271 0.54452902
0.58331817 0.16451268 0.53737837
0.57106954 0.16105819 0.53660023
0.57362276 0.1617783 0.54852962
0.55494463 0.15651055 0.54003793
0.56373924 0.15899086 0.55948186
0.53314692 0.15036292 0.54913151
0.51496285 0.14523448 0.53974086
0.50524622 0.14249414 0.54956502
0.61951131 0.19058651 0.53430569
0.60715723 0.18678591 0.53420144
0.60267848 0.18540809 0.53972453
0.57653379 0.17736492 0.52550024
0.59300452 0.182432 0.55132955
0.57611018 0.17723458 0.55595416
0.54357547 0.16722558 0.53381771
0.53163147 0.16355114 0.53246504
0.51347739 0.1579662 0.52334285
0.53566879 0.16479319 0.55677843
0.51756132 0.15922259 0.54742903
0.50117105 0.15418029 0.55014187
0.62871736 0.20975594 0.56357515
0.59477931 0.19843332 0.54383987
0.58314323 0.19455124 0.54267281
0.5845359 0.19501586 0.55604553
0.57292384 0.1911418 0.55463785
0.57464987 0.19171765 0.56738162
0.54933131 0.18327074 0.55194837
0.53056508 0.17700988 0.54366189
0.53278857 0.17775168 0.55555439
0.52953941 0.17666768 0.57304156
0.51107752 0.17050831 0.56402725
0.56580859 0.20370358 0.54264683
0.54801518 0.19729754 0.53371626
0.55681181 0.20046453 0.5530594
0.55906749 0.20127659 0.56509405
0.52680069 0.18965989 0.54305631
0.52232182 0.18804738 0.54792166
0.50452614 0.18164054 0.53857231
0.51924986 0.1869414 0.56527203
0.5587483 0.2161634 0.55988729
0.51383388 0.19878729 0.55213982
0.50932068 0.19704126 0.55692661
0.50848395 0.21062087 0.53850067
0.50412303 0.20881453 0.54328305
