# .PCD v0.7 - Point Cloud Data file format
VERSION 0.7
FIELDS x y z
SIZE 4 4 4
TYPE F F F
COUNT 1 1 1
WIDTH 1296
HEIGHT 1
VIEWPOINT 0 0 0 1 0 0 0
POINTS 1296
DATA ascii
1.3961288 -0.49028552 0.029057747
1.4049227 -0.49337381 0.053611454
1.3855765 -0.48657987 0.065709524
1.3756399 -0.4830904 0.076410383
1.3845572 -0.48622191 0.086539961
1.3743784 -0.48264736 0.098666631
1.3735138 -0.4823437 0.11137449
1.3725444 -0.4820033 0.12407387
1.3808644 -0.48492509 0.13770053
1.3704466 -0.48126662 0.14784628
1.387933 -0.48740739 0.16271475
1.3865404 -0.48691836 0.17554554
1.3945934 -0.48974633 0.18803634
1.3934023 -0.48932806 0.19770631
1.3823811 -0.48545769 0.20917301
1.3899345 -0.48811027 0.22345035
1.3787261 -0.48417413 0.23471144
1.3767412 -0.48347706 0.24745433
1.3839395 -0.48600492 0.26193634
1.3822923 -0.48542655 0.27153081
1.3802981 -0.48472625 0.28269687
1.3874686 -0.48724428 0.29584429
1.3849798 -0.48637033 0.30866569
1.3827184 -0.48557618 0.31985241
1.3895735 -0.48798347 0.333253
1.387135 -0.48712716 0.34447613
1.3934131 -0.4893319 0.35965878
1.3812512 -0.48506093 0.37008187
1.3781515 -0.48397243 0.38284299
1.374947 -0.48284703 0.3955749
1.3716376 -0.48168489 0.40827671
1.3863459 -0.48685002 0.42652291
1.3832291 -0.4857555 0.4377428
1.3976059 -0.49080428 0.45640877
1.4023038 -0.49245405 0.47395426
1.3893843 -0.48791704 0.48378491
1.3853482 -0.4864997 0.49661687
1.3990285 -0.49130386 0.51598412
1.3858432 -0.4866735 0.52553523
1.389756 -0.48804757 0.54340369
1.4028752 -0.49265474 0.5633226
1.3888044 -0.48771343 0.5742451
1.4103024 -0.49526298 0.59821516
1.388304 -0.45108727 0.027060015
1.3880666 -0.45101023 0.03821823
1.3877491 -0.45090699 0.049348742
1.3969151 -0.45388523 0.059301246
1.3869435 -0.4506453 0.070047952
1.386395 -0.45046702 0.08116854
1.3952559 -0.45334616 0.092942089
1.3850545 -0.45003143 0.10342029
1.365417 -0.4436509 0.11140244
1.364567 -0.44337472 0.12237422
1.3634995 -0.44302785 0.13489032
1.3812492 -0.44879505 0.1494433
1.380125 -0.44842979 0.1605159
1.3881837 -0.45104823 0.17435943
1.3961171 -0.45362595 0.18836296
1.3945005 -0.45310074 0.20116602
1.3929974 -0.45261231 0.21236897
1.3914163 -0.45209858 0.22353396
1.3897505 -0.45155728 0.23471144
1.3882596 -0.4510729 0.24427034
1.3864474 -0.45048413 0.2553964
1.3845502 -0.44986767 0.26653302
1.3916252 -0.45216647 0.28111365
1.3799154 -0.44836169 0.29189968
1.3774402 -0.44755751 0.30455014
1.3841498 -0.44973752 0.31932053
1.3817931 -0.44897187 0.33041143
1.3882535 -0.45107087 0.34538022
1.3760985 -0.44712156 0.35571778
1.38269 -0.44926319 0.36922982
1.3887701 -0.45123884 0.38444883
1.3763509 -0.44720352 0.39454669
1.373024 -0.44612259 0.40716055
1.3969843 -0.45390782 0.42813829
1.3851764 -0.45007116 0.43488175
1.3906033 -0.45183438 0.45051962
1.3868113 -0.45060229 0.46326211
1.3829136 -0.4493359 0.47596931
1.379421 -0.44820112 0.48704579
1.3753262 -0.4468706 0.49968427
1.3800883 -0.4484179 0.51563299
1.3936232 -0.45281565 0.5351373
1.3713195 -0.44556874 0.54087985
1.3845286 -0.44986066 0.56062949
1.362133 -0.44258389 0.5659619
1.388875 -0.4153617 0.03163147
1.398134 -0.41813073 0.044586118
1.4072813 -0.42086634 0.057711817
1.378108 -0.41214165 0.067506813
1.3871399 -0.41484284 0.079045914
1.3865219 -0.41465795 0.090086341
1.3763694 -0.41162172 0.098869644
1.3851577 -0.41425002 0.11061165
1.3747622 -0.41114104 0.12079652
1.3738374 -0.41086447 0.13176222
1.372533 -0.41047439 0.14582101
1.3903069 -0.4157899 0.16051592
1.3984251 -0.41821772 0.17435943
1.4066113 -0.42066598 0.18677436
1.4052056 -0.42024556 0.19796665
1.4037147 -0.41979969 0.20917301
1.4116192 -0.42216367 0.2218304
1.4007336 -0.41890812 0.22991544
1.3895561 -0.41556546 0.23945624
1.4063787 -0.42059642 0.25553375
1.3950446 -0.41720685 0.26493213
1.3930634 -0.41661432 0.27605546
1.400099 -0.4187184 0.29068446
1.3979342 -0.41807097 0.30182189
1.3859928 -0.41449973 0.31243235
1.3926747 -0.41649804 0.32724091
1.3992138 -0.41845372 0.34219483
1.3962995 -0.41758215 0.35492644
1.3936592 -0.41679254 0.36605716
1.3812754 -0.41308898 0.37621233
1.3873262 -0.4148986 0.39138851
1.3844259 -0.41403118 0.40242133
1.3906478 -0.41589192 0.41621229
1.3880081 -0.41510251 0.42570338
1.3940282 -0.41690284 0.43963295
1.3999175 -0.41866416 0.4537085
1.3960708 -0.41751376 0.46644226
1.3921179 -0.41633156 0.47914049
1.4062035 -0.42054406 0.49823105
1.3838944 -0.41387221 0.50442654
1.3982095 -0.41815332 0.52216643
1.4027828 -0.41952103 0.53833288
1.3987992 -0.41832969 0.54950994
1.3941516 -0.41693977 0.56222987
1.3804915 -0.41285455 0.57122171
1.4022888 -0.41937327 0.59507293
1.398308 -0.38253379 0.030037476
1.3883606 -0.37981248 0.042392701
1.3784239 -0.37709409 0.051452611
1.3972101 -0.38223344 0.064815521
1.4158751 -0.38733959 0.078522213
1.3862793 -0.37924308 0.089465059
1.3759571 -0.37641928 0.099751644
1.3654493 -0.37354466 0.1114118
1.3740685 -0.37590259 0.1246326
1.3825681 -0.37822783 0.13801777
1.3815126 -0.37793905 0.14894611
1.3995458 -0.38287234 0.16211145
1.3983124 -0.38253498 0.17317332
1.3969948 -0.38217455 0.18425038
1.3958018 -0.38184816 0.19372566
1.3943359 -0.3814472 0.204757
1.4006858 -0.38318431 0.22836196
1.4084778 -0.38531587 0.2410852
1.3974192 -0.38229069 0.24894367
1.3952707 -0.38170293 0.26157689
1.402492 -0.38367853 0.27605546
1.3906549 -0.38044015 0.28678265
1.3979502 -0.38243601 0.29979625
1.3960277 -0.38191 0.30927551
1.3933713 -0.38118336 0.32189387
1.4094007 -0.38556847 0.33900782
1.3967456 -0.38210633 0.35099351
1.3851407 -0.37893161 0.3580443
1.3918074 -0.38075545 0.37147972
1.3797053 -0.37744465 0.37993231
1.3768702 -0.37666908 0.39083096
1.3832316 -0.37840936 0.40444615
1.3890347 -0.37999693 0.41974339
1.3859065 -0.37914112 0.43071467
1.400658 -0.38317671 0.44914666
1.3784448 -0.3770999 0.45572522
1.3837202 -0.37854299 0.47130013
1.3888373 -0.37994298 0.48700494
1.3852059 -0.37894943 0.49799776
1.3809614 -0.37778834 0.51051104
1.385118 -0.37892541 0.52798033
1.3986685 -0.3826324 0.54755688
1.3754319 -0.3762756 0.55453008
1.3802751 -0.37760058 0.56908524
1.3971629 -0.3470571 0.032971166
1.3968775 -0.34698611 0.04397535
1.3771152 -0.3420772 0.054188628
1.3864369 -0.34439272 0.063921519
1.395614 -0.3466723 0.075363673
1.3853281 -0.34411728 0.085729823
1.3846514 -0.34394926 0.096639238
1.3838959 -0.3437615 0.10751813
1.3733859 -0.34115082 0.11758756
1.3724756 -0.34092474 0.12837729
1.3714831 -0.34067827 0.13918424
1.3897147 -0.34520692 0.15207049
1.4076568 -0.34966373 0.1668462
1.4063778 -0.34934604 0.17792913
1.3951954 -0.34656835 0.18926287
1.4031498 -0.34854424 0.20319262
1.3821785 -0.34333497 0.21284544
1.3997374 -0.34769654 0.22680849
1.3980138 -0.34726846 0.23782729
1.3962128 -0.34682104 0.24880707
1.3943261 -0.34635237 0.25979745
1.3920727 -0.34579274 0.27232498
1.3900166 -0.34528193 0.28325707
1.4065723 -0.34939441 0.29979625
1.3944933 -0.34639403 0.31032133
1.3918121 -0.34572795 0.32284841
1.398474 -0.34738281 0.33763224
1.3864963 -0.34440747 0.34628218
1.3929224 -0.3460038 0.36117637
1.3992012 -0.34756336 0.37621233
1.3865927 -0.34443143 0.38617
1.3930433 -0.34603378 0.39973852
1.399366 -0.3476043 0.4134559
1.3967098 -0.3469446 0.42288417
1.393539 -0.34615687 0.43384832
1.3995481 -0.3476496 0.44777766
1.3957024 -0.34669432 0.46034497
1.4014746 -0.34812811 0.47442132
1.3882098 -0.34483317 0.48380095
1.3932257 -0.34607908 0.49955148
1.3889418 -0.34501496 0.51205999
1.4022019 -0.34830883 0.53302014
1.3982158 -0.34731862 0.54402429
1.3935552 -0.34616098 0.55657595
1.3978064 -0.34721693 0.57278055
1.3952289 -0.31187057 0.031195179
1.3851554 -0.30961889 0.043364584
1.3847334 -0.3095246 0.055748835
1.3939538 -0.31158561 0.068608619
1.3835728 -0.3092652 0.080503657
1.3829335 -0.3091222 0.091314256
1.3821032 -0.30893666 0.10367682
1.3812892 -0.30875474 0.11449996
1.3708063 -0.3064115 0.1228895
1.3882308 -0.31030637 0.14637256
1.3966303 -0.31218386 0.15989074
1.3855264 -0.30970186 0.17117612
1.4130511 -0.31585443 0.18740971
1.4116151 -0.3155334 0.19844759
1.390558 -0.31082648 0.20817125
1.3887322 -0.31041837 0.22059754
1.4060616 -0.31429201 0.23624323
1.39464 -0.31173894 0.24555668
1.4023769 -0.31346843 0.25821757
1.4100015 -0.31517276 0.2710388
1.3980637 -0.31250432 0.28170705
1.3860524 -0.30981949 0.29218259
1.4025941 -0.31351694 0.30876631
1.400255 -0.31299409 0.31971893
1.3974789 -0.31237355 0.33222765
1.3945963 -0.31172922 0.3447111
1.391984 -0.31114528 0.35562506
1.3987474 -0.31265709 0.36898655
1.4053859 -0.31414095 0.38249943
1.3930852 -0.3113915 0.39083096
1.3995215 -0.31283012 0.40444615
1.3960239 -0.31204835 0.4169451
1.3830746 -0.30915383 0.42653036
1.3980298 -0.31249675 0.44481224
1.3853805 -0.30966929 0.45268705
1.3912377 -0.3109785 0.4666366
1.4057069 -0.31421277 0.48544657
1.3922986 -0.31121567 0.49472144
1.3977716 -0.31243899 0.50893646
1.4025509 -0.31350729 0.5248462
1.3894534 -0.31057969 0.53231508
1.3854508 -0.30968496 0.54315853
1.3995339 -0.31283286 0.56128442
1.4128134 -0.31580123 0.58122921
1.4020424 -0.27888352 0.037432931
1.4017215 -0.27881974 0.048334736
1.4013181 -0.27873951 0.059258666
1.3910381 -0.27669466 0.069663614
1.4100593 -0.28047824 0.081637509
1.3899286 -0.276474 0.089780793
1.3988897 -0.27825654 0.10286359
1.3880577 -0.27610189 0.11603147
1.3773787 -0.2739777 0.12595363
1.3762481 -0.27375281 0.13820407
1.3945167 -0.27738661 0.15257792
1.4029 -0.27905416 0.16613354
1.3821495 -0.2749266 0.1745794
1.3905241 -0.27659243 0.18665235
1.3890874 -0.27630663 0.19746025
1.3875663 -0.27600414 0.20828134
1.376276 -0.27375835 0.21753368
1.37485 -0.27347469 0.22671314
1.4021194 -0.27889886 0.24243838
1.399991 -0.27847555 0.25490451
1.3977561 -0.27803096 0.26735124
1.3957155 -0.27762517 0.27821302
1.40289 -0.27905217 0.29262507
1.3811494 -0.27472773 0.30091676
1.3976674 -0.27801338 0.31754398
1.3757882 -0.27366135 0.32544753
1.3920192 -0.27688983 0.34236616
1.3993107 -0.27834025 0.35405654
1.3962271 -0.2777268 0.36649343
1.3930372 -0.27709237 0.37890241
1.3991952 -0.2783173 0.39394432
1.3871998 -0.27593127 0.4005481
1.4029881 -0.27907172 0.41694513
1.3998283 -0.27844313 0.42784327
1.3965796 -0.27779701 0.43874136
1.393257 -0.277136 0.44958901
1.3986806 -0.27821496 0.46506885
1.3853493 -0.27556315 0.47431257
1.391026 -0.27669224 0.48835215
1.3960385 -0.27768943 0.50404823
1.4008877 -0.27865389 0.51987052
1.3963848 -0.27775827 0.53231508
1.3917757 -0.27684143 0.54471916
1.3870606 -0.27590355 0.55708176
1.3985856 -0.24409223 0.027879741
1.4081397 -0.24575967 0.040551551
1.3979495 -0.24398118 0.051092807
1.4072982 -0.24561286 0.063921519
1.4066951 -0.24550766 0.076385558
1.4059849 -0.24538368 0.088843778
1.4051677 -0.24524105 0.10129523
1.3747836 -0.23993814 0.11135285
1.3936654 -0.24323358 0.12220555
1.4025121 -0.24477758 0.13395359
1.4014649 -0.24459477 0.14480837
1.3905408 -0.24268825 0.15459086
1.4089072 -0.24589367 0.16768126
1.4077958 -0.24569978 0.17703827
1.4259551 -0.24886896 0.19056813
1.4049683 -0.24520619 0.19884108
1.3936839 -0.2432368 0.20828134
1.3920784 -0.24295659 0.21906561
1.3906362 -0.24270494 0.22830971
1.3983312 -0.2440479 0.24230254
1.3961949 -0.24367501 0.25468037
1.3939524 -0.24328364 0.26703879
1.4012676 -0.24456038 0.281317
1.3987958 -0.24412896 0.29371932
1.4065057 -0.24547459 0.30509615
1.4038295 -0.24500753 0.31754398
1.4010463 -0.24452169 0.32996765
1.4077327 -0.24568875 0.34471112
1.4050956 -0.24522848 0.35562509
1.4119227 -0.24642 0.36898658
1.3995819 -0.24426612 0.37736523
1.3967059 -0.24376413 0.38819024
1.4032228 -0.24490163 0.40173179
1.4096243 -0.2460188 0.41537201
1.3974736 -0.24389824 0.42187795
1.3942558 -0.24333659 0.43271002
1.390964 -0.24276206 0.4434922
1.4063348 -0.24544469 0.46041197
1.4028347 -0.24483392 0.47128686
1.399766 -0.24429825 0.48059702
1.4054132 -0.24528393 0.49472147
1.4109378 -0.24624816 0.50893646
1.3978069 -0.24395642 0.51645029
1.4025412 -0.24478266 0.53231508
1.3979118 -0.24397472 0.54471916
1.3931758 -0.24314818 0.55708176
1.3895543 -0.24251613 0.5663259
1.4038846 -0.21106458 0.030977037
1.403564 -0.21101636 0.043364588
1.4031361 -0.21095204 0.055748839
1.4126238 -0.2123785 0.06549228
1.4021306 -0.21080083 0.077410497
1.4014094 -0.21069247 0.0897808
1.3809633 -0.20761853 0.099170163
1.3900317 -0.20898199 0.11062723
1.399009 -0.21033163 0.12220556
1.3980443 -0.21018656 0.13301684
1.3873146 -0.20857342 0.14126506
1.4155328 -0.2128159 0.1567682
1.414126 -0.21260442 0.16925375
1.4028019 -0.21090187 0.18046442
1.4109896 -0.21213283 0.19418524
1.409484 -0.21190645 0.20506217
1.3978853 -0.21016271 0.21598214
1.3959682 -0.20987441 0.22830971
1.384197 -0.20810474 0.23893723
1.3918154 -0.20925005 0.25291175
1.3895799 -0.20891406 0.26518434
1.3872385 -0.20856197 0.27743676
1.3851006 -0.20824058 0.28815252
1.3922296 -0.20931239 0.30246496
1.3992162 -0.21036275 0.31692502
1.4060585 -0.21139146 0.33153126
1.4131303 -0.21245463 0.34471112
1.400888 -0.2106141 0.35320589
1.3977866 -0.21014783 0.36555472
1.3945788 -0.20966557 0.37787572
1.400794 -0.21059999 0.39284033
1.4068564 -0.2115114 0.40794319
1.404186 -0.21110997 0.41724572
1.4009982 -0.21063069 0.42806369
1.3977213 -0.21013805 0.43888143
1.4037919 -0.21105072 0.45268708
1.4003289 -0.21053007 0.46352571
1.4056464 -0.21132949 0.47905913
1.4014589 -0.21069995 0.49144518
1.3971646 -0.21005425 0.50379378
1.4026132 -0.21087345 0.5179854
1.3888307 -0.20880136 0.52683103
1.402688 -0.21088478 0.5462544
1.3887239 -0.20878527 0.55493671
1.4084675 -0.17793083 0.030977039
1.428026 -0.18040162 0.042392708
1.4077766 -0.17784351 0.054188639
1.4172354 -0.17903847 0.06549228
1.4166143 -0.17895997 0.077955641
1.4060812 -0.17762941 0.088222504
1.4054782 -0.17755324 0.097496465
1.3946892 -0.17619026 0.10908157
1.3839359 -0.17483181 0.11897495
1.3829954 -0.17471297 0.12961069
1.3918433 -0.17583068 0.14126506
1.4104606 -0.17818262 0.15411641
1.4094296 -0.17805238 0.16341786
1.4079611 -0.17786683 0.17580883
1.4162203 -0.17891027 0.1895024
1.404917 -0.17748232 0.19901744
1.4031405 -0.17725785 0.21136735
1.391458 -0.17578204 0.22213684
1.399267 -0.1767685 0.23601797
1.3876681 -0.17530324 0.24504252
1.3952508 -0.1762612 0.25905052
1.4026959 -0.1772017 0.27321044
1.400277 -0.17689611 0.28553799
1.3980706 -0.17661734 0.2963191
1.4151735 -0.17877801 0.31132302
1.3934181 -0.17602964 0.31780422
1.3906136 -0.17567541 0.33004847
1.3977151 -0.17657252 0.34309557
1.40431 -0.17740561 0.35782754
1.4011586 -0.17700759 0.37016609
1.3983102 -0.17664769 0.38095149
1.4145019 -0.17869315 0.39705575
1.4110103 -0.17825207 0.40948242
1.4078635 -0.17785457 0.42034262
1.4051039 -0.177506 0.42962122
1.4018121 -0.17709002 0.44041067
1.4078798 -0.17785665 0.45424771
1.3949763 -0.17622653 0.46193656
1.4008336 -0.17696652 0.47586542
1.3977137 -0.17657229 0.48509645
1.403358 -0.17728534 0.49915516
1.3995314 -0.17680195 0.50995374
1.4049361 -0.17748466 0.52416933
1.4009197 -0.17697737 0.53497934
1.4023559 -0.14368266 0.029208867
1.4020928 -0.14365566 0.039984398
1.4016923 -0.14361465 0.052282345
1.4111226 -0.14458084 0.065034293
1.4105042 -0.14451754 0.077410497
1.4096811 -0.1444332 0.091314264
1.3990233 -0.14334124 0.10142494
1.4081295 -0.14427418 0.1129436
1.4072294 -0.14418204 0.12376105
1.3961993 -0.14305188 0.13514242
1.394973 -0.14292617 0.14738505
1.4035244 -0.14380242 0.16074847
1.4119492 -0.14466555 0.17427307
1.4103825 -0.14450504 0.18665236
1.3988574 -0.14332421 0.19762571
1.4069272 -0.14415099 0.21136737
1.4052825 -0.14398248 0.22214805
1.383674 -0.14176859 0.23118778
1.3916759 -0.14258845 0.24352884
1.399575 -0.14339776 0.25598174
1.3975875 -0.14319403 0.2667293
1.3955231 -0.14298256 0.27743676
1.4034328 -0.14379306 0.28861651
1.400874 -0.14353086 0.30091676
1.3982084 -0.14325769 0.31319407
1.4018556 -0.14363135 0.34157088
1.4185228 -0.14533909 0.35716832
1.4061342 -0.14406982 0.36555472
1.4129316 -0.14476624 0.37890241
1.4104344 -0.14451042 0.38819024
1.407441 -0.14420369 0.39901736
1.3948191 -0.14291051 0.4070088
1.4107473 -0.14454237 0.42343751
1.4074936 -0.14420912 0.43424132
1.4041502 -0.14386651 0.44504449
1.4012225 -0.14356658 0.45427313
1.4071791 -0.14417681 0.46814495
1.403578 -0.14380786 0.47894472
1.3999033 -0.1434314 0.48969194
1.3961384 -0.14304563 0.50043511
1.4021983 -0.14366654 0.51303011
1.4070091 -0.14415947 0.528813
1.4052849 -0.11059833 0.032284278
1.3850222 -0.1090036 0.043951839
1.4144702 -0.11132121 0.057284217
1.3940768 -0.10971624 0.067169294
1.4135175 -0.11124624 0.077410497
1.4029379 -0.11041362 0.087601215
1.3822341 -0.10878415 0.098461814
1.3912625 -0.10949475 0.11135285
1.4003046 -0.11020631 0.1228895
1.3880386 -0.10924096 0.14633976
1.4164279 -0.11147536 0.16188051
1.4248605 -0.11213893 0.17549177
1.4035118 -0.11045881 0.18534711
1.4018458 -0.11032762 0.19762571
1.4101636 -0.11098231 0.20981215
1.4085236 -0.11085327 0.22061931
1.4166429 -0.11149223 0.23300704
1.4148257 -0.11134918 0.2438632
1.4031184 -0.11042781 0.25291175
1.4210386 -0.11183818 0.26578405
1.4186723 -0.11165191 0.27821302
1.416198 -0.11145718 0.2906208
1.4139419 -0.11127963 0.30147186
1.4112653 -0.11106899 0.31383735
1.4088379 -0.11087801 0.32462525
1.4253528 -0.11217775 0.3415927
1.4227078 -0.11196949 0.35251248
1.4203773 -0.11178621 0.36184525
1.4272281 -0.11232533 0.37523684
1.4243268 -0.11209693 0.38617003
1.4213492 -0.11186268 0.39705575
1.4274209 -0.11234041 0.41224921
1.42378 -0.11205396 0.42472845
1.4105004 -0.11100879 0.43424132
1.4166577 -0.11149332 0.44805154
1.4127059 -0.11118242 0.46043524
1.4181004 -0.11160693 0.47595689
1.4144402 -0.11131892 0.48679236
1.4106891 -0.11102369 0.49762422
1.4074119 -0.11076573 0.50687498
1.4216547 -0.11188665 0.52609783
1.389634 -0.10936657 0.52636117
1.3974451 -0.076906085 0.035108764
1.3871068 -0.076337099 0.046982728
1.3967469 -0.07686764 0.056477398
1.42612 -0.078484125 0.07015422
1.3855816 -0.076253183 0.080304548
1.4047548 -0.077308305 0.093740769
1.3939278 -0.076712556 0.10526252
1.3831331 -0.076118477 0.11510332
1.3921603 -0.076615222 0.12656918
1.4097606 -0.077583797 0.15151095
1.418305 -0.078054078 0.16497985
1.4070983 -0.077437349 0.17457941
1.3857273 -0.076261178 0.18423846
1.413728 -0.077802137 0.20054968
1.4020529 -0.077159598 0.21140887
1.419878 -0.078140631 0.22680445
1.4085157 -0.077515259 0.23446704
1.396848 -0.076873258 0.24352884
1.3949527 -0.07676889 0.25419167
1.4322104 -0.078819349 0.27232501
1.3909141 -0.076546565 0.27549663
1.4184308 -0.078061 0.2906208
1.4064044 -0.07739915 0.29939276
1.4040835 -0.077271424 0.31012693
1.4016752 -0.077138864 0.3208676
1.4182541 -0.078051291 0.33773211
1.4152575 -0.077886365 0.35011443
1.4218252 -0.078247808 0.36495274
1.418591 -0.078069828 0.37736523
1.4156759 -0.077909432 0.38819024
1.4222815 -0.078272901 0.40173179
1.4287698 -0.078630053 0.41537201
1.4164541 -0.077952236 0.42187795
1.4227412 -0.078298241 0.43563375
1.4193822 -0.078113347 0.44648877
1.4154377 -0.077896267 0.45887679
1.4208579 -0.078194529 0.4743925
1.4166703 -0.077964038 0.48679236
1.3940744 -0.076720625 0.49098924
1.3985851 -0.076968819 0.50807005
1.394105 -0.076722294 0.52027398
1.3989762 -0.043964628 0.030540749
1.4086933 -0.044269983 0.041509535
1.4183803 -0.044574384 0.051092818
1.4078956 -0.044244889 0.063027523
1.3873305 -0.043598596 0.07424891
1.4065816 -0.044203583 0.087601222
1.3957942 -0.043864556 0.099170171
1.394876 -0.043835707 0.11135285
1.3939843 -0.043807812 0.12201795
1.3928671 -0.043772645 0.13418396
1.3918035 -0.043739147 0.14480872
1.4007609 -0.044020724 0.15501881
1.389431 -0.043664645 0.16605662
1.417671 -0.044552159 0.18199937
1.4160297 -0.044500601 0.1943699
1.3945003 -0.043823969 0.20383437
1.4030173 -0.044091657 0.21447179
1.3914691 -0.043728724 0.22361025
1.3993201 -0.043975428 0.23742242
1.3971959 -0.043908611 0.24963063
1.4050779 -0.044156387 0.26211807
1.4030342 -0.044092197 0.27285677
1.4009132 -0.044025499 0.28355509
1.3987058 -0.043956179 0.29426134
1.4055142 -0.04417016 0.31012693
1.4128473 -0.044400532 0.32309583
1.4200697 -0.04462751 0.33617011
1.3984177 -0.043947123 0.34072942
1.4151591 -0.044473194 0.35629565
1.4124019 -0.044386528 0.36708406
1.4095557 -0.044297062 0.37787572
1.4066342 -0.04420533 0.38862073
1.4136786 -0.044426586 0.4005481
1.4105768 -0.044329133 0.41134855
1.4074 -0.044229295 0.42210039
1.4136857 -0.044426825 0.43579677
1.4198517 -0.044620659 0.44958901
1.4063735 -0.044197053 0.45886794
1.4028265 -0.044085592 0.46961081
1.398677 -0.043955237 0.48184079
1.4038428 -0.0441176 0.49737212
1.399451 -0.043979555 0.50960994
1.404315 -0.044132385 0.52531093
1.4097142 -0.011072101 0.026133325
1.3894808 -0.010913195 0.036385871
1.3991039 -0.010988775 0.048859209
1.4086813 -0.011063937 0.059954308
1.4081817 -0.011060064 0.070721507
1.407511 -0.0110547 0.083007745
1.3868818 -0.010892814 0.092411108
1.3940839 -0.010949382 0.12810218
1.3929129 -0.010940143 0.1402632
1.421627 -0.011165628 0.15411642
1.4007196 -0.011001418 0.16113231
1.399447 -0.010991524 0.17183569
1.4179268 -0.011136603 0.18509334
1.4063537 -0.011045647 0.19607942
1.4245999 -0.011189057 0.20973787
1.4029555 -0.011019065 0.2190765
1.4108565 -0.011081113 0.23294044
1.4186215 -0.01114203 0.24695882
1.4065763 -0.011047498 0.25752857
1.4039826 -0.011027114 0.27131313
1.4119824 -0.011089939 0.2824581
1.4195721 -0.011149544 0.29528046
1.4172788 -0.011131484 0.3060993
1.4246554 -0.011189421 0.31911072
1.4221802 -0.011169991 0.32996765
1.4102643 -0.011076411 0.33694518
1.4270631 -0.011208436 0.35251248
1.4340224 -0.011262976 0.36585879
1.4307752 -0.011237585 0.37835932
1.4177744 -0.011135424 0.38819024
1.4243898 -0.0111874 0.40173179
1.4308877 -0.011238422 0.41537201
1.4276707 -0.01121309 0.42629859
1.4243779 -0.011187282 0.43717539
1.4209944 -0.011160759 0.44805154
1.4080222 -0.011058776 0.45579708
1.4039912 -0.011027186 0.46806726
1.4093117 -0.01106897 0.48354709
1.4050386 -0.011035413 0.49582747
1.4100587 -0.011074873 0.51147997
1.4154816 -0.011117431 0.52572614
1.3994942 0.021984993 0.030540753
1.3992206 0.021980761 0.041215144
1.4088566 0.022132095 0.052282356
1.398428 0.021968301 0.062580526
1.4078939 0.022116896 0.07379362
1.4073808 0.022108847 0.083007753
1.4067068 0.022098238 0.093740776
1.4059494 0.022086436 0.10449289
1.3951461 0.02191674 0.11439724
1.4041898 0.022058837 0.12595364
1.4033355 0.022045366 0.13514242
1.4022641 0.022028496 0.14584307
1.4209821 0.022322586 0.1587804
1.4197299 0.022302855 0.16961497
1.398361 0.021967221 0.17945392
1.4150269 0.022229003 0.20519435
1.4134209 0.02220373 0.21598215
1.4114826 0.02217333 0.22830972
1.4192929 0.022295997 0.24230255
1.4072835 0.022107288 0.25291175
1.4148484 0.022226198 0.26703879
1.4124646 0.022188706 0.27937686
1.4204019 0.022313457 0.2906208
1.4083588 0.022124272 0.29939276
1.4157987 0.022241037 0.3122806
1.4133704 0.022202889 0.32309583
1.420225 0.022310713 0.33773211
1.4176081 0.022269584 0.34855571
1.4342847 0.022531487 0.36430678
1.4117129 0.022176959 0.37171876
1.4180623 0.022276616 0.38665581
1.4150724 0.022229707 0.39746147
1.4220495 0.022339318 0.40948242
1.4184225 0.022282336 0.42187795
1.4151564 0.022230957 0.43271002
1.4213548 0.022328408 0.44648877
1.4083843 0.022124561 0.45427313
1.4048791 0.022069605 0.46500304
1.4107518 0.022161752 0.47894472
1.3970793 0.021946996 0.48794207
1.4027319 0.022035806 0.5019536
1.4170679 0.022261111 0.52107865
1.3986803 0.05495429 0.025947986
1.4084301 0.055337306 0.036909416
1.4180944 0.055717047 0.047996748
1.4276701 0.056093331 0.059258685
1.4171968 0.055681761 0.069663636
1.406647 0.055267271 0.07993675
1.4160663 0.055637356 0.089780815
1.4052632 0.055212967 0.10142495
1.4043252 0.055176131 0.11369364
1.4133713 0.055531554 0.12529173
1.4022796 0.055095725 0.13666108
1.4109709 0.055437259 0.14995842
1.4197123 0.055780698 0.16188051
1.4382756 0.05651002 0.17512788
1.4271885 0.05607437 0.18327209
1.4356478 0.056406725 0.19553375
1.4341159 0.056346525 0.20648623
1.4322608 0.056273684 0.21900289
1.4206802 0.055818662 0.22836791
1.4186348 0.055738315 0.24076641
1.4263179 0.056040213 0.25490451
1.424041 0.055950746 0.26735124
1.4213521 0.055845123 0.281317
1.4096924 0.055387001 0.28861651
1.4367683 0.056450766 0.30563009
1.4343973 0.056357604 0.31658792
1.4416783 0.056643706 0.32978058
1.4293993 0.056161202 0.33847263
1.4360967 0.056424357 0.35333043
1.4333558 0.056316711 0.36430678
1.4301245 0.056189694 0.37681079
1.4364247 0.056437287 0.39191642
1.4329526 0.056300793 0.40444618
1.4101852 0.055406306 0.41134855
1.4170394 0.05567554 0.42343751
1.4228425 0.055903587 0.43874136
1.4189625 0.055751119 0.45115072
1.4244711 0.055967599 0.46663663
1.4203478 0.055805534 0.47905913
1.4161165 0.055639297 0.49144518
1.4206399 0.055817097 0.50869119
1.4167128 0.055662777 0.51954478
1.3940005 0.054770377 0.52331889
1.406976 0.088519454 0.026133331
1.4167123 0.089132071 0.037171185
1.4163882 0.089111567 0.047996752
1.4159806 0.089085937 0.058844291
1.4154141 0.089050286 0.071223088
1.4147398 0.089007907 0.083596461
1.4040005 0.088332169 0.095287666
1.4032345 0.088284068 0.1060144
1.4015918 0.088180713 0.12595366
1.4092731 0.088663988 0.14995843
1.4279203 0.089837126 0.16301253
1.4264462 0.089744382 0.17549177
1.4149685 0.089022204 0.18665236
1.413289 0.088916525 0.19901747
1.4117329 0.088818714 0.20981216
1.419711 0.089320645 0.22370154
1.4278097 0.089830145 0.23619835
1.4262364 0.089731142 0.2455567
1.4243257 0.089610919 0.25644898
1.4318452 0.090084061 0.27074766
1.4294326 0.089932248 0.2832571
1.4073644 0.088543817 0.29169366
1.4340365 0.090221919 0.31032136
1.431627 0.090070285 0.32129639
1.4194176 0.08930216 0.32996765
1.4265633 0.089751758 0.34316459
1.4235201 0.089560308 0.35562509
1.4207718 0.089387335 0.36649343
1.4179341 0.089208819 0.37736523
1.4246464 0.089631177 0.39083099
1.4207449 0.089385666 0.40483844
1.4171649 0.08916042 0.41724572
1.4139476 0.088958055 0.42806369
1.4101657 0.088720053 0.44041067
1.4252799 0.089670926 0.45884198
1.4307044 0.090012223 0.47442877
1.4175923 0.089187294 0.48215911
1.4044551 0.088360757 0.48969194
1.4100785 0.088714629 0.50379384
1.4155774 0.089060575 0.51798546
1.4022359 0.088221163 0.52531099
1.4343528 0.12422836 0.028272437
1.4340963 0.12420624 0.039252397
1.4237441 0.12330961 0.051452637
1.4132898 0.12240415 0.063474536
1.4325811 0.12407493 0.076919742
1.4219143 0.12315118 0.0888438
1.4012125 0.12135809 0.099878535
1.4002907 0.12127834 0.11214824
1.4093206 0.12206035 0.12376107
1.4081908 0.12196254 0.13610089
1.3972065 0.12101119 0.14584309
1.4259324 0.12349909 0.1583171
1.4246852 0.12339108 0.16925378
1.4231594 0.12325899 0.18172644
1.4215252 0.12311743 0.19418527
1.4200084 0.122986 0.2050622
1.4184052 0.12284718 0.21595205
1.4068847 0.1218494 0.22522944
1.4149542 0.12254827 0.23766848
1.4327337 0.12408815 0.25194514
1.430773 0.12391834 0.26293126
1.4287333 0.12374167 0.27387699
1.4262979 0.12353079 0.28638113
1.4237539 0.12331043 0.29886347
1.4280553 0.12368289 0.32597643
1.425899 0.12349621 0.33535096
1.4329858 0.12410996 0.34863788
1.430295 0.12387697 0.35959804
1.4371598 0.12447158 0.37306613
1.4246572 0.12338874 0.38147998
1.4212863 0.12309668 0.39394432
1.4273871 0.12362514 0.40912443
1.4242296 0.12335161 0.42006496
1.430057 0.12385634 0.43542692
1.4171953 0.12274238 0.44338641
1.4237657 0.12331143 0.45572525
1.4202533 0.12300721 0.46663663
1.4261106 0.1235145 0.48067921
1.4129882 0.12237796 0.48835215
1.4186313 0.12286678 0.50248289
1.4153244 0.12258032 0.51179177
1.4201641 0.12299946 0.5276407
1.4110181 0.15577781 0.034074206
1.4206533 0.15684158 0.045216657
1.4090672 0.15556246 0.082037754
1.4222804 0.15702115 0.16143927
1.4310691 0.15799157 0.17198722
1.4196641 0.15673237 0.18327211
1.426555 0.1574931 0.20648624
1.40529 0.15514539 0.21445239
1.4232545 0.15712874 0.2283795
1.401871 0.15476803 0.236018
1.439203 0.15888946 0.25367078
1.4372334 0.15867208 0.26473215
1.4354806 0.15847854 0.27419025
1.4236093 0.1571679 0.2832571
1.4214154 0.15692566 0.29419768
1.4191437 0.15667491 0.30509615
1.416784 0.15641443 0.31600174
1.40466 0.15507595 0.32462525
1.4211259 0.15689372 0.3415927
1.4184887 0.15660267 0.35251248
1.4250057 0.15732208 0.36743543
1.4221786 0.15700993 0.37835932
1.4192622 0.156688 0.3892861
1.4067004 0.15530112 0.39746147
1.4127448 0.15596846 0.41258428
1.4095685 0.1556178 0.42343751
1.415341 0.1562551 0.43874136
1.4209546 0.15687487 0.45417857
1.4264073 0.15747681 0.46974754
1.4133823 0.15603885 0.47749588
1.4191109 0.15667126 0.49160782
1.4153427 0.15625522 0.50248289
1.4026923 0.15485862 0.50840241
1.4064107 0.15526918 0.52725756
1.4169011 0.19031358 0.032742232
1.4066579 0.18893778 0.044900458
1.404592 0.18866017 0.42653039
1.4317727 0.22677052 0.033200167
1.4512246 0.22985142 0.04489154
1.4211748 0.22509199 0.056534059
1.4370723 0.2276098 0.12089991
1.4261401 0.2258784 0.13267727
1.4250991 0.22571348 0.14368619
1.4434452 0.22861926 0.15842739
1.4420247 0.22839426 0.17117465
1.4504907 0.22973512 0.18357091
1.4488533 0.22947578 0.19637947
1.4373279 0.22765033 0.20775972
1.4552544 0.2304896 0.22183044
1.4440324 0.22871225 0.22991548
1.4419957 0.22838973 0.2426652
1.4398493 0.22804974 0.25539643
1.4475943 0.2292764 0.26833397
1.4455307 0.22894959 0.2795046
1.4433782 0.22860865 0.29068449
1.4408178 0.2282031 0.30342612
1.4384902 0.22783439 0.31454343
1.4453599 0.22892253 0.3294372
1.4332116 0.22699837 0.33834353
1.430621 0.22658812 0.34940112
1.4379178 0.22774373 0.3612822
1.4255804 0.22578976 0.36991814
1.4318836 0.22678801 0.3850666
1.419415 0.22481319 0.39347178
1.4254727 0.22577265 0.40872258
1.431375 0.22670749 0.4241102
1.427665 0.22611991 0.4367407
1.4332757 0.22700861 0.45231366
1.4303211 0.22654054 0.46180162
1.4267926 0.22598174 0.47285849
1.4325521 0.22689393 0.48704582
1.4189644 0.22474185 0.49641845
1.442552 0.22847781 0.51898134
1.4287462 0.22629109 0.52827662
1.4241387 0.22556147 0.54087991
1.4194225 0.22481439 0.553442
1.4152024 0.22414598 0.56441182
1.4285991 0.22626784 0.58438623
1.4143828 0.22401616 0.59315926
1.4092164 0.22319789 0.6056332
1.4046133 0.22246887 0.61649764
1.4353557 0.22733797 0.64511365
1.4207486 0.22502442 0.65363401
1.4150608 0.22412355 0.66616184
1.4358673 0.26223594 0.033429138
1.4454067 0.26397818 0.04489154
1.4253068 0.26030719 0.05692666
1.4221315 0.25972724 0.11217611
1.4310482 0.26135582 0.12407391
1.4300755 0.26117814 0.13516545
1.4290173 0.26098496 0.14627449
1.4278783 0.26077688 0.15734966
1.4463804 0.26415592 0.1691318
1.4450661 0.2639159 0.18036656
1.4241618 0.2600981 0.18897644
1.4519325 0.26516998 0.20414831
1.4406247 0.2631048 0.21395382
1.429492 0.26107162 0.22202364
1.4374933 0.26253289 0.23471148
1.4354236 0.26215485 0.24745438
1.4332447 0.26175699 0.26017845
1.4409215 0.26315895 0.27311605
1.4288676 0.26095745 0.28396916
1.4456508 0.26402268 0.30064225
1.4333947 0.26178434 0.31136528
1.4402691 0.2630398 0.32624385
1.4377735 0.262584 0.33742651
1.4352 0.26211396 0.348564
1.4325368 0.26162758 0.35970664
1.4397249 0.26294044 0.37169141
1.4464101 0.26416132 0.38537842
1.433553 0.26181325 0.39557496
1.4301026 0.26118311 0.40827677
1.4368966 0.26242384 0.42054957
1.433692 0.26183864 0.43170327
1.4487463 0.26458809 0.45025235
1.4260619 0.26044515 0.45707276
1.4314398 0.26142725 0.47279593
1.4366553 0.2623798 0.4886491
1.4329473 0.26170263 0.49977353
1.4471557 0.26429757 0.51912141
1.4328239 0.2616801 0.53013116
1.4190041 0.25915608 0.53931934
1.432688 0.26165536 0.55905396
1.4186815 0.25909719 0.56807685
1.4137509 0.25819674 0.58064014
1.4184458 0.25905415 0.59540099
1.4216774 0.25964436 0.61344779
1.4170334 0.25879624 0.62445247
1.4296012 0.2610915 0.64511365
1.4240086 0.26007012 0.65777093
1.4183078 0.259029 0.67037809
1.4213825 0.25959048 0.68722939
1.4235127 0.25997952 0.70577747
1.4173996 0.25886312 0.71837842
1.4119686 0.25787121 0.72934687
1.43918 0.29803991 0.028861457
1.4487112 0.3000136 0.040342756
1.4580972 0.30195737 0.053611502
1.4184538 0.29374766 0.064815566
1.4276242 0.29564679 0.077988088
1.4171301 0.2934736 0.090086386
1.4165223 0.29334766 0.099556282
1.4253805 0.29518211 0.11294974
1.4341171 0.29699141 0.12650859
1.4329813 0.29675621 0.13928419
1.4317366 0.29649842 0.15204918
1.4498439 0.30024821 0.1670448
1.4487422 0.3000201 0.17673171
1.4473768 0.29973733 0.18803638
1.4556346 0.30144739 0.20064193
1.4540901 0.30112761 0.21199973
1.4522232 0.30074096 0.22495006
1.4601709 0.30238688 0.23782969
1.4484268 0.29995474 0.24917209
1.4366008 0.29750571 0.26032341
1.4343216 0.29703376 0.27311605
1.4511538 0.30051944 0.2897253
1.4489425 0.30006155 0.30104551
1.4463148 0.29951742 0.3139466
1.4531372 0.30093017 0.32898816
1.4407294 0.29836068 0.33967602
1.4381506 0.29782668 0.35088778
1.4354819 0.29727396 0.36210468
1.442224 0.2986702 0.37574691
1.4389583 0.29799387 0.38858527
1.435583 0.29729494 0.40139404
1.44152 0.29852435 0.41689706
1.4285045 0.29582909 0.42691889
1.4346439 0.29710051 0.44094023
1.4308212 0.29630879 0.45370856
1.4362158 0.29742596 0.46949098
1.4321492 0.2965838 0.48227221
1.4372461 0.29763934 0.49823111
1.4329339 0.29674634 0.51102042
1.4382956 0.29785672 0.52553529
1.4331694 0.29679516 0.53994256
1.4376581 0.29772463 0.55623686
1.43285 0.29672894 0.56902766
1.4273157 0.2955828 0.58335274
1.4222765 0.29453924 0.59605032
1.4254949 0.2952058 0.61418062
1.4201922 0.29410765 0.62686086
1.4237359 0.2948415 0.64354074
1.4264014 0.2953935 0.66190785
1.4384494 0.29788855 0.68302673
1.4148722 0.29300591 0.68722939
1.418497 0.29375657 0.70261884
1.4299848 0.2961356 0.72411817
1.4237425 0.29484278 0.73683417
1.417392 0.29352772 0.74949408
1.4195894 0.2939828 0.76677233
1.4043673 0.29083043 0.77464169
1.4234188 0.29477578 0.80161452
1.4156511 0.29316723 0.81583393
1.4317888 0.33187079 0.027245404
1.4412409 0.33406174 0.040342759
1.4311626 0.33172566 0.051302195
1.4277431 0.33093309 0.11372336
1.4268544 0.33072716 0.12492374
1.4258847 0.33050233 0.13609125
1.4345223 0.33250439 0.14827825
1.443064 0.33448428 0.16058287
1.4420092 0.33423978 0.17027459
1.4503682 0.33617729 0.18280394
1.4487587 0.33580422 0.19578922
1.4373922 0.33316964 0.20736785
1.4264014 0.33062214 0.21556394
1.4341397 0.3324157 0.22987607
1.4321308 0.33195004 0.24271418
1.4300129 0.33145919 0.25553381
1.4379394 0.33329645 0.26691526
1.4359143 0.332827 0.27816543
1.4338009 0.33233717 0.2894251
1.4312859 0.33175418 0.30225793
1.4381862 0.33335367 0.31716818
1.4259291 0.33051255 0.3278535
1.4325747 0.33205298 0.34288511
1.4296052 0.33136466 0.35570487
1.4269209 0.33074251 0.36688724
1.4335783 0.33228555 0.38057753
1.4401215 0.33380219 0.39436784
1.4281802 0.33103439 0.40139404
1.4345253 0.33250514 0.41530383
1.4313979 0.33178017 0.42652297
1.4370489 0.33309004 0.44220045
1.4150943 0.32800123 0.44757509
1.4385931 0.33344796 0.47091612
1.4437902 0.33465257 0.48690614
1.4303677 0.33154139 0.49661693
1.4168909 0.32841763 0.50612456
1.4308789 0.33165982 0.52553529
1.4355 0.33273098 0.54178381
1.4308395 0.3316507 0.55462223
1.4266675 0.3306838 0.56583399
1.4211922 0.32941458 0.58017135
1.4078057 0.32631174 0.58754039
1.4117494 0.32722595 0.60397595
1.4065611 0.32602337 0.61659926
1.4191163 0.32893339 0.63719058
1.4307325 0.33162591 0.65964282
1.4339216 0.33236519 0.67661065
1.4185648 0.3288056 0.68677562
1.4221997 0.32964817 0.70219642
1.4249179 0.33027825 0.71932262
1.4100447 0.3268308 0.72756833
1.4076926 0.32628554 0.75421429
1.427839 0.33095521 0.77932274
1.4134408 0.32761794 0.78571701
1.4160788 0.32822943 0.80161452
1.4194372 0.32900774 0.81599742
1.4138589 0.36301726 0.028665125
1.4329704 0.36792433 0.040342759
1.4325747 0.36782271 0.053251695
1.4121125 0.36256886 0.077988088
1.4105791 0.36217511 0.10342034
1.4289615 0.36689496 0.1177159
1.4280481 0.36666042 0.12899044
1.4366961 0.36888081 0.14117923
1.4357703 0.36864311 0.15088429
1.4442394 0.37081766 0.16330025
1.4429909 0.37049711 0.17466803
1.4416554 0.3701542 0.18605162
1.4496282 0.37220132 0.20036015
1.4385159 0.36934811 0.21036683
1.4366829 0.36887741 0.22331925
1.4448047 0.37096274 0.23457596
1.4334692 0.36805233 0.24434315
1.4316224 0.36757812 0.25562376
1.4487504 0.37197587 0.27047414
1.4467101 0.371452 0.2818743
1.4448923 0.37098524 0.29164404
1.4521821 0.37285689 0.30503288
1.4404099 0.36983433 0.31439072
1.43804 0.36922583 0.32574984
1.4544811 0.37344721 0.34149915
1.4239938 0.36561945 0.34447619
1.4308149 0.36737081 0.35806054
1.4465199 0.37140319 0.37581873
1.4339163 0.36816707 0.38631207
1.4212461 0.36491397 0.39660707
1.4271675 0.36643431 0.41209021
1.4417876 0.37018809 0.43209842
1.4385462 0.36935583 0.44346499
1.4435172 0.3706322 0.46096635
1.4395659 0.36961767 0.47395432
1.4349856 0.36844161 0.48853546
1.4491453 0.37207732 0.50787431
1.4173646 0.36391738 0.51102042
1.4312234 0.36747566 0.5305292
1.444859 0.37097672 0.55032605
1.4395611 0.36961642 0.56493133
1.4353361 0.36853161 0.57627642
1.4394069 0.36957684 0.59289181
1.4337049 0.36811277 0.60743982
1.4195877 0.3644881 0.61645669
1.422543 0.36524698 0.63479578
1.4259803 0.36612955 0.65163559
1.4292407 0.36696658 0.6685853
1.4418435 0.37020245 0.68821317
1.4184597 0.36419848 0.69262642
1.4220139 0.36511108 0.70814574
1.4420352 0.37025166 0.73419917
1.4357744 0.36864418 0.74716336
1.430213 0.36721623 0.75844747
1.4417188 0.37017041 0.77898681
1.4350796 0.36846572 0.79194647
1.4291875 0.36695296 0.80322385
1.433717 0.40435004 0.032504115
1.4430571 0.40698421 0.044159111
1.4137787 0.39872682 0.056096729
1.4207437 0.40069115 0.10646027
1.4199209 0.40045911 0.11771591
1.4286013 0.40290725 0.129862
1.4371877 0.40532887 0.14212674
1.4266865 0.40236717 0.15088429
1.4351021 0.40474069 0.16330025
1.4529798 0.40978259 0.17699693
1.451438 0.40934783 0.1901643
1.4499964 0.40894127 0.20168704
1.4484737 0.40851182 0.21317172
1.4468629 0.40805751 0.22467025
1.4261562 0.40221763 0.23302247
1.443392 0.40707865 0.24760106
1.4512869 0.40930519 0.25910467
1.4493427 0.40875688 0.27059793
1.46593 0.41343501 0.28743762
1.4445767 0.40741274 0.29683796
1.4514537 0.40935221 0.31195021
1.4585259 0.41134676 0.32556996
1.4463441 0.40791115 0.33659628
1.4532067 0.40984663 0.35030815
1.4502091 0.4090012 0.36347097
1.4471012 0.40812477 0.37660611
1.4438831 0.40721712 0.38971254
1.4409735 0.40639654 0.40116945
1.4468238 0.40804651 0.41689181
1.4432673 0.40704337 0.42999423
1.4303727 0.40340677 0.44022372
1.4266207 0.40234861 0.45317608
1.4319394 0.40384862 0.46910098
1.4274421 0.40258029 0.48367164
1.4415731 0.40656564 0.50296235
1.436747 0.4052045 0.51765561
1.4323446 0.40396294 0.53066283
1.4357178 0.40491429 0.55032605
1.431041 0.40359524 0.56332266
1.417285 0.39971563 0.57265204
1.4213607 0.40086523 0.58918625
1.4163581 0.39945433 0.60205126
1.42835 0.40283635 0.62421089
1.4230529 0.40134236 0.63713789
1.4257597 0.40210578 0.65568298
1.4121339 0.39826295 0.66284537
1.4239852 0.4016054 0.6840167
1.427616 0.40262935 0.69957268
1.4137657 0.39872316 0.70653099
1.4171674 0.39968249 0.7221427
1.4454641 0.40766299 0.75289059
1.4133877 0.39861649 0.75228989
1.4155428 0.39922428 0.76971316
1.4175122 0.39977974 0.78723252
1.4285988 0.40290648 0.80800492
1.4310299 0.40359217 0.82417631
1.4427935 0.44386122 0.037867341
1.4328704 0.44080848 0.050700821
1.4391621 0.44274411 0.11353318
1.4384211 0.44251612 0.12338563
1.446856 0.44511104 0.137418
1.426633 0.43888959 0.1486409
1.4443434 0.44433808 0.16381609
1.452415 0.44682115 0.17816138
1.4415867 0.44348997 0.18853231
1.4401704 0.44305432 0.20003036
1.4481317 0.44550347 0.21293479
1.4467688 0.44508415 0.22284652
1.445102 0.44457144 0.23438494
1.452781 0.44693372 0.2475435
1.4415123 0.44346708 0.2574465
1.4395893 0.44287542 0.26896825
1.4566717 0.44813064 0.28246501
1.4445732 0.44440868 0.29548144
1.4420536 0.44363362 0.30865937
1.4210581 0.43717453 0.3160257
1.4370308 0.4420884 0.33331695
1.452822 0.44694641 0.3509236
1.4494622 0.44591275 0.36581594
1.4374729 0.44222438 0.37497887
1.4431392 0.44396755 0.39222685
1.4402312 0.44307297 0.40375766
1.4460191 0.44485351 0.41956419
1.4424645 0.44376001 0.43275058
1.4388001 0.44263268 0.44590405
1.4436879 0.44413641 0.46358198
1.4306538 0.44012654 0.47372803
1.435735 0.44168973 0.48987255
1.431065 0.44025302 0.50460899
1.435832 0.44171956 0.5209319
1.4404351 0.44313568 0.5373801
1.4353278 0.44156447 0.55213636
1.4217263 0.43738008 0.56168747
1.4264964 0.43884751 0.57664609
1.4216324 0.43735123 0.58964825
1.4248862 0.43835217 0.60798538
1.4285793 0.43948844 0.62482864
1.4145274 0.43516544 0.63391066
1.4186113 0.43642178 0.64921308
1.4218655 0.43742293 0.66622776
1.4169675 0.43591616 0.67755455
1.4206378 0.43704525 0.6930939
1.4485614 0.44563556 0.72489899
1.4346318 0.44135034 0.73207974
1.4284712 0.43945509 0.74515027
1.4136856 0.43490633 0.75362414
1.4327799 0.44078061 0.7803551
1.4270496 0.43901774 0.79176569
1.4296324 0.43981227 0.80790854
1.4222835 0.47450969 0.044159114
1.431343 0.47753215 0.057623174
1.4213359 0.47419351 0.070319653
1.4206996 0.47398126 0.083392389
1.4295204 0.47692412 0.095471181
1.4571747 0.48615029 0.10908723
1.456341 0.48587209 0.12082694
1.4552853 0.48551989 0.13421978
1.4542719 0.4851819 0.14591679
1.4624438 0.48790818 0.16032398
1.4704871 0.49059159 0.17489256
1.4691759 0.49015418 0.18673764
1.4677821 0.48968914 0.1985448
1.4662995 0.48919454 0.2103674
1.4647348 0.48867249 0.22215074
1.4628401 0.48804042 0.23561694
1.4608339 0.48737103 0.24906519
1.4587165 0.48666462 0.26249447
1.4655341 0.48893917 0.27937132
1.4541488 0.48514068 0.28929207
1.4613161 0.48753193 0.30293164
1.4680443 0.48977661 0.31837836
1.4653528 0.48887864 0.33187133
1.4714489 0.49091244 0.34920347
1.4685022 0.48992932 0.3627266
1.4650503 0.48877773 0.37792051
1.4618661 0.48771539 0.39138368
1.4581541 0.48647696 0.40648064
1.4460119 0.48242602 0.41558927
1.4603297 0.48720285 0.43597078
1.4657693 0.48901752 0.45219699
1.4619701 0.48775011 0.46566394
1.4580598 0.48644552 0.47909543
1.4630694 0.48811689 0.49554938
1.4589117 0.48672968 0.50898981
1.463622 0.48830113 0.52561617
1.4407544 0.48067203 0.53411669
1.4535506 0.48494112 0.55580825
1.4577831 0.48635316 0.57265061
1.4441276 0.48179743 0.58246613
1.4304211 0.47722453 0.59207422
1.4342647 0.47850683 0.60894656
1.4473506 0.48287266 0.6281004
1.43402 0.47842529 0.63584214
1.4461253 0.4824639 0.65692478
1.4406321 0.48063117 0.67020321
1.4350294 0.478762 0.68343061
1.4386462 0.47996864 0.69916171
1.4507141 0.48399481 0.71921998
1.4369034 0.47938713 0.726565
1.4571692 0.48614842 0.75127727
1.4347 0.47865206 0.75407422
1.4545729 0.48528218 0.77917802
1.457304 0.48619336 0.7954753
1.4431162 0.48145998 0.80250359
1.4456106 0.48229212 0.81884295
