# .PCD v0.7 - Point Cloud Data file format
VERSION 0.7
FIELDS x y z
SIZE 4 4 4
TYPE F F F
COUNT 1 1 1
WIDTH 1486
HEIGHT 1
VIEWPOINT 0 0 0 1 0 0 0
POINTS 1486
DATA ascii
0.095896415 1.3543965 1.7815763
0.097287886 1.3740491 1.7790515
0.098817915 1.3956584 1.7748163
0.10137066 1.4317123 1.7843834
0.10246657 1.4471903 1.7717903
0.10445908 1.4753317 1.7744253
0.10751551 1.5184993 1.7902794
0.11013886 1.5555502 1.7979246
0.11184927 1.5797071 1.7900041
0.11342083 1.6019032 1.7835476
0.11512864 1.6260235 1.7750754
0.11828616 1.6706188 1.788167
0.11903138 1.6811441 1.7644223
0.11926447 1.684436 1.7334507
0.12358274 1.7454252 1.7574464
0.12076864 1.7056803 1.6840634
0.12040738 1.700578 1.6463404
0.12115519 1.7111398 1.6207782
0.13765067 1.9441142 1.6905243
0.15558702 2.1974387 1.7444642
0.17138399 2.420548 1.6061367
0.20886004 2.9498425 1.7768813
0.12593779 1.7786869 0.78924811
0.12382621 1.7488639 0.75778753
0.12304316 1.7378047 0.73279977
0.12414351 1.7533454 0.72136551
0.13422121 1.8956782 0.68468183
0.14414594 2.0358503 0.45015055
0.12797937 1.8075212 0.31951264
0.13232379 1.8688798 0.24875474
0.12663256 1.7884995 0.15885191
0.12694696 1.7929399 0.096181154
0.12489661 1.7639818 0.075292766
0.1277664 1.8045133 0.05922154
0.12638912 1.7850612 0.041016359
0.12570527 1.7754029 0.02329948
0.12854081 1.8154508 0.0039706207
0.12853622 1.8153859 -0.015882295
0.12357599 1.7453301 -0.032435086
0.12989305 1.8345491 -0.056190863
0.12751372 1.8009447 -0.12821297
0.12559408 1.7738326 -0.20455815
0.12065963 1.7041408 -0.27248046
0.15018381 2.1211264 -0.43262842
0.14737779 2.0814955 -0.51783794
0.14650658 2.069191 -0.60215014
0.13496466 1.9061784 -0.62319237
0.12654108 1.7872075 -0.60164493
0.11681986 1.6499095 -0.57153445
0.10718724 1.513863 -0.53742903
0.10552458 1.4903802 -0.54381204
0.10125768 1.4301165 -0.5342412
0.099688187 1.4079497 -0.53650713
0.096104361 1.3573334 -0.52915955
0.093847692 1.3254613 -0.52843636
0.09290538 1.3121525 -0.53481245
0.090657942 1.2804108 -0.53331929
0.089717224 1.2671245 -0.53920895
0.086872838 1.2269517 -0.53164154
0.08589603 1.2131556 -0.53830773
0.084917665 1.1993377 -0.54477328
0.082015686 1.1583515 -0.53841919
0.079766326 1.1265826 -0.53567618
0.080068603 1.1308517 -0.54987562
0.079770073 1.1266354 -0.55850625
0.080053151 1.1306336 -0.5728519
0.080324568 1.134467 -0.58730966
0.086831056 1.2263616 -0.64853495
0.091402315 1.290924 -0.69718075
0.090969145 1.284806 -0.70844769
0.09114489 1.2872882 -0.72455633
0.091307655 1.289587 -0.740762
0.091515146 1.2925175 -0.75566095
0.091105431 1.2867309 -0.76552171
0.090084866 1.2723168 -0.77019125
0.090329111 1.2757664 -0.78374785
0.090503655 1.2782317 -0.79876959
0.090603985 1.2796487 -0.81528533
0.0895053 1.2641314 -0.82101196
0.088995881 1.2569366 -0.83203983
0.086848915 1.2266138 -0.82357508
0.085817926 1.2120526 -0.82732326
0.08420828 1.1893187 -0.82518482
0.083760299 1.1829916 -0.83427519
0.082159378 1.160381 -0.8316645
0.081201345 1.1468501 -0.83339137
0.08068461 1.139552 -0.84339273
0.080726244 1.1401401 -0.85933924
0.080259927 1.133554 -0.86805171
0.08041539 1.1357497 -0.88159287
0.081603542 1.1525306 -0.90879822
0.084421121 1.1923248 -0.95505744
0.085549384 1.2082598 -0.98305112
0.085016131 1.2007284 -0.99228203
0.085483387 1.2073277 -1.0156044
0.085471377 1.2071581 -1.0312923
0.085980155 1.2143439 -1.0536016
0.085940607 1.2137853 -1.0694575
0.085887611 1.2130368 -1.0853871
0.084169798 1.1887752 -1.0825106
0.066971213 0.94587034 -0.87461084
0.065466084 0.92461264 -0.86816221
0.067043662 0.94689357 -0.90277225
0.067570388 0.95433283 -0.92389566
0.066494644 0.93913949 -0.92520022
0.06492307 0.91694331 -0.91923881
0.063363977 0.89492345 -0.91296059
0.063780114 0.90080076 -0.93514174
0.063201331 0.89262629 -0.94298667
0.061654385 0.87077796 -0.93613273
0.060120773 0.84911793 -0.92896944
0.056642227 0.79998851 -0.89264214
0.056557324 0.79878944 -0.90710348
0.053614125 0.75722104 -0.87712133
0.049284492 0.69607133 -0.82429105
0.031564515 0.44580257 -0.57720339
0.0097828861 0.13816895 -0.19599397
0.030167373 0.31913748 1.7508973
0.03160413 0.33433679 1.7480332
0.0334097 0.35343772 1.7646432
0.03467533 0.36682665 1.7618842
0.035742152 0.37811247 1.7492437
0.036407422 0.38515028 1.7272041
0.038465574 0.40692329 1.7529786
0.039722685 0.4202221 1.7498101
0.041158184 0.43540812 1.74606
0.042590551 0.45056096 1.742177
0.044086214 0.46638343 1.7483257
0.045162119 0.47776532 1.7452222
0.046926323 0.49642864 1.7607546
0.048454996 0.5126003 1.7664918
0.049903862 0.52792776 1.7619313
0.051167063 0.541291 1.7578356
0.052430172 0.55465329 1.7536279
0.053979117 0.57103944 1.758835
0.054645643 0.57809049 1.7354323
0.05668154 0.59962803 1.7492094
0.058744181 0.62144852 1.7627395
0.060189575 0.63673919 1.7572252
0.061449099 0.65006357 1.752296
0.062037248 0.65628552 1.7285661
0.064123854 0.67835951 1.7521747
0.065379642 0.69164431 1.7469269
0.067343362 0.71241832 1.7600924
0.069148287 0.73151243 1.7630111
0.070223905 0.74289131 1.7473354
0.071656212 0.75804359 1.7407571
0.073467709 0.7772072 1.7431728
0.075288601 0.79647022 1.7453845
0.07671912 0.81160349 1.7383366
0.078957781 0.83528608 1.7491891
0.080210999 0.8485437 1.7427392
0.081882298 0.86622429 1.745122
0.083558828 0.88396007 1.7473501
0.086111613 0.91096568 1.7671521
0.086060256 0.91042244 1.7335873
0.088641196 0.9377259 1.7529726
0.09007743 0.95291972 1.7446862
0.092426471 0.97776997 1.7537169
0.093216464 0.98612714 1.7374878
0.095408335 1.0093148 1.7471637
0.097138129 1.0276141 1.7479913
0.099541083 1.0530347 1.7560494
0.10048684 1.0630398 1.7382315
0.10340921 1.0939552 1.7542715
0.10585895 1.1198708 1.761472
0.1074827 1.1370481 1.7503339
0.10943718 1.1577244 1.7486274
0.11263239 1.1915263 1.7619532
0.11407509 1.2067884 1.7514418
0.11749761 1.2429949 1.7748402
0.11931543 1.2622254 1.7734009
0.12169405 1.2873886 1.7798374
0.12296802 1.3008658 1.769923
0.12536715 1.326246 1.7758814
0.12871662 1.3616796 1.78655
0.12960032 1.3710282 1.7666594
0.13338634 1.4110802 1.7859062
0.13603081 1.4390556 1.7890261
0.13809265 1.4608676 1.7840674
0.13955253 1.4763116 1.7711942
0.14362839 1.5194296 1.786954
0.14588913 1.5433458 1.7794381
0.1485936 1.5719562 1.780807
0.15086439 1.5959786 1.7726229
0.1561382 1.6517695 1.8027141
0.15908283 1.6829206 1.8009361
0.15795569 1.6709967 1.7571911
0.16088632 1.7019994 1.7549398
0.15768366 1.6681188 1.6902412
0.1587396 1.6792895 1.6648389
0.16229744 1.7169275 1.6690774
0.16383302 1.7331723 1.652051
0.16965716 1.7947853 1.6737869
0.16771446 1.7742337 1.6223645
0.16936991 1.7917465 1.6028283
0.16304603 1.7248468 1.5127192
0.16530481 1.7487422 1.5002249
0.16755724 1.7725705 1.4873865
0.16965026 1.7947123 1.4761865
0.16821724 1.7795526 1.4314313
0.16953279 1.7934695 1.4137983
0.1627613 1.7218347 1.3270999
0.16787802 1.7759639 1.3381588
0.16758852 1.7729013 1.3087533
0.1727438 1.8274386 1.3184187
0.16330279 1.727563 1.2178909
0.16442111 1.7393936 1.2007812
0.1717677 1.8171124 1.22825
0.16606012 1.7567326 1.1568987
0.17223322 1.8220371 1.1659402
0.17101313 1.80913 1.0918807
0.16811766 1.778499 1.0055733
0.16171426 1.7107582 0.942738
0.16535449 1.7492678 0.93424839
0.17466067 1.8477168 0.96100783
0.17055289 1.8042612 0.8692832
0.16560248 1.7518911 0.79268736
0.16280161 1.7222612 0.76119125
0.16774383 1.7745444 0.7658031
0.16663061 1.7627678 0.74248505
0.16636302 1.7599369 0.72321886
0.1740943 1.8417253 0.73337513
0.17005917 1.7990382 0.64880008
0.17154516 1.8147582 0.57037258
0.16826595 1.7800679 0.47491553
0.16633821 1.7596743 0.38984329
0.17330897 1.8334174 0.32472208
0.17538452 1.8553745 0.24743858
0.16963825 1.7945851 0.16366744
0.17566583 1.8583503 0.11214094
0.17106155 1.8096422 0.091286033
0.17020473 1.8005779 0.07106027
0.17120281 1.8111365 0.05361155
0.16653591 1.761766 0.036697455
0.16938046 1.791858 0.023561273
0.16468866 1.7422241 0.0057421229
0.16562581 1.7521381 -0.013423546
0.17407386 1.8415091 -0.032286953
0.17402492 1.8409914 -0.054462984
0.17364937 1.8370185 -0.1330754
0.15519637 1.6418061 -0.18970197
0.17471536 1.8482953 -0.29610592
0.18074936 1.9121284 -0.39076114
0.18815602 1.9904828 -0.49616098
0.19876708 2.102736 -0.61562383
0.18156049 1.9207094 -0.63151503
0.16224791 1.7164036 -0.58312446
0.14665313 1.5514281 -0.54227638
0.14083025 1.4898285 -0.53728759
0.13596907 1.4384025 -0.53302026
0.1364062 1.4430268 -0.54915112
0.12981033 1.3732499 -0.53640831
0.12685263 1.3419607 -0.53436881
0.12297669 1.3009574 -0.52960968
0.12172264 1.287691 -0.53575683
0.11873453 1.2560802 -0.53391469
0.11661927 1.2337029 -0.53560901
0.11537046 1.2204919 -0.54100746
0.1141763 1.207859 -0.54492235
0.11206994 1.1855762 -0.54584748
0.1073572 1.1357205 -0.53498906
0.10776228 1.1400058 -0.54924858
0.10730711 1.1351906 -0.55922031
0.10780258 1.1404321 -0.5711332
0.10822848 1.1449378 -0.58438355
0.110312 1.1669791 -0.60695231
0.11902924 1.2591978 -0.66719782
0.12186174 1.2891625 -0.69577992
0.12308269 1.3020788 -0.71382159
0.12166969 1.287131 -0.72034055
0.12107349 1.2808237 -0.7315954
0.12209601 1.2916409 -0.75283229
0.1214731 1.2850512 -0.76412541
0.12164655 1.2868861 -0.78052944
0.12100092 1.280056 -0.79177982
0.12042909 1.2740067 -0.80156332
0.12143633 1.2846621 -0.82206839
0.12084274 1.2783827 -0.83188629
0.11936963 1.2627988 -0.83755004
0.11728737 1.2407708 -0.83470446
0.11512767 1.2179235 -0.83295131
0.11289276 1.1942806 -0.83219528
0.11306128 1.1960634 -0.84708291
0.11091866 1.1733969 -0.84459263
0.10878772 1.1508538 -0.8417843
0.10809226 1.1434968 -0.85183996
0.10813955 1.143997 -0.86785758
0.10816871 1.1443053 -0.88394839
0.10817961 1.1444207 -0.90011019
0.1134209 1.1998677 -0.95867252
0.11565754 1.223529 -0.99297547
0.1149398 1.2159361 -1.0023414
0.1156628 1.2235845 -1.0244329
0.11492243 1.2157524 -1.0337983
0.11499749 1.2165464 -1.0482798
0.11566088 1.2235643 -1.0707067
0.11559206 1.2228363 -1.0866969
0.11539458 1.2207471 -1.1040655
0.10150281 1.0737875 -0.98401093
0.088877119 0.94022173 -0.87873995
0.088926397 0.94074303 -0.89280152
0.091581725 0.96883345 -0.93566793
0.089464501 0.94643557 -0.93013752
0.088030331 0.93126363 -0.93134242
0.087826759 0.92910999 -0.9475975
0.085176863 0.90107703 -0.93316936
0.085705832 0.90667301 -0.9555096
0.084177136 0.89050108 -0.95709038
0.080109105 0.84746581 -0.92896944
0.079343148 0.83936286 -0.9363625
0.077229366 0.8170014 -0.92959368
0.073286757 0.77529293 -0.89980549
0.068710372 0.72687978 -0.86245269
0.040906463 0.43274516 -0.56138963
0.0076039825 0.080441728 -0.11432981
0.037210219 0.31438756 1.7617821
0.038792111 0.32775289 1.7593105
0.040595151 0.3429867 1.7563634
0.042631939 0.36019546 1.7630774
0.043944933 0.37128887 1.7402912
0.046242066 0.39069724 1.7564787
0.047775015 0.40364906 1.7432398
0.049838107 0.42108002 1.7493449
0.052204173 0.44107082 1.7649734
0.054012511 0.45634937 1.7610303
0.055589631 0.46967441 1.7574743
0.057167117 0.48300251 1.7538074
0.058836564 0.4971076 1.7602051
0.060412806 0.51042521 1.7563361
0.061989125 0.52374351 1.7523556
0.063335843 0.5351218 1.7488663
0.064547129 0.54535598 1.7351716
0.066830739 0.56465006 1.749944
0.068397552 0.57788795 1.7455565
0.069738895 0.58922094 1.7417104
0.071689315 0.60569996 1.7465647
0.074440837 0.6289475 1.7701083
0.075397745 0.63703233 1.7565321
0.076150559 0.6433928 1.7328435
0.078541785 0.66359621 1.7465312
0.081165224 0.68576151 1.7700688
0.081882194 0.69181913 1.7461619
0.08388903 0.70877486 1.7500573
0.085911192 0.72585994 1.7537806
0.087020457 0.73523211 1.7389541
0.089049064 0.75237173 1.7424141
0.090608478 0.76554716 1.736585
0.092651255 0.78280652 1.7397499
0.095915407 0.81038517 1.7600216
0.096930191 0.81895906 1.7338716
0.098485261 0.83209777 1.7275167
0.10055204 0.8495599 1.7300397
0.1042197 0.88054776 1.7591685
0.10418262 0.88023448 1.7256689
0.10682011 0.90251851 1.7365626
0.10970536 0.92689586 1.7462041
0.11239148 0.94959086 1.7566005
0.11339669 0.95808381 1.7404932
0.11610898 0.98099989 1.7505022
0.11965974 1.0110002 1.7678123
0.12348531 1.0433221 1.7835723
0.12409928 1.0485095 1.757193
0.12651104 1.0688863 1.7564387
0.12830779 1.084067 1.7469791
0.12987015 1.0972673 1.7386024
0.13461852 1.1373861 1.7720978
0.13491219 1.1398673 1.7465971
0.1390896 1.1751621 1.7710303
0.14265452 1.205282 1.7867695
0.14492363 1.2244536 1.7856681
0.14629421 1.2360334 1.77756
0.14833647 1.2532885 1.7652661
0.15152523 1.2802303 1.7703532
0.15311149 1.2936324 1.7604465
0.15539153 1.3128964 1.7584529
0.15910743 1.3442919 1.7721354
0.16213264 1.3698517 1.7775599
0.16372506 1.383306 1.7669631
0.16870101 1.4253477 1.7843834
0.16903552 1.4281739 1.7563161
0.17384076 1.4687731 1.7744253
0.17816588 1.5053159 1.7826612
0.18329304 1.5486351 1.7979246
0.18458185 1.5595242 1.775025
0.1879684 1.588137 1.7761161
0.19080202 1.6120781 1.7677101
0.19524482 1.649615 1.7735697
0.19809198 1.6736706 1.7644223
0.19661725 1.6612107 1.720965
0.19942282 1.6849149 1.7115468
0.20244189 1.7104229 1.699962
0.2003819 1.6930182 1.6463404
0.2029155 1.7144245 1.6382838
0.20307352 1.7157595 1.6076475
0.20752536 1.7533729 1.6108124
0.20694755 1.748491 1.5714808
0.20363776 1.7205268 1.5127192
0.20894364 1.7653558 1.521664
0.20078668 1.6964381 1.4334164
0.20969161 1.7716756 1.467411
0.20387486 1.72253 1.4015083
0.20916946 1.7672639 1.409229
0.2068958 1.7480538 1.3690881
0.20472497 1.7297125 1.3275099
0.2041968 1.72525 1.3002754
0.20741692 1.7524567 1.2969093
0.20604303 1.7408488 1.2619792
0.20445001 1.7273895 1.2293192
0.20585744 1.7392807 1.2121986
0.20417614 1.7250755 1.1800113
0.20650782 1.7447758 1.1684229
0.2076984 1.7548349 1.1530463
0.20010228 1.6906556 1.0872178
0.20320199 1.7168449 1.0829369
0.20530652 1.7346259 1.0730433
0.20552839 1.7365006 1.0506777
0.20457277 1.7284266 1.0252275
0.20778197 1.755541 1.0180876
0.20574744 1.7383513 0.98787773
0.20276146 1.7131228 0.95131367
0.2037295 1.7213018 0.93622351
0.20468202 1.7293496 0.92106199
0.20468971 1.7294146 0.89934826
0.20245737 1.7105536 0.87058449
0.20029056 1.6922464 0.84034848
0.20749682 1.7531319 0.85151273
0.20304695 1.715535 0.81474632
0.20718031 1.7504575 0.81029296
0.20468733 1.7293944 0.784473
0.20558187 1.7369525 0.76735395
0.20203942 1.7070224 0.73631138
0.20721973 1.7507907 0.7347734
0.20578785 1.7386928 0.71182787
0.20441237 1.7270714 0.68726999
0.20510951 1.7329615 0.67206728
0.20469055 1.7294217 0.653301
0.20653968 1.7450449 0.63957769
0.20607987 1.74116 0.62088078
0.20337485 1.7183053 0.59578973
0.20516697 1.733447 0.58195204
0.20463783 1.7289762 0.56361747
0.20752236 1.7533476 0.55245513
0.20695634 1.7485653 0.53412378
0.20643412 1.744153 0.5140186
0.20469169 1.7294314 0.49322239
0.20865341 1.7629037 0.48397744
0.20686859 1.747824 0.46337554
0.20511381 1.7329979 0.4411878
0.20784251 1.7560525 0.43067509
0.20260653 1.7118139 0.401925
0.20645194 1.7443036 0.39342427
0.20804499 1.7577633 0.37826663
0.20266746 1.7123287 0.35278371
0.20652644 1.7449331 0.34154812
0.20571321 1.7380621 0.32437924
0.20488058 1.7310272 0.30735728
0.20167303 1.7039268 0.28906965
0.20315805 1.7164737 0.27376032
0.20924343 1.7678888 0.26605695
0.20721187 1.7507243 0.24582058
0.20862161 1.762635 0.23172136
0.20887916 1.764811 0.21426955
0.20792288 1.7567314 0.19764285
0.20580207 1.7388129 0.17825636
0.20714739 1.7501794 0.16389582
0.20849802 1.7615908 0.14739861
0.20864126 1.7628011 0.13191311
0.20761037 1.7540911 0.11385225
0.20889279 1.7649263 0.098990053
0.21017118 1.7757273 0.081979975
0.21024726 1.77637 0.066372745
0.20678262 1.7470976 0.049909726
0.20800109 1.7573924 0.034751635
0.20685351 1.7476965 0.019198241
0.20804007 1.7577217 0.0058077471
0.20803811 1.7577051 -0.0096383588
0.20919555 1.7674843 -0.025225446
0.20798665 1.7572703 -0.040527191
0.20793717 1.7568523 -0.055967566
0.2078808 1.756376 -0.069489874
0.2101386 1.7754521 -0.087815538
0.2077066 1.7549042 -0.10034624
0.20876862 1.7638772 -0.11641757
0.2098134 1.7727045 -0.13265419
0.20732668 1.7516942 -0.14657053
0.2106587 1.7798464 -0.16664243
0.20814109 1.7585752 -0.18025109
0.20675476 1.7468622 -0.1965325
0.21240795 1.7946258 -0.21587372
0.20748578 1.7530384 -0.22848594
0.20607923 1.7411546 -0.24251184
0.20578973 1.7387086 -0.25969765
0.20667663 1.746202 -0.27652007
0.20750654 1.7532139 -0.29543522
0.2060381 1.7408071 -0.30909374
0.21029368 1.7767624 -0.3336049
0.20878996 1.7640574 -0.3472867
0.20722753 1.7508565 -0.36270958
0.20684761 1.7476466 -0.37808132
0.20640177 1.7438798 -0.39532474
0.2082772 1.7597251 -0.41519654
0.20778762 1.7555887 -0.43258834
0.21417125 1.8095238 -0.4627682
0.20567322 1.7377243 -0.46272331
0.20745808 1.7528045 -0.48325735
0.20915103 1.7671081 -0.5060482
0.20749632 1.7531276 -0.51873803
0.20688829 1.7479904 -0.5360288
0.21081606 1.781176 -0.56335509
0.20680171 1.7472588 -0.57168144
0.20843673 1.7610731 -0.59335971
0.18663509 1.576872 -0.54867309
0.1750571 1.4790499 -0.52741486
0.17450947 1.4744229 -0.5403918
0.1674116 1.4144534 -0.53074944
0.16480234 1.392408 -0.5329541
0.15986945 1.3507301 -0.53063166
0.15713663 1.3276408 -0.53504968
0.15331973 1.2953919 -0.53530639
0.14843108 1.2540878 -0.53116083
0.14585842 1.2323517 -0.53154004
0.1442997 1.219182 -0.53700346
0.1438141 1.2150793 -0.54635143
0.14004119 1.183202 -0.54453772
0.13308905 1.1244638 -0.5294984
0.13360122 1.128791 -0.54367429
0.13303848 1.1240364 -0.55357277
0.13351694 1.1280788 -0.56790078
0.13405003 1.132583 -0.58110785
0.13769786 1.1634033 -0.6082204
0.14961527 1.2640932 -0.67326361
0.1520215 1.2844231 -0.69860333
0.15242068 1.2877958 -0.71326703
0.15186872 1.2831323 -0.72173917
0.15121579 1.2776158 -0.7315954
0.15249288 1.2884058 -0.75283229
0.15171489 1.2818327 -0.76412541
0.15193152 1.283663 -0.78052944
0.15212598 1.285306 -0.79702342
0.1513027 1.27835 -0.80828762
0.15057369 1.2721907 -0.81808215
0.15081999 1.2742716 -0.83329773
0.1481069 1.2513489 -0.83203983
0.14735498 1.244996 -0.84164816
0.14465451 1.2221799 -0.83991158
0.14196414 1.1994489 -0.83789521
0.14024827 1.1849515 -0.84132046
0.13842534 1.1695497 -0.84586757
0.13565518 1.1461449 -0.84430426
0.13478401 1.1387844 -0.85434377
0.13577536 1.1471602 -0.87640667
0.13487126 1.1395215 -0.88645387
0.13395689 1.1317961 -0.89643359
0.141536 1.1958317 -0.95997614
0.14340962 1.2116618 -0.988033
0.14433527 1.2194825 -1.0100148
0.14342354 1.2117794 -1.0193726
0.14250554 1.2040232 -1.0286497
0.14335796 1.2112254 -1.0509433
0.14431719 1.2193298 -1.0720575
0.14423141 1.2186049 -1.0880253
0.14324959 1.2103096 -1.0973742
0.11970799 1.0114077 -0.9311952
0.11014336 0.93059653 -0.87192804
0.11021105 0.9311685 -0.88593382
0.11365449 0.96026188 -0.92767441
0.11197571 0.946078 -0.92806131
0.11018481 0.93094677 -0.92929941
0.10839996 0.91586661 -0.93034285
0.10744158 0.90776932 -0.93835557
0.10484945 0.88586855 -0.93184954
0.10537894 0.89034218 -0.95513672
0.1010869 0.85407889 -0.93446815
0.098429829 0.83162946 -0.92801076
0.097474232 0.82355559 -0.93528336
0.088678189 0.74923825 -0.86791599
0.085275978 0.72049308 -0.85323954
0.081815578 0.69125634 -0.83879131
0.036889005 0.31167364 -0.41460675
0.044896025 0.31545591 1.7512487
0.047043826 0.33054715 1.7585862
0.048932333 0.34381649 1.7559886
0.050822303 0.35709611 1.7532824
0.052438073 0.36844912 1.7508842
0.0546216 0.38379136 1.7577602
0.056513313 0.39708322 1.7547454
0.058453258 0.410714 1.7618165
0.059678108 0.41932026 1.7391691
0.061893504 0.43488643 1.7455782
0.064476125 0.45303288 1.7615346
0.065736033 0.46188545 1.7488397
0.067991391 0.47773242 1.7548643
0.069875292 0.49096939 1.751133
0.07227426 0.50782543 1.7670568
0.074444249 0.52307254 1.7625133
0.075775862 0.53242892 1.7387286
0.078767046 0.55344611 1.753024
0.080919527 0.56857026 1.7480789
0.083517291 0.58682311 1.7524736
0.085402466 0.60006899 1.7478912
0.087750137 0.61656463 1.7526402
0.090117283 0.63319701 1.7572252
0.091735847 0.64456964 1.7530016
0.094389886 0.6632179 1.7565969
0.096546166 0.67836869 1.750684
0.09842474 0.69156826 1.7454071
0.1013689 0.71225506 1.7585269
0.10271232 0.72169435 1.7437624
0.10514092 0.73875862 1.7473354
0.10814213 0.75984621 1.7599258
0.11003461 0.77314347 1.7540072
0.11186774 0.78602368 1.737168
0.11459632 0.80519569 1.7392318
0.11673048 0.82019109 1.7320683
0.11982805 0.84195572 1.7436604
0.12169839 0.85509753 1.7371234
0.12611367 0.88612086 1.7661498
0.126715 0.89034599 1.7415015
0.1298992 0.91271937 1.7522755
0.13177852 0.92592412 1.7451931
0.13500449 0.94859099 1.755548
0.13620274 0.95701033 1.7394482
0.14015384 0.98477215 1.7581185
0.14274229 1.0029596 1.7591466
0.14605787 1.0262562 1.7686055
0.14651082 1.0294386 1.7434709
0.15111834 1.0618128 1.7587827
0.15374677 1.0802811 1.7590494
0.1559038 1.0954372 1.7494603
0.16061288 1.1285249 1.7636993
0.16510074 1.1600583 1.7787374
0.16571082 1.1643449 1.7518393
0.16758864 1.1775391 1.7428184
0.17402175 1.2227407 1.7720671
0.17401159 1.2226691 1.735425
0.17944658 1.2608573 1.7569683
0.18411067 1.2936291 1.769923
0.18712665 1.3148204 1.7664459
0.19042102 1.3379679 1.7612444
0.19490698 1.3694878 1.7745463
0.19970925 1.4032303 1.7859062
0.20278308 1.4248282 1.7812479
0.20703192 1.454682 1.7824528
0.21012139 1.4763899 1.7772231
0.21439996 1.5064527 1.7777045
0.22120535 1.5542698 1.8020581
0.22247793 1.5632113 1.780807
0.227768 1.6003814 1.7874566
0.23309329 1.6377988 1.7935671
0.23749609 1.6687346 1.7917926
0.24093646 1.6929078 1.7823896
0.23846556 1.6755464 1.7297626
0.25007686 1.7571316 1.774838
0.24271853 1.7054293 1.6854372
0.24503621 1.7217141 1.6684597
0.24502794 1.7216561 1.6395005
0.25504139 1.7920142 1.6659049
0.25339824 1.7804689 1.6192961
0.24764907 1.7400731 1.5448028
0.25535071 1.7941877 1.5581356
0.24995391 1.7562678 1.495141
0.25006256 1.7570312 1.4629799
0.25339317 1.7804333 1.4498101
0.25317356 1.7788901 1.4197017
0.25289872 1.7769592 1.3897332
0.24848229 1.7459275 1.3319511
0.25144702 1.7667588 1.3205066
0.25688678 1.8049806 1.3185424
0.25179812 1.7692258 1.2659137
0.24756095 1.7394539 1.2217257
0.25175503 1.768923 1.2137259
0.25323781 1.7793417 1.1980876
0.25134429 1.766037 1.1639756
0.24683245 1.7343352 1.1214077
0.24939519 1.7523419 1.1113955
0.25211975 1.7714857 1.0992151
0.24742693 1.7385122 1.0577595
0.24782312 1.7412961 1.0334756
0.24908443 1.7501584 1.0180876
0.24802624 1.7427232 0.9908576
0.24691457 1.7349122 0.96390498
0.24933082 1.7518897 0.95331883
0.24440387 1.7172711 0.91260445
0.25177985 1.7690974 0.92032659
0.24912722 1.7504592 0.89119494
0.24894984 1.7492127 0.87130874
0.25395131 1.7843549 0.86694074
0.24735738 1.7380236 0.82564414
0.24720769 1.7369717 0.80418754
0.24665932 1.7331187 0.78858018
0.2477373 1.740693 0.77137148
0.24220039 1.7017887 0.73631138
0.24971101 1.7545611 0.7386204
0.2506097 1.7608755 0.72312671
0.24504502 1.7217761 0.68726999
0.25639972 1.8015583 0.70081878
0.24284001 1.7062829 0.64438158
0.24229904 1.7024817 0.62589687
0.24723426 1.7371584 0.61705416
0.24531707 1.7236875 0.5952484
0.2473768 1.73816 0.58318472
0.25210744 1.7713993 0.57704979
0.2488573 1.7485626 0.55054426
0.24817598 1.7437754 0.53221816
0.24754813 1.7393639 0.51208711
0.24681225 1.7341933 0.49402162
0.24476354 1.7197983 0.47157672
0.24533406 1.723807 0.45639965
0.24595411 1.7281636 0.43926871
0.2519623 1.7703794 0.43344179
0.24699683 1.7354902 0.40873727
0.24617457 1.7297127 0.38934824
0.24664393 1.7330106 0.37408689
0.24576922 1.7268646 0.35487491
0.24896246 1.7493014 0.34345618
0.24526808 1.7233433 0.32067344
0.25120452 1.7650548 0.31237417
0.24745429 1.7387044 0.28995395
0.2519778 1.7704884 0.27924553
0.24816899 1.7437263 0.25735366
0.24847598 1.7458832 0.24197385
0.25019675 1.757974 0.22589615
0.25186422 1.7696903 0.21156731
0.25214452 1.7716596 0.19402406
0.25097141 1.7634169 0.17740931
0.24980152 1.755197 0.15900543
0.24858309 1.7466359 0.14272191
0.24876839 1.7479378 0.12541036
0.25031939 1.7588358 0.1106199
0.2504459 1.7597245 0.095112473
0.25056547 1.7605648 0.077642508
0.25205955 1.7710629 0.062470101
0.24930972 1.7517414 0.046333198
0.25076598 1.7619737 0.031065283
0.25361481 1.7819905 0.013760041
0.25362206 1.7820415 -0.001947787
0.24938035 1.7522377 -0.019307323
0.25357333 1.7816991 -0.035340648
0.2506955 1.7614783 -0.052402221
0.2506215 1.7609586 -0.067926727
0.24910797 1.7503239 -0.084921286
0.25180757 1.7692921 -0.10148009
0.25306109 1.7780999 -0.11966918
0.24728422 1.7375095 -0.13233013
0.24849299 1.7460027 -0.15041846
0.25110421 1.7643502 -0.1676763
0.25226185 1.7724841 -0.18618275
0.2506232 1.7609702 -0.20067808
0.25313026 1.7785859 -0.22058351
0.25564331 1.7962435 -0.23886293
0.25254929 1.7745037 -0.25190333
0.24940237 1.7523924 -0.26649439
0.25189137 1.769881 -0.28314638
0.24875425 1.7478385 -0.29543522
0.25393194 1.7842188 -0.31777617
0.24932513 1.7518497 -0.32993892
0.24752712 1.7392162 -0.34344929
0.24841978 1.7454883 -0.36270958
0.24520917 1.7229295 -0.37388042
0.25292832 1.777167 -0.40410975
0.24556252 1.7254121 -0.40835264
0.25182846 1.769439 -0.43734205
0.2485498 1.746402 -0.447999
0.25336745 1.7802526 -0.47550574
0.25277314 1.7760767 -0.49117962
0.25080389 1.7622399 -0.50409126
0.24611762 1.7293125 -0.51117927
0.24952608 1.7532617 -0.53507972
0.25011793 1.7574202 -0.55544138
0.25344846 1.7808216 -0.58011919
0.2526345 1.7751025 -0.59773469
0.23056591 1.6200405 -0.56143397
0.215251 1.5124323 -0.53908765
0.21201387 1.4896871 -0.5439508
0.20869525 1.4663693 -0.55009764
0.20142829 1.415309 -0.54518545
0.19287771 1.3552295 -0.53577161
0.18837193 1.3235701 -0.53504968
0.18518192 1.3011559 -0.53768104
0.17939875 1.2605213 -0.53226149
0.17882019 1.2564561 -0.54197901
0.17556514 1.233585 -0.54501843
0.17360236 1.2197938 -0.5517838
0.16787829 1.1795743 -0.54453772
0.16217886 1.139528 -0.53672516
0.16159734 1.1354421 -0.54548836
0.16100506 1.1312805 -0.55423975
0.1604905 1.127665 -0.56170666
0.16231017 1.1404507 -0.58062696
0.16284269 1.1441925 -0.59523606
0.17831506 1.2529069 -0.66582876
0.1849367 1.299433 -0.70524633
0.1817013 1.2766999 -0.70563596
0.18339765 1.288619 -0.72520775
0.18372379 1.2909106 -0.74148184
0.18402378 1.2930185 -0.75785118
0.18308493 1.2864219 -0.76921958
0.18213215 1.2797272 -0.78052944
0.18368922 1.2906678 -0.800834
0.18162635 1.2761732 -0.80547726
0.17956628 1.2616985 -0.80992162
0.18355237 1.2897061 -0.83992058
0.18264231 1.2833117 -0.84985453
0.17703405 1.2439061 -0.83753002
0.17612676 1.2375312 -0.84711039
0.17289062 1.2147927 -0.84527355
0.16966671 1.1921405 -0.84315735
0.16760768 1.1776729 -0.84651887
0.16313796 1.1462671 -0.83926034
0.16209981 1.1389726 -0.84933209
0.16217554 1.1395047 -0.86534858
0.16208747 1.138886 -0.88270408
0.16335669 1.1478039 -0.9037481
0.16915323 1.1885325 -0.94851339
0.1725221 1.2122034 -0.98269987
0.17473733 1.2277685 -1.0109656
0.17472857 1.227707 -1.0267938
0.1734594 1.2187892 -1.0375763
0.17340975 1.2184404 -1.0534382
0.17529504 1.2316872 -1.0838443
0.17395569 1.2222764 -1.0946597
0.17243174 1.2115685 -1.106738
0.13595209 0.95524913 -0.88606781
0.13293274 0.93403411 -0.87977791
0.13402967 0.94174159 -0.90069908
0.13508698 0.94917059 -0.92180622
0.13193414 0.92701763 -0.91615051
0.13080265 0.91906726 -0.92428678
0.12867139 0.90409237 -0.92523551
0.12865545 0.90398026 -0.93934417
0.1284688 0.90266883 -0.95450759
0.1243973 0.87406099 -0.94055444
0.11845949 0.8323397 -0.91147017
0.11354928 0.79783881 -0.88913435
0.1104409 0.77599823 -0.88205981
0.11305899 0.79439384 -0.91899729
0.10536965 0.74036574 -0.87364513
0.078182541 0.54933918 -0.70859998
0.051665552 0.31040496 1.7621236
0.053569723 0.32184517 1.7498417
0.055764422 0.33503085 1.7472963
0.057640862 0.34630442 1.745036
0.059488323 0.3574039 1.7325194
0.06270621 0.37673688 1.759016
0.064595088 0.38808522 1.7564787
0.066792771 0.40128881 1.7534269
0.069374874 0.41680199 1.7599895
0.070870928 0.42579025 1.7474781
0.07346303 0.44136351 1.7538248
0.075973086 0.45644382 1.7498535
0.079344504 0.4766992 1.7650388
0.08155752 0.48999494 1.7612931
0.083760738 0.50323182 1.7574532
0.085647494 0.51456738 1.7540767
0.087366529 0.52489531 1.7404747
0.090527505 0.5438863 1.7554466
0.09303923 0.55897665 1.7505682
0.095543869 0.5740245 1.7455565
0.097731963 0.58717048 1.7410569
0.10068341 0.60490268 1.7560055
0.10177322 0.6114502 1.7324464
0.10620435 0.63807225 1.7652152
0.10725844 0.64440525 1.7415044
0.1100295 0.66105366 1.7457954
0.11252666 0.6760565 1.7398808
0.11500563 0.69095016 1.744638
0.11656369 0.70031089 1.7299935
0.12031109 0.72282511 1.7421679
0.1234524 0.74169803 1.7448907
0.12661064 0.76067263 1.7474115
0.12910947 0.77568555 1.7406156
0.13197777 0.79291815 1.7436349
0.1341574 0.80601335 1.7374533
0.1363342 0.8190915 1.7311563
0.14066212 0.84509349 1.7517223
0.1431666 0.86014032 1.7441795
0.14640716 0.87960947 1.7454089
0.14783545 0.88819057 1.7296711
0.15153557 0.91042078 1.7404226
0.15605643 0.93758196 1.759712
0.1582555 0.95079392 1.7524115
0.1607603 0.96584266 1.7439336
0.16406912 0.98572195 1.7439994
0.16904764 1.0156327 1.7611114
0.1724055 1.0358067 1.7606479
0.17492156 1.050923 1.7514175
0.17828977 1.0711592 1.7505516
0.18311009 1.1001195 1.7675711
0.18531822 1.1133858 1.7590137
0.19021226 1.1427891 1.7754583
0.19002129 1.1416417 1.7403005
0.19495384 1.1712763 1.7562758
0.20150951 1.2106625 1.7774392
0.20499317 1.2315924 1.7748402
0.20848468 1.2525692 1.7720058
0.21263063 1.277478 1.778437
0.21485656 1.2908514 1.7684851
0.21706492 1.304119 1.7584529
0.2232523 1.3412925 1.7800822
0.22711769 1.3645157 1.7745463
0.23169293 1.3920035 1.7780732
0.2376501 1.4277941 1.7874358
0.24051723 1.4450197 1.7731524
0.24548249 1.4748508 1.7739655
0.25122193 1.5093333 1.7836201
0.25408226 1.526518 1.7685262
0.26206622 1.5744853 1.7922938
0.26604903 1.5984139 1.7839257
0.26890913 1.6155974 1.767946
0.27368453 1.6442877 1.7681388
0.28107569 1.6886936 1.7805084
0.28246784 1.6970576 1.7583536
0.2800979 1.6828191 1.7022823
0.28195515 1.6939774 1.6765864
0.28583241 1.7172719 1.6665465
0.29629096 1.7801064 1.6718351
0.30269599 1.8185878 1.5676459
0.36257285 2.1783261 1.7214636
0.41837791 2.5136008 1.8176003
0.2915473 1.7516067 0.78132856
0.2912823 1.7500147 0.75993633
0.29084522 1.7473887 0.74056864
0.29202595 1.7544824 0.72312671
0.28694567 1.7239604 0.69283682
0.29264414 1.7581966 0.68644303
0.28746751 1.7270955 0.65681338
0.29005611 1.7426478 0.64299786
0.28322789 1.7016239 0.61086655
0.28730401 1.7261132 0.6004079
0.2912685 1.7499317 0.59144038
0.29533383 1.7743561 0.58011919
0.28675207 1.7227972 0.54648262
0.29076171 1.746887 0.53511065
0.28994158 1.7419596 0.5168274
0.28760093 1.727897 0.49402162
0.28988186 1.7416009 0.48134711
0.2906431 1.7461743 0.4640063
0.29129684 1.750102 0.44854096
0.29033318 1.7443124 0.43067509
0.28934062 1.7383491 0.41294599
0.28518635 1.7133904 0.3890529
0.29215389 1.755251 0.38228223
0.28792983 1.7298732 0.35879707
0.28521022 1.7135339 0.33964217
0.2938163 1.7652388 0.33166865
0.29104647 1.7485977 0.31256673
0.28991619 1.7418071 0.29352465
0.29681343 1.7832454 0.28431904
0.29238471 1.7566379 0.26217246
0.29112282 1.7490566 0.24525209
0.29313231 1.7611294 0.22912139
0.29507971 1.7728293 0.21471897
0.29541185 1.774825 0.19704904
0.29078212 1.7470096 0.17833474
0.29105532 1.748651 0.16095471
0.28963849 1.7401386 0.14466169
0.28819725 1.7314798 0.12853161
0.2900089 1.742364 0.11385225
0.28688231 1.7235798 0.097321682
0.28537077 1.7144984 0.081601202
0.28875816 1.7348497 0.067194201
0.29213506 1.7551379 0.050476883
0.29383782 1.765368 0.03514431
0.28730989 1.7261485 0.01908916
0.29553473 1.7755631 0.0059061837
0.2971738 1.7854105 -0.0098561747
0.29550666 1.7753943 -0.025508879
0.29874173 1.7948306 -0.041672029
0.29373711 1.764763 -0.058567159
0.29364201 1.7641916 -0.074177064
0.29186872 1.7535378 -0.091203414
0.29664367 1.7822255 -0.10851131
0.2948164 1.7712475 -0.12556165
0.29298848 1.7602652 -0.14044178
0.29274821 1.7588217 -0.15793829
0.28924251 1.7377596 -0.17155339
0.29384926 1.7654368 -0.19205627
0.29030108 1.7441194 -0.20535964
0.29325417 1.7618616 -0.22326201
0.29455048 1.7696496 -0.24016687
0.29256976 1.7577496 -0.25439975
0.292146 1.7552036 -0.27186576
0.29174533 1.7527965 -0.28738299
0.2912676 1.7499264 -0.30482912
0.29243544 1.7569426 -0.32207781
0.29351541 1.7634311 -0.3414084
0.29301506 1.760425 -0.35699576
0.29081824 1.7472266 -0.37245676
0.29348096 1.7632241 -0.39218575
0.29283527 1.7593447 -0.40969956
0.28904325 1.7365625 -0.42060065
0.29153693 1.7515444 -0.44271708
0.29407066 1.7667669 -0.46320301
0.29172507 1.7526748 -0.47814998
0.29735559 1.7865028 -0.50436825
0.29652753 1.7815279 -0.52213961
0.29262167 1.7580615 -0.53215808
0.29488769 1.7716757 -0.55552363
0.29408053 1.7668263 -0.57117575
0.28857142 1.7337277 -0.57742083
0.26741436 1.6066169 -0.55287588
0.24965695 1.4999309 -0.52913028
0.24425162 1.4674559 -0.53227299
0.24203479 1.4541372 -0.54018897
0.24135131 1.4500308 -0.55141658
0.22992244 1.3813666 -0.53755194
0.22312947 1.3405546 -0.53359783
0.2194059 1.3181835 -0.53651941
0.21407408 1.2861501 -0.53674036
0.21036883 1.2638891 -0.53891504
0.20657299 1.2410839 -0.54216087
0.20278412 1.2183205 -0.54504484
0.19910012 1.196187 -0.54625607
0.19085461 1.1466483 -0.53588444
0.19017799 1.1425833 -0.54473472
0.18643105 1.1200716 -0.54615283
0.18868837 1.1336336 -0.56362367
0.18944564 1.1381834 -0.5768441
0.19017902 1.1425893 -0.59018767
0.19963473 1.199399 -0.63125902
0.21335022 1.2818012 -0.68728989
0.21524657 1.2931944 -0.70810813
0.2142238 1.2870497 -0.71952152
0.21305476 1.2800261 -0.73228472
0.21199743 1.2736738 -0.7435807
0.21389095 1.2850499 -0.76354265
0.21419802 1.2868948 -0.78001356
0.21167047 1.2717094 -0.78616208
0.21332458 1.2816472 -0.80794382
0.21230662 1.2755313 -0.81782991
0.21250668 1.2767333 -0.83450174
0.20993084 1.2612576 -0.84027272
0.20735474 1.2457805 -0.84583384
0.20206648 1.2140089 -0.83991158
0.19965735 1.1995349 -0.84359521
0.19740368 1.1859949 -0.8457824
0.19351517 1.1626328 -0.84459263
0.18964529 1.1393828 -0.84305483
0.19106555 1.1479156 -0.86503392
0.18981887 1.1404256 -0.8751561
0.19017695 1.1425769 -0.88879168
0.19035335 1.1436367 -0.9037481
0.20079796 1.2063876 -0.96845698
0.20213808 1.214439 -0.99029189
0.20343214 1.2222137 -1.0123285
0.20468551 1.229744 -1.034521
0.20463651 1.2294495 -1.0504655
0.20312364 1.2203603 -1.0613018
0.20530564 1.2334696 -1.0917886
0.20373352 1.2240244 -1.1026591
0.19727491 1.1852212 -1.0866154
0.15841979 0.95178097 -0.88606781
0.15610225 0.93785727 -0.88659787
0.15856411 0.95264798 -0.91445023
0.15859526 0.95283526 -0.92873704
0.15373784 0.92365193 -0.91615051
0.15590987 0.93670142 -0.94545364
0.1524121 0.91568696 -0.93844974
0.14991729 0.90069824 -0.93934417
0.14969981 0.89939159 -0.95450759
0.14607912 0.8776387 -0.94784558
0.13898356 0.8350088 -0.91975212
0.13749568 0.82606953 -0.92801076
0.13071437 0.78532767 -0.89787203
0.12925951 0.77658701 -0.90565151
0.11821019 0.71020299 -0.84483021
0.11443634 0.68752986 -0.83803761
0.050612312 0.30407715 -0.40629482
0.058327328 0.30576256 1.732255
0.061497945 0.32238352 1.7494819
0.064355977 0.33736584 1.756742
0.066137508 0.34670496 1.7446551
0.069405846 0.3638382 1.7614779
0.072283559 0.37892365 1.7581786
0.074794173 0.39208478 1.7551852
0.078092836 0.40937698 1.7613665
0.080970034 0.42445976 1.7576625
0.084767483 0.44436669 1.7732041
0.086350843 0.45266697 1.7503531
0.090553403 0.47469753 1.7650388
0.092414968 0.48445621 1.7415113
0.094906859 0.49751917 1.7376902
0.098284721 0.51522654 1.7427799
0.10113075 0.530146 1.7381363
0.10418119 0.54613692 1.7434967
0.10761302 0.56412721 1.7480789
0.11011388 0.57723719 1.7436377
0.11260261 0.59028357 1.739105
0.11473304 0.60145164 1.7351346
0.11785218 0.6178028 1.7398076
0.12199739 0.63953274 1.7530016
0.12485924 0.65453506 1.7472533
0.12735271 0.66760629 1.7421203
0.12915011 0.67702854 1.7275858
0.13338915 0.6992504 1.7400161
0.13731748 0.71984345 1.7529887
0.13908859 0.72912788 1.7381389
0.14156862 0.74212867 1.732427
0.14628331 0.76684403 1.7431728
0.14990894 0.78585023 1.7453845
0.15160528 0.79474264 1.7301733
0.15523718 0.81378186 1.7320683
0.1584188 0.83046049 1.7238442
0.16207133 0.84960771 1.7253405
0.16623741 0.87144703 1.7365037
0.16871998 0.88446105 1.7296711
0.1729428 0.90659791 1.7404226
0.17721181 0.92897683 1.7509135
0.18061206 0.94680154 1.7524115
0.18403256 0.96473247 1.7537169
0.18653356 0.97784317 1.7461753
0.18902938 0.99092668 1.7385143
0.19341405 1.013912 1.7479913
0.19687736 1.0320673 1.7486213
0.1993707 1.0451378 1.740557
0.2028476 1.0633644 1.7408645
0.20633128 1.0816264 1.7410088
0.2108465 1.105296 1.7493612
0.21539183 1.1291236 1.757466
0.21997826 1.1531664 1.765281
0.22249472 1.1663582 1.7562758
0.22784708 1.1944162 1.7609814
0.23287418 1.2207692 1.7666613
0.2368456 1.2415881 1.7638773
0.24193026 1.2682428 1.7689346
0.24593146 1.2892178 1.765626
0.24957699 1.3083284 1.7635442
0.25323656 1.3275125 1.7612444
0.26072142 1.3667495 1.7809043
0.26479009 1.3880782 1.7765205
0.2715849 1.4236979 1.7858684
0.27688169 1.4514648 1.7885711
0.28100184 1.4730632 1.7832619
0.28634408 1.5010682 1.7853014
0.29171419 1.5292194 1.7869781
0.29374564 1.5398686 1.7641196
0.30290344 1.5878754 1.7874566
0.30708367 1.609789 1.78064
0.31290644 1.6403129 1.7790624
0.31580362 1.6555005 1.7644223
0.32128885 1.6842552 1.7639892
0.32223403 1.6892099 1.7309924
0.31740382 1.6638892 1.6718636
0.31675845 1.660506 1.6324471
0.32688645 1.7135987 1.648249
0.38501987 2.0183446 1.7822582
0.39481744 2.0697055 1.6722853
0.53129113 2.7851257 1.7078947
0.49866375 2.6140869 1.4487181
0.33273381 1.7442516 0.78132856
0.33227712 1.7418576 0.76185566
0.33005416 1.7302046 0.73861796
0.32792571 1.7190468 0.71375257
0.3273392 1.7159721 0.69475806
0.33035046 1.7317579 0.68116325
0.33671287 1.7651106 0.67632008
0.34511843 1.8091742 0.67035949
0.35014749 1.8355373 0.59143841
0.34921232 1.8306351 0.24743858
0.3396706 1.7806157 0.16257858
0.35183346 1.8443756 0.094295464
0.34096068 1.7873785 0.037734106
0.35226345 1.8466297 0.016405886
0.33916 1.7779388 -0.0019586082
0.33538845 1.7581677 -0.021462323
0.33907127 1.7774738 -0.041443061
0.32212329 1.6886295 -0.056276821
0.33698133 1.7665179 -0.076537527
0.33119142 1.7361662 -0.094547287
0.33656421 1.7643313 -0.11772563
0.34188011 1.7921983 -0.14157407
0.34526956 1.8099664 -0.16525845
0.3393181 1.7787677 -0.18234228
0.35005602 1.835058 -0.21076803
0.32914883 1.7254585 -0.21760966
0.32677877 1.7130343 -0.23733763
0.34290385 1.797565 -0.27143541
0.33683529 1.7657524 -0.28471074
0.33808076 1.7722814 -0.3059741
0.34481087 1.8075619 -0.33275443
0.34234214 1.7946204 -0.34891188
0.35262826 1.848542 -0.38071743
0.33350465 1.7482927 -0.38032544
0.33660892 1.7645657 -0.39824888
0.34681275 1.8180561 -0.42941007
0.35156208 1.8429528 -0.45258003
0.35071179 1.8384956 -0.47099367
0.34448898 1.8058745 -0.479734
0.34880829 1.8285171 -0.50966489
0.33343425 1.7479236 -0.5060482
0.33978531 1.7812169 -0.53283417
0.32982695 1.7290134 -0.5360288
0.33430099 1.7524672 -0.56035852
0.33681732 1.7656583 -0.58404213
0.32708466 1.7146379 -0.58192158
0.29056293 1.5231842 -0.53393179
0.28261346 1.4815116 -0.534091
0.27820772 1.458416 -0.5403918
0.26853776 1.4077241 -0.53581727
0.25890458 1.3572253 -0.53038454
0.25454059 1.3343484 -0.53509182
0.24844381 1.3023881 -0.53568745
0.23890251 1.2523708 -0.52810311
0.23630501 1.2387543 -0.53530163
0.23209466 1.2166828 -0.53694963
0.22949517 1.2030557 -0.54368073
0.22166266 1.1619964 -0.53910124
0.21578839 1.1312023 -0.53545928
0.21501507 1.1271485 -0.54424697
0.21603075 1.1324729 -0.55608994
0.2169112 1.1370883 -0.56927991
0.21776453 1.1415616 -0.58259398
0.22026289 1.1546584 -0.6005398
0.23767924 1.2459582 -0.66030049
0.24680272 1.2937852 -0.69664079
0.24415027 1.2798805 -0.70192343
0.24313767 1.2745724 -0.7118634
0.24523418 1.2855625 -0.73293185
0.2425517 1.2715006 -0.73793972
0.2445752 1.2821081 -0.75926399
0.24493577 1.2839983 -0.77572864
0.24205497 1.2688966 -0.7819277
0.24236163 1.2705041 -0.79842347
0.24104683 1.2636117 -0.8096801
0.24320722 1.2749368 -0.8288464
0.24201284 1.2686757 -0.8387441
0.24063212 1.2614378 -0.84998298
0.23319191 1.2224348 -0.83742148
0.2288924 1.199896 -0.83561826
0.22461461 1.1774709 -0.83349288
0.2235876 1.1720872 -0.84132046
0.21932968 1.1497664 -0.83876789
0.21492271 1.1266643 -0.8371594
0.21504945 1.1273288 -0.85310239
0.21514031 1.127805 -0.86912054
0.21667914 1.1358719 -0.89131659
0.21963562 1.1513703 -0.91989499
0.23170091 1.2146187 -0.98357314
0.23299621 1.221409 -1.0069126
0.23134084 1.2127312 -1.0177251
0.22966786 1.2039611 -1.0284601
0.23203719 1.2163815 -1.0599409
0.23170799 1.2146559 -1.0772755
0.23133968 1.212725 -1.0946597
0.22258511 1.166832 -1.071895
0.17821607 0.93424141 -0.87151134
0.17559354 0.92049354 -0.87192804
0.17842551 0.93533927 -0.89966923
0.18137906 0.95082235 -0.92662752
0.17870584 0.93680876 -0.92701322
0.17337184 0.90884703 -0.91320276
0.17338523 0.90891725 -0.92731172
0.16942511 0.88815755 -0.92009306
0.17051746 0.89388382 -0.94233513
0.16748892 0.87800765 -0.94395447
0.16064303 0.84212023 -0.92337823
0.15660119 0.82093215 -0.91604936
0.15116218 0.79241991 -0.90184295
0.14702341 0.7707237 -0.89468938
0.13437743 0.70443118 -0.83409798
0.13525037 0.70900726 -0.85639709
0.081220143 0.42577091 -0.56233656
0.068272665 0.31711313 1.7501937
0.071484633 0.33203205 1.7472963
0.075530373 0.35082373 1.7638645
0.077924326 0.36194319 1.7512923
0.080288723 0.37292534 1.7386433
0.084477566 0.39238167 1.7649363
0.086906999 0.4036659 1.7622715
0.089244053 0.4145211 1.7493449
0.093480922 0.4342005 1.7649734
0.096311465 0.44734782 1.7615346
0.099543191 0.46235853 1.7574743
0.10276733 0.47733405 1.75328
0.10598365 0.49227321 1.7489524
0.10999007 0.5108822 1.7642283
0.11322622 0.52591354 1.7596008
0.11501916 0.53424138 1.7464985
0.11910707 0.55322891 1.7613209
0.12127833 0.56331402 1.7474464
0.12569946 0.58384925 1.7720665
0.12854044 0.59704512 1.7674599
0.13067786 0.60697299 1.7533132
0.1342063 0.62336183 1.7579274
0.13808623 0.64138341 1.7724727
0.13944264 0.64768368 1.7487029
0.14341199 0.66612047 1.7521747
0.14662473 0.68104303 1.7461619
0.14942352 0.69404292 1.7407979
0.15464905 0.71831441 1.7630111
0.15747467 0.73143882 1.7573557
0.16113681 0.74844879 1.7607553
0.16395861 0.76155549 1.7548649
0.16851456 0.78271699 1.7670758
0.17134629 0.79586983 1.7609178
0.1727743 0.80250263 1.7356666
0.178305 0.82819164 1.7563616
0.18098937 0.84066004 1.7390037
0.18417649 0.85546356 1.7314333
0.18984798 0.88180649 1.7513638
0.19265386 0.89483929 1.7444332
0.19545493 0.90784973 1.7373849
0.20025079 0.93012553 1.7478175
0.20203669 0.93842071 1.731747
0.20831892 0.96760041 1.7494149
0.21152411 0.98248792 1.7407111
0.21684965 1.0072241 1.7491072
0.22113799 1.0271424 1.7486213
0.22764038 1.0573448 1.7649652
0.23198873 1.0775419 1.7639401
0.23635057 1.0978019 1.7626882
0.24227458 1.1253178 1.7683504
0.24667685 1.1457654 1.7665707
0.24715807 1.1480006 1.740979
0.25470647 1.1830615 1.7649617
0.25994566 1.2073965 1.7720671
0.25913301 1.2036219 1.7381152
0.26601011 1.2355646 1.7516332
0.27420267 1.2736175 1.7727695
0.27704695 1.2868286 1.7627584
0.28450006 1.3214469 1.7736228
0.28903717 1.3425208 1.7696596
0.29529631 1.3715932 1.7717595
0.30514407 1.4173343 1.7983744
0.30750504 1.4283005 1.7763441
0.31210706 1.4496758 1.7711942
0.31985572 1.4856669 1.7793499
0.32311165 1.50079 1.7660204
0.33471075 1.5546656 1.7974937
0.33377445 1.5503167 1.7612532
0.34410623 1.5983058 1.7842112
0.34593475 1.6067989 1.7625624
0.35350525 1.6419624 1.7699134
0.36112875 1.677372 1.7767693
0.36625624 1.7011882 1.7669791
0.36879805 1.7129943 1.7408441
0.37087288 1.7226316 1.7165645
0.36869761 1.7125279 1.6696438
0.40072954 1.8613099 1.6660856
0.45960224 2.134762 1.7525858
0.52405435 2.4341292 1.8298857
0.57316476 2.6622376 1.8282158
0.37686002 1.7504407 0.79720384
0.37251943 1.7302794 0.76958573
0.37585613 1.7457778 0.75801837
0.37334505 1.7341144 0.73475218
0.37077743 1.7221882 0.71175253
0.37418807 1.73803 0.69809395
0.37742174 1.7530497 0.68612641
0.36895731 1.7137343 0.65106487
0.41049364 1.9066622 0.63137472
0.38251135 1.77669 0.097249836
0.40829551 1.8964523 0.019062528
0.40809661 1.8955284 -0.06347502
0.38407308 1.7839439 -0.13759327
0.44303724 2.0578208 -0.52724862
0.42649013 1.9809628 -0.58821148
0.38910404 1.8073117 -0.55418634
0.38203916 1.7744967 -0.56143343
0.373101 1.7329807 -0.56318152
0.37591952 1.7460723 -0.58678442
0.33893976 1.5743085 -0.54467672
0.31816798 1.4778278 -0.52420831
0.31533399 1.4646645 -0.53237444
0.30853486 1.4330838 -0.53355139
0.30569714 1.4199032 -0.54122472
0.29301804 1.3610111 -0.53093219
0.28627488 1.3296905 -0.53063166
0.28150299 1.307526 -0.53360271
0.2690635 1.249747 -0.51974732
0.26822132 1.2458353 -0.52948248
0.26348677 1.2238443 -0.53139436
0.25876394 1.2019076 -0.53297222
0.25597423 1.1889499 -0.53830773
0.25126654 1.1670836 -0.53933388
0.24274589 1.1275069 -0.53169787
0.24176008 1.122928 -0.54174232
0.24075586 1.1182636 -0.55174547
0.24350864 1.1310498 -0.57055241
0.24245143 1.1261393 -0.58062696
0.25087327 1.165257 -0.61224079
0.27428061 1.2739795 -0.68018103
0.2750366 1.2774909 -0.6948179
0.2739132 1.2722731 -0.70476443
0.2744503 1.2747676 -0.72093296
0.27494872 1.2770827 -0.73719937
0.27358425 1.270745 -0.74857116
0.27401358 1.2727393 -0.76495188
0.27440345 1.2745501 -0.78142482
0.27313817 1.2686731 -0.79136848
0.27364841 1.2710431 -0.80651468
0.2723428 1.2649786 -0.81643021
0.27633849 1.2835379 -0.84247702
0.27517202 1.2781199 -0.85105217
0.26677433 1.2391143 -0.8389442
0.26192746 1.2166015 -0.83742148
0.25883529 1.202239 -0.84126431
0.25402123 1.1798787 -0.83920175
0.25075272 1.1646971 -0.84392166
0.24577954 1.1415976 -0.84258366
0.24422263 1.134366 -0.85274202
0.24473052 1.1367251 -0.86629266
0.24480684 1.1370797 -0.88245082
0.24484234 1.1372445 -0.89868081
0.25807112 1.1986897 -0.96443892
0.25957569 1.2056781 -0.9876036
0.26147816 1.2145146 -1.0082575
0.2598483 1.2069442 -1.0177251
0.26143458 1.2143123 -1.0399507
0.25975373 1.2065051 -1.0494158
0.26124752 1.2134434 -1.0718697
0.2624307 1.2189391 -1.0958639
0.25751936 1.1961268 -1.0920459
0.21209271 0.98512894 -0.91331136
0.19977646 0.92792237 -0.87358427
0.19836831 0.92138177 -0.88079828
0.20305219 0.94313753 -0.91551161
0.20157664 0.93628389 -0.9228431
0.19858155 0.92237222 -0.92314404
0.19836995 0.92138946 -0.93839806
0.19368188 0.89961427 -0.93235266
0.19174778 0.89063078 -0.94133395
0.19001155 0.88256627 -0.94924831
0.18251242 0.84773427 -0.92786628
0.18058468 0.83878034 -0.93634224
0.17040804 0.79151189 -0.89920527
0.16575766 0.76991171 -0.89211005
0.15839528 0.73571491 -0.86955994
0.14007057 0.65060031 -0.78612942
0.095352292 0.44289264 -0.58511031
0.018220915 0.084632568 -0.12249623
0.073965915 0.30809021 1.7414101
0.077506848 0.32283923 1.7487617
0.080627523 0.33583781 1.7563634
0.083752371 0.34885374 1.7536781
0.086394116 0.35985738 1.7411027
0.090053059 0.37509799 1.7581786
0.093180865 0.38812622 1.7551852
0.096310385 0.40116161 1.7520827
0.1005319 0.41874549 1.7683171
0.10254525 0.42713168 1.7455782
0.10772103 0.44869038 1.760532
0.11069188 0.46106485 1.7467874
0.11506342 0.47927365 1.7623726
0.11864929 0.49420986 1.7580043
0.12133278 0.50538743 1.7546401
0.12581351 0.52405101 1.7697575
0.12827097 0.53428704 1.7560421
0.13166294 0.5484156 1.7619323
0.13333896 0.55539674 1.7385784
0.1379288 0.57451475 1.7531139
0.142571 0.59385097 1.7674599
0.14650024 0.61021745 1.772166
0.14930645 0.6219061 1.7572252
0.15414281 0.64205104 1.7602302
0.15682894 0.65323955 1.7558709
0.16080867 0.66981626 1.7599962
0.16393764 0.68284941 1.7546911
0.16618028 0.69219065 1.7400161
0.17017391 0.70882541 1.7437624
0.17416562 0.72545201 1.7365154
0.1791281 0.74612218 1.7490897
0.18415254 0.76705056 1.761426
0.186313 0.77604955 1.746263
0.18986335 0.79083776 1.7392318
0.19339924 0.80556577 1.7320683
0.19839092 0.82635766 1.7328225
0.2029596 0.84538758 1.73428
0.20710364 0.86264873 1.7365037
0.21127443 0.88002133 1.7385412
0.21655113 0.90200031 1.7492573
0.22077589 0.91959774 1.7509135
0.22388695 0.93255627 1.7436495
0.22902091 0.95394075 1.7428559
0.23443855 0.97650689 1.7526759
0.23755947 0.98950642 1.7449477
0.2430422 1.0123436 1.7543349
0.24495912 1.0203282 1.7377645
0.24926798 1.0382758 1.7382315
0.25607389 1.0666245 1.7554595
0.25919202 1.0796125 1.7470422
0.2678183 1.1155435 1.7708575
0.27141565 1.1305275 1.7607785
0.2784535 1.1598423 1.7767469
0.28029293 1.1675041 1.7593379
