# .PCD v0.7 - Point Cloud Data file format
VERSION 0.7
FIELDS x y z
SIZE 4 4 4
TYPE F F F
COUNT 1 1 1
WIDTH 1484
HEIGHT 1
VIEWPOINT 0 0 0 1 0 0 0
POINTS 1484
DATA ascii
0.28447038 0.55830455 1.7512774
0.29453099 0.57804966 1.7645141
0.30064616 0.59005135 1.7595031
0.30424085 0.59710628 1.7457954
0.31027699 0.60895288 1.7406334
0.31885719 0.6257925 1.743879
0.3257539 0.639328 1.7376835
0.33177504 0.65114516 1.7321476
0.3377631 0.66289741 1.7265234
0.3501814 0.68726969 1.7582473
0.35441759 0.6955837 1.7431728
0.36233032 0.71111333 1.746263
0.36731172 0.72088987 1.7301733
0.37526006 0.73648936 1.7329638
0.38410154 0.7538417 1.7346725
0.39211804 0.769575 1.7371234
0.39197856 0.76930124 1.7037102
0.41036484 0.80538636 1.7503867
0.41642761 0.81728518 1.7434256
0.43191409 0.84767914 1.7705904
0.43236136 0.848557 1.735919
0.44451579 0.87241137 1.7439336
0.45366496 0.89036763 1.7439994
0.46284834 0.908391 1.7438456
0.47120807 0.92479789 1.7445951
0.48752254 0.95681685 1.7696676
0.49212602 0.96585166 1.7517256
0.5038923 0.98894435 1.7591139
0.51575428 1.0122248 1.7661819
0.52522105 1.0308043 1.7645638
0.53131568 1.0427659 1.7556888
0.53484643 1.0496953 1.7384129
0.5365541 1.0530467 1.7116082
0.52503002 1.0304295 1.6439764
0.52278614 1.0260257 1.6107036
0.52836084 1.0369666 1.6018536
0.52388513 1.0281825 1.5594823
0.52457917 1.0295446 1.5333802
0.52435386 1.0291023 1.5086422
0.51914632 1.018882 1.4669583
0.52211607 1.0247104 1.4490905
0.52213079 1.0247394 1.4234426
0.52267998 1.0258173 1.3966405
0.5151763 1.0110904 1.3583776
0.5234791 1.0273856 1.3560414
0.52586055 1.0320594 1.3383662
0.52748239 1.0352426 1.3219815
0.52664632 1.0336015 1.2968853
0.52259582 1.0256521 1.2645282
0.52141511 1.0233347 1.2397629
0.52319264 1.0268234 1.2224169
0.52487272 1.0301207 1.2050974
0.52645564 1.0332273 1.1878071
0.53813529 1.0561501 1.1905283
0.53313798 1.0463423 1.159065
0.53501141 1.050019 1.1405362
0.5329302 1.0459344 1.1164259
0.53401607 1.0480655 1.0993114
0.53500712 1.0500106 1.0822408
0.53253341 1.0451556 1.0585167
0.53330988 1.0466795 1.0416058
0.53741616 1.0547385 1.031315
0.53458363 1.0491794 1.0079398
0.53855652 1.0569767 0.99762577
0.54648393 1.0725352 0.99228203
0.54381377 1.0672947 0.96785778
0.54715687 1.0738559 0.95867252
0.54735655 1.0742477 0.94196206
0.53980619 1.0594293 0.91445011
0.54251176 1.0647392 0.9066484
0.54200482 1.0637443 0.89150363
0.54141772 1.0625921 0.87645012
0.54118788 1.0621409 0.86015826
0.54045546 1.0607036 0.84523118
0.54005897 1.0599254 0.82909256
0.5433231 1.0663316 0.81868005
0.54277653 1.0652589 0.80263138
0.53456205 1.0491371 0.77566415
0.54142755 1.0626113 0.77078742
0.53258604 1.045259 0.74557745
0.54248482 1.0646864 0.74850053
0.54542959 1.0704658 0.73804444
0.5366661 1.0532665 0.71205276
0.52773911 1.0357463 0.68645537
0.5265094 1.0333329 0.67127562
0.52914882 1.0385129 0.66112953
0.52746195 1.0352023 0.64733309
0.52937406 1.0389551 0.63971508
0.53157377 1.0432723 0.63080299
0.53003716 1.0402565 0.61589527
0.53619069 1.0523335 0.61155045
0.53424531 1.0485154 0.59799439
0.53224212 1.044584 0.58451915
0.53017235 1.0405219 0.57116693
0.53241497 1.0449233 0.56095427
0.53461707 1.0492451 0.55069894
0.53677845 1.0534871 0.54040164
0.53449488 1.0490053 0.52726007
0.53630501 1.0525578 0.51826525
0.53366423 1.047375 0.50656497
0.53540665 1.0507947 0.49756411
0.53291774 1.04591 0.48473802
0.52639556 1.0331094 0.46700382
0.53245145 1.0449948 0.46052271
0.53425568 1.0485358 0.45027047
0.53155035 1.0432262 0.43775922
0.5332644 1.0465903 0.42752519
0.53921735 1.0582737 0.42059663
0.53657055 1.053079 0.40696019
0.53366035 1.0473675 0.39475054
0.53971326 1.0592469 0.38627124
0.53670681 1.0533464 0.37417531
0.54214424 1.064018 0.36938497
0.5390631 1.0579709 0.35736337
0.53157055 1.0432659 0.34267905
0.53711104 1.0541397 0.33645365
0.53842354 1.0567157 0.32611656
0.5307641 1.0416832 0.31190613
0.53637612 1.0526974 0.3041853
0.53756082 1.0550225 0.29386359
0.53428894 1.0486012 0.28119555
0.530958 1.0420637 0.26867586
0.53630722 1.0525622 0.26189193
0.53732437 1.0545584 0.25157315
0.54274935 1.0652056 0.24322888
0.53477931 1.0495635 0.2289708
0.54012996 1.0600647 0.22050498
0.54545391 1.0705136 0.21185078
0.54169476 1.0631359 0.2010197
0.53789413 1.0556767 0.19030668
0.53853744 1.0569392 0.18126455
0.54355669 1.0667901 0.17494266
0.54414797 1.0679505 0.16578494
0.53577936 1.0515262 0.15275183
0.54530603 1.0702233 0.14616223
0.54135305 1.0624652 0.1345536
0.54186547 1.063471 0.12414267
0.5423367 1.0643957 0.11372229
0.54728961 1.0741163 0.10415402
0.54310918 1.0659118 0.094150916
0.5434615 1.0666033 0.083707772
0.53470957 1.0494267 0.07203728
0.54401028 1.0676804 0.06412077
0.54418916 1.0680314 0.05627669
0.53980851 1.0594339 0.048026618
0.53995943 1.0597301 0.03893571
0.5355401 1.0510566 0.029612336
0.53562719 1.0512276 0.020593839
0.54022259 1.0602466 0.011692994
0.54024839 1.0602971 0.0013084731
0.54931676 1.0780948 -0.0079193749
0.54926443 1.0779922 -0.018477956
0.54917032 1.0778074 -0.029035129
0.53995943 1.0597301 -0.03893571
0.54432064 1.0682894 -0.049727641
0.5532015 1.0857191 -0.05985193
0.54844499 1.0763839 -0.06859827
0.543661 1.0669948 -0.077167064
0.5433346 1.0663542 -0.08761429
0.53391737 1.0478718 -0.096420601
0.53803635 1.0559558 -0.10758387
0.53758961 1.0550791 -0.11792183
0.54167867 1.0631043 -0.12803751
0.54572976 1.0710549 -0.13827674
0.54523391 1.0700817 -0.14746191
0.54920918 1.0778836 -0.15791188
0.54414797 1.0679505 -0.16578494
0.54805034 1.0756093 -0.1763674
0.54751456 1.0745578 -0.18426457
0.54685903 1.0732713 -0.19347845
0.54617321 1.0719253 -0.20266002
0.54545391 1.0705136 -0.21185078
0.54905772 1.0775864 -0.22414969
0.54380816 1.0672836 -0.23147002
0.5428704 1.0654432 -0.2419142
0.54633307 1.072239 -0.25440833
0.54973775 1.0789211 -0.26705381
0.54865879 1.0768036 -0.27761063
0.54312247 1.0659379 -0.28582254
0.54637569 1.0723226 -0.29866001
0.54956818 1.0785882 -0.31164414
0.54392612 1.0675151 -0.31961843
0.54263914 1.0649893 -0.33006153
0.54584455 1.0712802 -0.34192443
0.54900187 1.0774769 -0.35389334
0.54341036 1.0665029 -0.36024535
0.54629821 1.0721705 -0.37364239
0.54498851 1.0696002 -0.38280928
0.53913808 1.058118 -0.39014921
0.5377683 1.0554297 -0.39921603
0.54495227 1.0695291 -0.41477072
0.53493786 1.0498747 -0.41725856
0.5377453 1.0553846 -0.42964324
0.54027683 1.060353 -0.4434551
0.53849941 1.0568646 -0.45382333
0.53690869 1.0537426 -0.46287754
0.53107542 1.0422941 -0.4681685
0.53340042 1.0468572 -0.48215541
0.53146994 1.0430684 -0.49238998
0.53366822 1.047383 -0.50654447
0.53994799 1.0597076 -0.524858
0.53423554 1.0484962 -0.52853376
0.53651267 1.0529654 -0.54168075
0.53462142 1.0492537 -0.55067837
0.53679234 1.0535142 -0.56396955
0.53890657 1.0576637 -0.57734501
0.53717953 1.0542742 -0.58510178
0.53918725 1.0582145 -0.59863091
0.54083115 1.0614409 -0.61355102
0.53436208 1.0487446 -0.61926728
0.53988665 1.0595872 -0.63898152
0.53765839 1.055214 -0.64803302
0.53935957 1.0585527 -0.66193455
0.53705186 1.0540236 -0.67097652
0.53863919 1.0571389 -0.685
0.54050905 1.0608087 -0.69780719
0.54941356 1.0782849 -0.72356516
0.53877389 1.0574033 -0.72368562
0.53588629 1.0517361 -0.73401433
0.54791838 1.0753503 -0.76701188
0.54905331 1.0775777 -0.78164357
0.5497269 1.0788999 -0.79766881
0.54317683 1.0660446 -0.80131626
0.5478853 1.0752854 -0.82169521
0.5487572 1.0769967 -0.83656669
0.54955101 1.0785546 -0.85153604
0.54331303 1.0663118 -0.85363334
0.54034144 1.0604799 -0.86273617
0.54098684 1.0617465 -0.87774009
0.53748888 1.0548812 -0.88810545
0.54477322 1.0691776 -0.916614
0.54112107 1.0620099 -0.92705065
0.53742772 1.0547613 -0.93741673
0.53770369 1.055303 -0.95268589
0.54141301 1.0625829 -0.97436619
0.54102266 1.0618168 -0.99113047
0.53658313 1.0531037 -1.0027717
0.54289818 1.0654976 -1.032655
0.53775197 1.0553976 -1.0456378
0.53021181 1.0405992 -1.0492516
0.5288527 1.0379319 -1.0674325
0.52792394 1.0361091 -1.0843774
0.53019404 1.0405644 -1.1082509
0.55133206 1.0820501 -1.1752875
0.56342751 1.1057888 -1.2195821
0.55918825 1.0974687 -1.2290123
0.56385475 1.1066272 -1.2610884
0.56199443 1.1029761 -1.2790645
0.56251156 1.1039912 -1.3056738
0.56660604 1.1120269 -1.3383772
0.554492 1.0882518 -1.3357944
0.55221289 1.0837789 -1.3538406
0.54914767 1.077763 -1.3732312
0.5156433 1.012007 -1.318163
0.3715201 0.72914928 -1.0357192
0.15222003 0.28211322 1.7508973
0.16126876 0.29888344 1.7574872
0.16854538 0.31236941 1.7544565
0.17482699 0.32401127 1.7415086
0.18317893 0.33949012 1.7581786
0.19242224 0.356621 1.7640564
0.19662328 0.36440688 1.7414497
0.20405829 0.37818637 1.7479517
0.21129377 0.39159608 1.7441351
0.22094108 0.40947568 1.7595211
0.22822388 0.42297304 1.7553939
0.23330037 0.43238145 1.742044
0.2396028 0.44406191 1.7382461
0.24635357 0.45657328 1.7444916
0.25357312 0.46995342 1.7398978
0.26273742 0.48693785 1.7548392
0.26762292 0.49599227 1.7410542
0.27393517 0.50769091 1.7366949
0.28085315 0.52051222 1.7423514
0.29027659 0.53797686 1.7566788
0.29186028 0.54091203 1.7236971
0.30135244 0.55850405 1.7377456
0.31020972 0.57491946 1.7415044
0.31741443 0.58827215 1.7357373
0.324595 0.60158008 1.729838
0.33353442 0.61814773 1.7330748
0.3398158 0.62978917 1.7276547
0.35161483 0.65165663 1.7497745
0.35607231 0.65991777 1.7348835
0.36617959 0.67864984 1.7474115
0.37641266 0.69761509 1.7597008
0.38567832 0.7147873 1.7617978
0.38486189 0.71327424 1.7184647
0.39403129 0.73026812 1.7203337
0.40534556 0.75123715 1.7309644
0.41586819 0.77073896 1.742273
0.42307207 0.7840901 1.7345641
0.43155804 0.79981738 1.7365626
0.4476915 0.82971793 1.7638426
0.45725846 0.84744865 1.7643257
0.46224096 0.85668284 1.7471199
0.47181049 0.87441826 1.7472514
0.47903287 0.88780367 1.7385143
0.49105677 0.91008788 1.7468553
0.50809503 0.94166535 1.7720062
0.50952703 0.94431925 1.7467523
0.52934945 0.98105663 1.7796957
0.52903688 0.98047739 1.7446158
0.54142731 1.0034409 1.7515887
0.54866499 1.0168546 1.7415721
0.55320132 1.0252619 1.7231386
0.54868174 1.0168856 1.6812174
0.54745656 1.0146149 1.6464956
0.54047102 1.0016685 1.5956664
0.54706264 1.0138849 1.5856733
0.5451389 1.0103197 1.5514437
0.54503483 1.0101267 1.5266567
0.53979391 1.0004137 1.4848216
0.53716809 0.99554706 1.4511845
0.54166669 1.0038846 1.4437497
0.54094726 1.0025512 1.4193897
0.55207294 1.0231707 1.4261616
0.54512006 1.0102847 1.3864231
0.54095668 1.0025686 1.3546667
0.55272532 1.0243797 1.3598679
0.55141485 1.0219511 1.3358359
0.55063641 1.0205083 1.3106725
0.54015958 1.0010914 1.2633462
0.54216605 1.00481 1.2459987
0.54407012 1.0083389 1.2286742
0.54135478 1.0033064 1.2066115
0.54962534 1.0186344 1.2038255
0.54795104 1.0155314 1.1793835
0.55281734 1.0245503 1.1692688
0.55426192 1.0272276 1.1520404
0.55277669 1.024475 1.1266272
0.55742425 1.0330883 1.1164259
0.55566078 1.0298201 1.0911974
0.55315936 1.0251842 1.0674325
0.55403268 1.0268028 1.0505351
0.55177939 1.0226265 1.0258043
0.55600911 1.0304657 1.015625
0.54884714 1.0171921 0.98716104
0.54877216 1.0170532 0.97188061
0.54862654 1.0167834 0.95664018
0.55207527 1.023175 0.94780046
0.55549967 1.0295216 0.93888521
0.55564004 1.0297816 0.92245001
0.55944133 1.0368267 0.91220373
0.55517542 1.0289207 0.89106822
0.55459523 1.0278453 0.876104
0.56157231 1.0407761 0.87311029
0.56088364 1.0394998 0.85816646
0.56353873 1.0444205 0.85041744
0.56272149 1.0429059 0.83557868
0.56573826 1.048497 0.82649529
0.56479293 1.0467449 0.81174737
0.56378061 1.0448687 0.79705757
0.56268835 1.0428444 0.78246874
0.56192404 1.041428 0.76666099
0.56107193 1.0398488 0.75094134
0.5637815 1.0448704 0.74188697
0.55063903 1.0205132 0.71059805
0.54912895 1.0177145 0.69657338
0.55164152 1.0223711 0.68771285
0.54180247 1.0041362 0.66374737
0.54385376 1.0079378 0.6562655
0.54622012 1.0123235 0.6474911
0.5443936 1.0089383 0.63386041
0.5466786 1.0131732 0.62507796
0.54473633 1.0095735 0.61157477
0.54694045 1.0136584 0.60278749
0.54880214 1.0171088 0.59523606
0.55124778 1.0216414 0.58512795
0.54909438 1.0176505 0.57182419
0.55115408 1.0214677 0.5629679
0.55317694 1.0252168 0.55409908
0.5551722 1.0289146 0.54517758
0.55336159 1.0255589 0.52954668
0.55092967 1.0210519 0.51655555
0.55252331 1.0240053 0.50895101
0.55871546 1.0354815 0.50399923
0.55202049 1.0230734 0.48599815
0.55401337 1.0267669 0.47583506
0.55596405 1.0303822 0.46563572
0.55763805 1.0334847 0.45667192
0.55927581 1.0365199 0.44770202
0.55665648 1.0316654 0.43393555
0.55418509 1.0270852 0.41901672
0.55590034 1.030264 0.4088164
0.55307668 1.0250309 0.39537054
0.55449247 1.0276549 0.38647568
0.55587924 1.0302249 0.37753791
0.56156945 1.0407708 0.37287518
0.55836403 1.0348301 0.36091033
0.56420791 1.0456607 0.35477203
0.56091607 1.0395598 0.34291166
0.55774403 1.033681 0.32988656
0.55434388 1.0273794 0.31826776
0.56023371 1.0382951 0.31061438
0.55689704 1.0321113 0.29784548
0.55349761 1.025811 0.28522307
0.54513264 1.010308 0.27296165
0.54624301 1.0123659 0.26293322
0.54704845 1.0138587 0.25539875
0.54795754 1.0155435 0.24660477
0.55361074 1.0260208 0.23852991
0.54980111 1.0189602 0.22768115
0.56460828 1.0464027 0.22440758
0.55127811 1.0216975 0.21125002
0.56149065 1.0406247 0.20451969
0.55763084 1.0334712 0.19257499
0.55831355 1.0347366 0.18359236
0.56375104 1.044814 0.17478164
0.55504626 1.0286812 0.16167456
0.56511366 1.0473393 0.15403546
0.56094128 1.0396066 0.14374633
0.55679697 1.0319258 0.13231105
0.56198353 1.0415382 0.12438887
0.55763239 1.0334742 0.11566023
0.56282002 1.0430886 0.10630138
0.55850601 1.0350932 0.095147938
0.55883431 1.0357018 0.086174592
0.55917019 1.0363241 0.075901501
0.55946338 1.0368676 0.06562262
0.56445736 1.046123 0.055807717
0.56464344 1.0464679 0.046719182
0.55532283 1.0291938 0.03573006
0.56019717 1.0382276 0.025741564
0.56027412 1.0383701 0.016743081
0.55557007 1.029652 0.0076575773
0.55558068 1.0296715 -0.0025525419
0.56029719 1.0384129 -0.012871548
0.56022251 1.0382745 -0.023167757
0.56485182 1.0468541 -0.033745781
0.56473488 1.0466373 -0.041530401
0.56456804 1.0463282 -0.050599813
0.56436783 1.0459572 -0.059687022
0.56887591 1.054312 -0.069327742
0.55909085 1.0361772 -0.078449793
0.55878973 1.035619 -0.087448016
0.5536738 1.0261376 -0.096885599
0.55325127 1.0253545 -0.10705689
0.55278659 1.0244932 -0.11722003
0.56172049 1.0410507 -0.12955157
0.56587785 1.0487558 -0.14104487
0.56542742 1.0479208 -0.14884134
0.56016463 1.0381672 -0.15660277
0.55949438 1.036925 -0.16689107
0.56347716 1.0443064 -0.17865545
0.56271535 1.0428945 -0.18900378
0.56211591 1.0417836 -0.19675563
0.56606346 1.0490997 -0.20751409
0.56529546 1.0476762 -0.21660002
0.56449264 1.0461885 -0.22569409
0.56353593 1.0444152 -0.23605929
0.56253624 1.0425626 -0.24640653
0.56626904 1.0494807 -0.25754568
0.56054759 1.038877 -0.26574609
0.56404841 1.0453651 -0.27831855
0.5628736 1.0431879 -0.28867361
0.56165594 1.0409311 -0.29900664
0.56514883 1.0474046 -0.31056464
0.55942219 1.0367912 -0.31703424
0.56283087 1.0431086 -0.32870319
0.56619006 1.0493343 -0.34047949
0.5693121 1.0551205 -0.35370111
0.56328213 1.043945 -0.36123681
0.56176382 1.041131 -0.37157461
0.56020266 1.0382377 -0.38188413
0.56781292 1.0523421 -0.39719608
0.55715895 1.0325967 -0.40114567
0.55995512 1.0377789 -0.41468692
0.56290442 1.043245 -0.42705807
0.56111336 1.0399255 -0.43738642
0.5592795 1.0365268 -0.44768146
0.55321234 1.0252824 -0.45304754
0.55572444 1.0299381 -0.46690238
0.55816352 1.0344585 -0.48088375
0.55177039 1.0226099 -0.48725581
0.55383527 1.0264369 -0.50258708
0.56042027 1.038641 -0.52082062
0.56284285 1.0431308 -0.53393453
0.55629647 1.0309982 -0.54007107
0.55862141 1.035307 -0.5532462
0.55630755 1.0310189 -0.56349099
0.56247371 1.0424466 -0.58251899
0.56003839 1.0379332 -0.59283352
0.55787003 1.0339146 -0.60183197
0.55956215 1.0370506 -0.61669797
0.56117314 1.0400363 -0.63167161
0.55853426 1.0351455 -0.64196038
0.55585277 1.0301759 -0.65220022
0.55760491 1.0334233 -0.66604286
0.56750804 1.0517769 -0.69
0.55680424 1.0319393 -0.68896329
0.55800104 1.0341574 -0.70431048
0.57531893 1.0662531 -0.7406162
0.56819826 1.0530561 -0.74587089
0.55745322 1.0331421 -0.74428707
0.5583359 1.034778 -0.75993127
0.55913109 1.0362517 -0.77566415
0.56378061 1.0448687 -0.79705757
0.56872189 1.0540266 -0.81736362
0.56963986 1.055728 -0.83219528
0.56660932 1.0501113 -0.84132046
0.56784534 1.052402 -0.85492784
0.57240868 1.0608594 -0.87580001
0.56494051 1.0470185 -0.88033772
0.56885576 1.0542747 -0.90272254
0.56509334 1.0473018 -0.91314214
0.56176978 1.041142 -0.92219198
0.56212848 1.0418068 -0.93741673
0.55871707 1.0354843 -0.94641823
0.55894244 1.0359021 -0.96171212
0.56223774 1.0420094 -0.98473608
0.56591022 1.0488156 -1.0066437
0.56531805 1.0477182 -1.0235244
0.56462878 1.0464407 -1.0404596
0.5597468 1.0373927 -1.052093
0.55481952 1.0282611 -1.0636045
0.55387449 1.0265095 -1.080556
0.54535431 1.0107188 -1.0850973
0.54711294 1.0139782 -1.1101872
0.57978797 1.0745356 -1.1972131
0.57879019 1.0726864 -1.2135674
0.58105695 1.0768875 -1.2370474
0.56992245 1.0562516 -1.2320393
0.59174347 1.096693 -1.2988857
0.58308113 1.0806389 -1.3024347
0.5841161 1.0825571 -1.327772
0.57539517 1.0663943 -1.3310611
0.56985754 1.0561312 -1.3415846
0.57681596 1.0690275 -1.3820504
0.55343503 1.0256951 -1.3585873
0.33761355 0.62570775 -0.90388435
0.052633327 0.097546667 -0.15431909
0.15707029 0.27537355 1.7210457
0.16826561 0.29500103 1.7574872
0.1748755 0.30658939 1.7446551
0.1824121 0.31980246 1.7415086
0.19088165 0.33465117 1.7378069
0.19855228 0.3480992 1.7445641
0.20839024 0.36534697 1.7604531
0.21599387 0.37867755 1.7567157
0.22358105 0.39197928 1.7528445
0.23148534 0.405837 1.7590085
0.23514092 0.41224593 1.725938
0.24666013 0.43244123 1.7505866
0.25561646 0.44814333 1.7557698
0.26081082 0.45725003 1.7422112
0.26980793 0.47302365 1.7470982
0.27641723 0.48461097 1.7428843
0.27898037 0.48910466 1.7201879
0.29273665 0.51322198 1.7531139
0.30355188 0.53218311 1.7667873
0.31212345 0.54721063 1.760693
0.31612661 0.55422896 1.7471389
0.32192844 0.56440061 1.7321415
0.33474702 0.58687401 1.7544011
0.34596139 0.60653484 1.7670388
0.34707591 0.6084888 1.7338338
0.35835123 0.62825656 1.7461324
0.3620154 0.63468057 1.7213441
0.37734663 0.66155905 1.7515848
0.38289028 0.67127812 1.7357364
0.39353761 0.68994486 1.748
0.40734723 0.71415573 1.7682053
0.40553945 0.71098638 1.7257277
0.40989164 0.71861655 1.7104324
0.42512339 0.74532062 1.7399331
0.43297684 0.75908917 1.7432196
0.43823844 0.76831377 1.7266271
0.44660833 0.78298777 1.7178682
0.45869938 0.80418563 1.7275648
0.4780429 0.83809841 1.7632828
0.48806465 0.85566843 1.7635262
0.49170953 0.86205858 1.7363976
0.50822198 0.89100802 1.7633533
0.50983799 0.89384115 1.73825
0.52757835 0.92494333 1.7634457
0.5316335 0.93205279 1.7467523
0.5408594 0.94822741 1.7469791
0.5537163 0.97076797 1.7542542
0.56127995 0.98402852 1.7444348
0.56606627 0.99241978 1.7261436
0.56796682 0.9957518 1.699527
0.5752933 1.0085965 1.6894587
0.55612451 0.97499001 1.6067731
0.56879586 0.99720526 1.613212
0.56617886 0.99261719 1.5800799
0.56039721 0.98248088 1.5390861
0.5848428 1.0253385 1.5771936
0.558604 0.9793371 1.4793446
0.55205762 0.96786004 1.439055
0.56132591 0.98410904 1.43713
0.56131577 0.98409128 1.4115909
0.56112802 0.98376215 1.3861629
0.56709993 0.994232 1.3762269
0.56662607 0.99340129 1.3509215
0.56848454 0.99665946 1.3345768
0.57352263 1.0054922 1.3257666
0.57594186 1.0097336 1.3081396
0.56896234 0.99749714 1.2670364
0.5710597 1.0011742 1.2496164
0.56626832 0.99277407 1.2176369
0.57151139 1.0019661 1.2076169
0.57044846 1.0001026 1.1818982
0.57267284 1.0040023 1.1634539
0.57768136 1.0127833 1.1533232
0.5761553 1.0101078 1.1278863
0.57025051 0.99975556 1.0969974
0.57135564 1.001693 1.0800759
0.57600373 1.009842 1.0699714
0.57325852 1.0050291 1.0463705
0.57776082 1.0129225 1.0362338
0.57475471 1.0076523 1.0128641
0.57535166 1.0086988 0.99619132
0.57584846 1.0095698 0.97957516
0.5752033 1.0084388 0.96555287
0.58319288 1.022446 0.96171212
0.57960081 1.0161483 0.93888521
0.5797472 1.016405 0.92245001
0.58713037 1.0293491 0.91962945
0.59009993 1.0345553 0.91185385
0.59401995 1.0414279 0.90142572
0.5859369 1.0272567 0.87311029
0.5856781 1.026803 0.85688782
0.58487284 1.0253912 0.84201926
0.58759081 1.0301563 0.83427519
0.58257836 1.0213686 0.81382346
0.58564371 1.0267427 0.80481106
0.58086193 1.0183594 0.78335404
0.58422679 1.0242586 0.77309346
0.58672118 1.0286318 0.76535934
0.58959633 1.0336725 0.75630516
0.59284389 1.0393659 0.74589181
0.58336443 1.0227467 0.71977437
0.57370526 1.0058124 0.69404882
0.57241249 1.0035459 0.6788516
0.57532579 1.0086535 0.66874385
0.57317245 1.0048783 0.65619576
0.57131296 1.0016183 0.64246589
0.58241689 1.0210855 0.64325333
0.57610732 1.0100237 0.62478197
0.57406932 1.0064507 0.61122942
0.57196784 1.0027664 0.59775609
0.57389396 1.0061432 0.59018767
0.5761075 1.0100241 0.58133602
0.57384413 1.0060558 0.56802696
0.57181096 1.0024912 0.55357337
0.56940269 0.9982692 0.54049903
0.56778371 0.99543083 0.52377385
0.57427275 1.0068073 0.51908547
0.57649523 1.0107038 0.50895101
0.57867384 1.0145231 0.49877781
0.57166171 1.0022297 0.48087263
0.57346225 1.0053864 0.47205859
0.58008528 1.0169978 0.46563572
0.58183193 1.0200599 0.45667192
0.57890946 1.0149363 0.44414881
0.58057475 1.0178559 0.43520382
0.58197355 1.0203083 0.42752519
0.58357221 1.023111 0.41855392
0.57577819 1.0094466 0.40298513
0.58197761 1.0203154 0.3973141
0.5836733 1.0232882 0.38704857
0.57568479 1.0092828 0.37193444
0.5820027 1.0203593 0.36474612
0.58355755 1.0230852 0.3544814
0.5803113 1.0173941 0.34139138
0.57681745 1.0112686 0.32972327
0.57804942 1.0134284 0.32081386
0.57907736 1.0152307 0.31317106
0.58040935 1.0175658 0.3029598
0.58169711 1.0198237 0.2927255
0.57330525 1.0051111 0.27779999
0.57448453 1.0071785 0.26769176
0.57064342 1.0004444 0.25666532
0.57173139 1.0023519 0.24660477
0.56792182 0.995673 0.234521
0.57863921 1.0144626 0.228347
0.57473385 1.0076157 0.21631354
0.58529121 1.0261247 0.21095553
0.58607137 1.0274925 0.20193952
0.57714015 1.0118344 0.18841584
0.57793278 1.013224 0.17824347
0.5835855 1.0231344 0.16948174
0.58429611 1.0243801 0.15919657
0.58488196 1.0254072 0.15017678
0.57559323 1.0091224 0.13879624
0.58595002 1.0272797 0.13213202
0.57664186 1.0109608 0.11975946
0.57707769 1.0117248 0.11087923
0.58247131 1.0211809 0.10157169
0.58288825 1.021912 0.091308735
0.58326083 1.0225651 0.081038818
0.57369769 1.0057992 0.069563366
0.5838728 1.0236379 0.060481258
0.57907838 1.0152324 0.053584673
0.57926399 1.0155579 0.044668872
0.57446402 1.0071425 0.035424676
0.57953441 1.016032 0.026809575
0.58458239 1.024882 0.016743081
0.57967424 1.0162771 0.0076575773
0.56977612 0.99892384 -0.0025089087
0.57469785 1.0075526 -0.012653386
0.57957488 1.016103 -0.02297142
0.57945353 1.0158901 -0.033178624
0.57435989 1.0069602 -0.041737869
0.58900648 1.0326383 -0.053193517
0.58384001 1.0235804 -0.061756428
0.58358967 1.0231416 -0.070742175
0.57836139 1.0139755 -0.079068556
0.57804579 1.0134221 -0.08796946
0.58263326 1.0214648 -0.097713687
0.57731277 1.0121371 -0.10577574
0.58188868 1.0201595 -0.11436892
0.58629894 1.0278914 -0.12566945
0.58081114 1.0182703 -0.13484839
0.58512294 1.0258298 -0.14630254
0.57955664 1.016071 -0.15528677
0.58385789 1.0236119 -0.16561599
0.58330834 1.0226485 -0.17332512
0.57774031 1.0128866 -0.18076751
0.58192891 1.0202301 -0.19128366
0.58107972 1.0187413 -0.20152591
0.58517778 1.0259259 -0.21223371
0.58423787 1.024278 -0.22253239
0.58325344 1.0225521 -0.23281413
0.58222467 1.0207485 -0.24307813
0.58599442 1.0273576 -0.25543466
0.58003408 1.016908 -0.26354983
0.58384413 1.0235877 -0.27476227
0.57781875 1.0130241 -0.28267944
0.57688969 1.0113953 -0.29030627
0.58057404 1.0178547 -0.30167153
0.57462591 1.0074265 -0.30805331
0.58300257 1.0221123 -0.32217157
0.57699674 1.011583 -0.32844293
0.58049697 1.0177195 -0.34010333
0.57938164 1.0157642 -0.34776431
0.57804757 1.0134252 -0.35669348
0.58120859 1.0189672 -0.36986813
0.57958728 1.0161247 -0.38009089
0.57792187 1.0132049 -0.39028472
0.58089709 1.0184209 -0.40370452
0.57912946 1.0153221 -0.41392049
0.57731777 1.0121458 -0.42410499
0.58057475 1.0178559 -0.43520382
0.56965065 0.99870396 -0.43702239
0.57721424 1.0119642 -0.45304754
0.57088155 1.0008619 -0.45822456
0.56887859 0.99735039 -0.46826208
0.576235 1.0102476 -0.48471963
0.56982797 0.99901474 -0.48965871
0.57677215 1.0111892 -0.5076713
0.57907927 1.015234 -0.52188796
0.57680076 1.0112394 -0.53206742
0.5792591 1.0155493 -0.54517758
0.58135182 1.0192182 -0.55966443
0.57445675 1.0071299 -0.56549877
0.56755584 0.9950313 -0.5711332
0.57830852 1.0138828 -0.59472758
0.57164705 1.0022039 -0.59900492
0.57374132 1.0058756 -0.61248285
0.57577205 1.0094358 -0.62603986
0.57304335 1.0046519 -0.6361571
0.57027102 0.9997915 -0.64622593
0.57605302 1.0099285 -0.66618866
0.57779294 1.0129789 -0.6800949
0.5705725 1.0003201 -0.68513274
0.58029568 1.0173666 -0.71071935
0.58141387 1.0193269 -0.72617519
0.58244222 1.02113 -0.74172419
0.57962239 1.0161862 -0.75066864
0.56806183 0.99591839 -0.74990147
0.5817073 1.0198414 -0.78079444
0.59105349 1.0362271 -0.80652916
0.58798146 1.0308412 -0.81562495
0.5889439 1.0325286 -0.83037931
0.58129448 1.0191177 -0.83492273
0.58568549 1.026816 -0.85686719
0.58594441 1.02727 -0.87308967
0.58610737 1.0275556 -0.88938606
0.58272171 1.0216199 -0.89840317
0.57930982 1.0156382 -0.90734732
0.5797472 1.016405 -0.92245001
0.57960081 1.0161483 -0.93888521
0.57551932 1.0089928 -0.949058
0.58282191 1.0217956 -0.9783417
0.57478821 1.0077111 -0.98210847
0.58123749 1.0190178 -1.0130477
0.5842784 1.0243491 -1.0364497
0.57920432 1.0154532 -1.0479871
0.57099092 1.0010537 -1.051409
0.56279236 0.98668009 -1.0546218
0.5690152 0.99758989 -1.0850973
0.56371456 0.98829681 -1.0963099
0.5801791 1.0171622 -1.1482043
0.60741282 1.064908 -1.220623
0.60559261 1.0617168 -1.2383921
0.60299081 1.0571555 -1.2575072
0.6036607 1.0583298 -1.2839127
0.60146558 1.0544814 -1.3018095
0.58842355 1.0316162 -1.298894
0.59271902 1.039147 -1.3315245
0.59275782 1.0392151 -1.3582232
0.57389343 1.0061423 -1.3383662
0.40404364 0.70836395 -1.0252167
0.08445476 0.14806496 -0.23461492
0.16534039 0.27462947 1.7508973
0.17321493 0.28770906 1.7480332
0.18311085 0.30414608 1.7646432
0.19096276 0.31718811 1.7512923
0.19994894 0.33211407 1.7577602
0.2066983 0.34332472 1.7445641
0.21693988 0.36033595 1.7604531
0.22734006 0.37761056 1.7761269
0.23275392 0.38660297 1.7528445
0.23965843 0.39807132 1.7493436
0.25061938 0.41627744 1.774684
0.25719231 0.42719501 1.7607546
0.26268399 0.43631664 1.7472907
0.2774784 0.46089008 1.7805016
0.28087738 0.46653575 1.7470982
0.28873041 0.4795796 1.7422795
0.29559162 0.49097604 1.7379494
0.3057251 0.50780767 1.7524736
0.30826551 0.51202726 1.7296532
0.3185198 0.52905965 1.7438867
0.32812104 0.54500723 1.7478282
0.3367883 0.55940354 1.752296
0.34184971 0.56781048 1.7379097
0.35705623 0.59306842 1.780135
0.36221206 0.60163224 1.7546911
0.37597072 0.62448525 1.77625
0.38395134 0.63774103 1.7698214
0.39190271 0.65094829 1.763258
0.4019067 0.66756481 1.765709
0.40673855 0.67559046 1.7505832
0.4124431 0.68506569 1.7345535
0.4170596 0.69273371 1.7193549
0.43175706 0.7171461 1.7501106
0.43864498 0.72858685 1.7436604
0.44549161 0.73995912 1.7371234
0.45699108 0.75905967 1.74831
0.46385548 0.77046138 1.7415015
0.4788959 0.79544342 1.7601217
0.48924625 0.8126353 1.7607561
0.50709587 0.84228343 1.7874597
0.50854033 0.84468269 1.7515701
0.52411234 0.87054771 1.7689129
0.53564924 0.88971043 1.7674828
0.5426026 0.9012599 1.7594923
0.55318683 0.91884029 1.7587827
0.56108212 0.93195426 1.7493565
0.57722008 0.95875937 1.7651339
0.58794272 0.97656965 1.7636993
0.59018397 0.98029232 1.7369829
0.59699994 0.99161357 1.7282053
0.59412664 0.98684108 1.6957766
0.59200346 0.98331445 1.6622348
0.58667332 0.97446114 1.6206912
0.5879463 0.97657555 1.5944339
0.58815241 0.97691786 1.5694929
0.58905834 0.97842258 1.5434052
0.58271462 0.96788573 1.5026779
0.5831852 0.96866739 1.4768814
0.58346844 0.96913785 1.4511845
0.58356524 0.9692986 1.4255917
0.580235 0.96376717 1.3923291
0.58492279 0.9715535 1.3849365
0.5837701 0.96963888 1.3608501
0.5857783 0.97297448 1.3445387
0.58770424 0.97617352 1.3282278
0.59555936 0.9892208 1.3282889
0.59126222 0.98208332 1.2956934
0.59016913 0.98026758 1.2707777
0.59238183 0.98394293 1.2533715
0.59096545 0.98159033 1.2286742
0.58514279 0.97191888 1.1981158
0.59051323 0.98083919 1.1881702
0.59583873 0.98968482 1.1781342
0.59813374 0.99349684 1.1596551
0.59292358 0.98484278 1.1272206
0.59797466 0.99323255 1.1171461
0.59174454 0.98288435 1.0863594
0.59978288 0.99623603 1.0843774
0.59382039 0.98633242 1.0526755
0.59528625 0.98876721 1.034637
0.59605008 0.99003589 1.0179161
0.6011712 0.99854201 1.0065322
0.59781277 0.99296367 0.98338348
0.60221624 1.0002778 0.97323167
0.59752178 0.9924804 0.95286429
0.60526979 1.0053498 0.95027381
0.60092437 0.99813205 0.92882842
0.60456914 1.0041859 0.91989499
0.60051626 0.99745423 0.89742148
0.60453272 1.0041255 0.88722724
0.60436368 1.0038447 0.87099969
0.60409486 1.0033982 0.85484582
0.60791951 1.009751 0.84459263
0.60747933 1.0090197 0.82852155
0.61118537 1.0151756 0.81821209
0.61438638 1.0204923 0.80915058
0.604693 1.0043918 0.78335404
0.60301727 1.0016083 0.770163
0.60602945 1.0066116 0.76122367
0.60466307 1.0043421 0.74684644
0.59050518 0.98082584 0.71539098
0.59370267 0.98613691 0.70537305
0.59685498 0.99137282 0.69530141
0.58624905 0.97375637 0.67120081
0.59333956 0.98553377 0.66751128
0.5828706 0.96814489 0.64261758
0.59024656 0.98039627 0.63759875
0.58856648 0.9776057 0.62279737
0.58224964 0.96711349 0.60338783
0.5934034 0.98563975 0.60529888
0.59151983 0.98251116 0.59065735
0.58955002 0.97923928 0.57612598
0.58749479 0.97582555 0.56170666
0.59000069 0.97998786 0.55174547
0.59246165 0.98407549 0.54174232
0.59547436 0.98907959 0.52918041
0.59783351 0.99299818 0.51908547
0.59069604 0.98114282 0.50093603
0.59292829 0.98485059 0.49092305
0.59511536 0.98848331 0.48087263
0.60176569 0.99952942 0.47583506
0.5940429 0.98670202 0.45949122
0.59608847 0.99009967 0.44942316
0.59783912 0.99300748 0.44059563
0.59979951 0.99626362 0.43046406
0.60171419 0.99944395 0.42029974
0.59871542 0.99446303 0.4067961
0.60030192 0.99709815 0.39791062
0.60207009 1.000035 0.38773903
0.59888351 0.99474216 0.37446848
0.60054618 0.99750388 0.36432177
0.60176319 0.99952531 0.35669348
0.60334575 1.002154 0.34649873
0.59496629 0.98823565 0.33076483
0.60140264 0.99892652 0.32335845
0.59269595 0.9844647 0.30925837
0.60387951 1.0030406 0.30551481
0.59522778 0.98867011 0.29040542
0.59651226 0.99080354 0.28032377
0.58755404 0.97592396 0.26693195
0.59362 0.98599958 0.26042297
0.59981 0.99628109 0.25249144
0.59573722 0.9895162 0.24156742
0.59148455 0.98245251 0.23201971
0.59757048 0.99256128 0.22390106
0.59855551 0.99419737 0.2137823
0.60446042 1.0040054 0.20664133
0.6002804 0.99706244 0.19475618
0.59603977 0.99001878 0.18302833
0.59674245 0.99118596 0.17420925
0.59741193 0.99229789 0.16535984
0.59795737 0.99320382 0.1577756
0.59856063 0.99420589 0.1489289
0.59913033 0.99515218 0.14005327
0.59453857 0.98752522 0.13006848
0.60023153 0.99698126 0.12103911
0.59555715 0.9892171 0.11118107
0.60111493 0.99844855 0.10325374
0.59122235 0.98201704 0.09272892
0.6018101 0.99960321 0.086706936
0.59698725 0.99159247 0.077140339
0.59731168 0.99213141 0.067037031
0.59755856 0.99254149 0.058182307
0.59779769 0.99293864 0.048070051
0.59796941 0.99322391 0.039228916
0.60326272 1.0020161 0.030627029
0.59820867 0.99362129 0.021520071
0.60343361 1.0022999 0.012762467
0.59831023 0.99378997 0.0025307254
0.59829885 0.99377102 -0.0075921281
0.5982604 0.99370718 -0.015183931
0.6033259 1.002121 -0.025523415
0.60318804 1.001892 -0.03573006
0.60300428 1.0015867 -0.045933984
0.60277456 1.0012052 -0.05613441
0.60249895 1.0007473 -0.06633056
0.59707326 0.9917354 -0.074594826
0.59671479 0.99113995 -0.084693819
0.59641612 0.99064386 -0.09226387
0.59603488 0.99001062 -0.10110066
0.59555715 0.9892171 -0.11118107
0.60016364 0.99686849 -0.1222983
0.60471499 1.0044283 -0.13357979
0.60409075 1.0033914 -0.14380583
0.60853422 1.010772 -0.15532617
0.59759659 0.99260461 -0.16283253
0.60213697 1.0001462 -0.17186861
0.60643655 1.0072877 -0.18359236
0.59540915 0.98897129 -0.1905877
0.59961009 0.99594903 -0.20236911
0.60374993 1.0028253 -0.21430705
0.60276234 1.0011849 -0.22451369
0.60678536 1.0078671 -0.23667552
0.60064954 0.99767554 -0.24487488
0.59952444 0.99580681 -0.25502789
0.60338193 1.0022141 -0.26738974
0.60231251 1.0004377 -0.27630427
0.60120547 0.99859893 -0.28522307
0.60506648 1.005012 -0.29655579
0.60387951 1.0030406 -0.30551481
0.59287101 0.98475546 -0.30799466
0.60158569 0.9992305 -0.32207617
0.60525936 1.0053325 -0.33371827
0.5989787 0.99490029 -0.33984995
0.60256022 1.0008491 -0.35159945
0.60115951 0.99852264 -0.36049938
0.59992969 0.99647987 -0.36811993
0.60336608 1.0021877 -0.38009089
0.60185331 0.99967498 -0.38900194
0.60007948 0.99672866 -0.3991698
0.60288948 1.0013961 -0.41392049
0.60100347 0.99826342 -0.42410499
0.59424043 0.98703009 -0.43075508
0.59709424 0.99177021 -0.44437626
0.59532875 0.98883772 -0.45319268
0.59326625 0.98541194 -0.46324772
0.59592599 0.98982972 -0.47708419
0.5937559 0.98622531 -0.48714843
0.6060214 1.0065982 -0.5078367
0.60400599 1.0032506 -0.51678324
0.60195071 0.9998368 -0.52572012
0.6042456 1.0036486 -0.54007107
0.60645676 1.0073214 -0.55453938
0.59929204 0.99542069 -0.5604344
0.60599858 1.0065602 -0.57939816
0.60831004 1.0103996 -0.59283352
0.60595477 1.0064875 -0.60183197
0.60814208 1.0101206 -0.61540186
0.60149485 0.99907959 -0.61842054
0.5990389 0.99500024 -0.62731725
0.59655362 0.99087226 -0.6361571
0.59852809 0.99415189 -0.64986622
0.59558028 0.98925549 -0.65996796
0.59704262 0.99168444 -0.67505711
0.59841412 0.99396253 -0.69024569
0.59969401 0.99608845 -0.70553166
0.60088158 0.99806094 -0.72091305
0.59802806 0.99332136 -0.72977746
0.61250931 1.0173746 -0.76018506
0.59653288 0.99083781 -0.75285381
0.61119545 1.0151922 -0.78244805
0.60809243 1.0100381 -0.7914837
0.6134817 1.0189897 -0.81172663
0.61026323 1.0136439 -0.82079536
0.60701656 1.0082511 -0.82979554
0.61259401 1.0175153 -0.84911203
0.60922813 1.0119246 -0.85816646
0.60583448 1.0062877 -0.86715025
0.6106497 1.0142858 -0.88810545
0.60713822 1.0084532 -0.89710939
0.6081785 1.0101812 -0.9109078
0.60456914 1.0041859 -0.91989499
0.60093272 0.99814594 -0.92880809
0.60126138 0.99869186 -0.94398057
0.60043311 0.99731606 -0.96173835
0.59662354 0.99098837 -0.97060931
0.6000762 0.99672323 -0.9936555
0.60336626 1.002188 -1.0168915
0.60205197 1.000005 -1.034951
0.59354138 0.98586899 -1.0383983
0.58884495 0.97806817 -1.0484008
0.58350307 0.96919537 -1.059568
0.58557403 0.97263527 -1.0844278
0.58868599 0.97780418 -1.1069994
0.61671948 1.0243677 -1.1801389
0.63027501 1.0468833 -1.2246177
0.61819768 1.0268229 -1.2196583
0.6305992 1.0474217 -1.2660381
0.62842715 1.0438139 -1.2839127
0.63595569 1.0563189 -1.3250852
0.62648678 1.040591 -1.3284143
0.61972392 1.029358 -1.3402852
0.630714 1.0476124 -1.3882391
0.6161322 1.0233922 -1.386344
0.35125193 0.58342749 -0.86384863
0.16977385 0.26752079 1.7414101
0.17690493 0.27875757 1.7287564
0.18603273 0.29314068 1.7356153
0.19523808 0.30764598 1.7423077
0.20350596 0.32067409 1.7492437
0.21049497 0.331687 1.7361094
0.21860485 0.34446612 1.7326151
0.22924525 0.3612327 1.7484157
0.23345509 0.36786637 1.7155387
0.24556059 0.38694155 1.7406827
0.25369051 0.39975229 1.7366172
0.26078027 0.41092396 1.7329556
0.27036723 0.42603058 1.7382461
0.2800234 0.44124627 1.7433555
0.28613126 0.45087075 1.7398978
0.29808351 0.46970445 1.7643764
0.30301064 0.47746837 1.7404335
0.31623784 0.49831107 1.763882
0.32098457 0.50579077 1.7397542
0.32731867 0.51577169 1.7250339
0.33984023 0.53550255 1.7485267
0.34885803 0.5497123 1.7530016
0.35791576 0.56398499 1.7573324
0.36213446 0.57063258 1.7435989
0.37027356 0.58345777 1.7376348
0.37939838 0.5978362 1.741565
0.38444883 0.60579437 1.7268794
0.39880586 0.62841743 1.7481549
0.40696487 0.64127403 1.7415932
0.41844556 0.6593647 1.7540072
0.43107527 0.67926592 1.7653248
0.43704885 0.6886788 1.749174
0.44290441 0.69790566 1.7329638
0.45333964 0.71434897 1.7346725
0.46143356 0.72710294 1.7272233
0.47090623 0.74202949 1.7295201
0.47551298 0.74928856 1.7138711
0.48851925 0.76978314 1.7237409
0.49809083 0.78486556 1.725541
0.51905209 0.81789517 1.7611736
0.5246442 0.82670695 1.7439336
0.53544259 0.84372252 1.7439994
0.54898572 0.86506307 1.7524785
0.56368548 0.88822615 1.7594923
0.57189125 0.90115637 1.750245
0.58956587 0.92900711 1.7651509
0.60067111 0.94650626 1.7639219
0.6078788 0.95786369 1.7553006
0.61311561 0.96611559 1.7369829
0.61225444 0.96475857 1.7020239
0.60808837 0.9581939 1.6589735
0.60969484 0.96072531 1.6325989
0.60612971 0.95510763 1.6006174
0.5970245 0.94076008 1.5513324
0.60425568 0.95215458 1.5415502
0.60503829 0.9533878 1.5156122
0.59914756 0.94410551 1.473834
0.59535354 0.9381271 1.4414824
0.60122722 0.94738251 1.4329662
0.60374361 0.95134777 1.4165207
0.60614759 0.95513576 1.4001074
0.60425532 0.95215404 1.3771994
0.60645252 0.9556163 1.3608501
0.61279267 0.96560669 1.3509215
0.60509545 0.95347786 1.3105874
0.61120063 0.96309805 1.3006829
0.61369127 0.96702266 1.2832187
0.60885996 0.95940971 1.2509687
0.60305601 0.95026428 1.2202137
0.60437369 0.95234054 1.2042757
0.60998172 0.96117741 1.194387
0.61181277 0.96406269 1.177229
0.61797053 0.97376573 1.1659728
0.61579657 0.97034013 1.1417682
0.61794019 0.97371793 1.1234426
0.61606568 0.97076416 1.0982623
0.62117761 0.97881925 1.0881871
0.61899173 0.97537488 1.0631994
0.61996543 0.97690922 1.0463705
0.62082922 0.97827035 1.0295913
0.61754733 0.97309893 1.0062871
0.62222916 0.98047626 0.99619132
0.62276644 0.98132282 0.97957516
0.62206876 0.98022348 0.96555287
0.62185097 0.97988033 0.95033467
0.62155396 0.97941232 0.93515891
0.62955469 0.99201941 0.93250114
0.62491119 0.98470241 0.91117901
0.62914795 0.99137855 0.90096694
0.62426019 0.98367667 0.87993151
0.63265467 0.99690425 0.87568825
0.62706298 0.98809314 0.85613316
0.63055146 0.99359012 0.84716201
0.62525052 0.98523718 0.82660121
0.62861812 0.9905436 0.81765676
0.62752223 0.9888168 0.80303001
0.63079315 0.99397099 0.79405391
0.62464094 0.98427659 0.77525687
0.61477983 0.96873802 0.74866039
0.63179559 0.99555051 0.75479364
0.63076299 0.99392349 0.73915774
0.61138242 0.96338457 0.70263904
0.60965234 0.96065837 0.68873763
0.61745751 0.97295731 0.68388617
0.60673702 0.95606458 0.658719
0.61444896 0.9682166 0.65376526
0.60775876 0.95767456 0.63520759
0.61576849 0.97029591 0.62885213
0.61396271 0.96745044 0.61407602
0.61681074 0.97193819 0.60405356
0.61926699 0.97580862 0.59523606
0.62168157 0.97961336 0.58640409
0.62406534 0.98336965 0.57751763
0.62158889 0.97946733 0.56424379
0.62420356 0.98358738 0.55409908
0.63162941 0.99528867 0.54812849
0.6292901 0.99160254 0.53368372
0.62656271 0.98730487 0.52062291
0.61884916 0.97515023 0.50369406
0.61596656 0.97060794 0.49092305
0.61767501 0.97330004 0.48338869
0.61963254 0.97638464 0.47458258
0.62182802 0.97984421 0.46447313
0.6189844 0.97536331 0.45069364
0.6158058 0.97035474 0.43828633
0.61732972 0.97275591 0.43075508
0.61907214 0.9755016 0.42195541
0.62078243 0.97819656 0.41311097
0.61739206 0.9728542 0.400976
0.61924344 0.97577155 0.3909058
0.62082654 0.97826612 0.38205984
0.61748624 0.97300261 0.36888582
0.61918759 0.97568351 0.35881531
0.62597275 0.98637515 0.35159945
0.61216033 0.96461034 0.33299652
0.6186589 0.97485042 0.32699826
0.61998022 0.97693253 0.3181625
0.62108272 0.97866976 0.31058285
0.62251133 0.98092091 0.30045602
0.61869341 0.97490484 0.28788707
0.62001604 0.97698891 0.27779999
0.61591369 0.97052467 0.26670632
0.60667735 0.95597053 0.25231504
0.613074 0.96605009 0.2445149
0.61419398 0.96781486 0.234521
0.61526722 0.96950597 0.22450924
0.62670165 0.98752379 0.21941246
0.62242889 0.98079103 0.20743962
0.62337518 0.9822821 0.19729477
0.61898351 0.97536194 0.18554901
0.62512523 0.98503977 0.17696077
0.62592888 0.98630613 0.16677317
0.61066192 0.96224922 0.15384543
0.62190509 0.97996563 0.14765279
0.61717004 0.97250432 0.13760994
0.61763936 0.97324395 0.13006848
0.61815411 0.97405505 0.12125302
0.62396473 0.98321104 0.11342002
0.62447131 0.98400927 0.10325374
0.61953515 0.97623122 0.093535259
0.61989939 0.97680515 0.08471401
0.62561905 0.98581791 0.075258262
0.62594718 0.98633486 0.065066494
0.61549121 0.96985894 0.055174846
0.61572576 0.97022855 0.04514879
0.62662494 0.98740292 0.03573006
0.62141114 0.97918731 0.025305267
0.6214965 0.97932178 0.016459299
0.62154579 0.97939944 0.0075921281
0.61620045 0.97097653 -0.0012444195
0.62153542 0.97938311 -0.010122782
0.63219106 0.99617374 -0.019296547
0.62673682 0.98757923 -0.028075289
0.63198072 0.99584228 -0.036035445
0.63178813 0.99553883 -0.046326581
0.62619537 0.98672605 -0.05613441
0.62590909 0.98627484 -0.06633056
0.62022829 0.97732335 -0.075867631
0.61984992 0.97672719 -0.085965849
0.61948055 0.97614515 -0.094786353
0.61379749 0.96719009 -0.10146873
0.61869752 0.97491133 -0.11118107
0.61289567 0.96576899 -0.1189501
0.62836593 0.99014628 -0.13102166
0.62781221 0.98927373 -0.13996208
0.62713385 0.98820478 -0.15018137
0.62640774 0.98706061 -0.16038923
0.62573242 0.98599654 -0.1693213
0.63031906 0.99322391 -0.17973347
0.62416512 0.98352683 -0.1883955
0.628658 0.99060655 -0.19896676
0.62770373 0.98910284 -0.20919757
0.63196802 0.99582231 -0.22125626
0.62578672 0.98608208 -0.22832662
0.63008392 0.99285334 -0.23924153
0.62908787 0.99128383 -0.24820325
0.6332866 0.99789995 -0.25931409
0.63204992 0.99595129 -0.26961797
0.62571537 0.98596966 -0.27630427
0.6243996 0.98389632 -0.28648421
0.62303627 0.98174804 -0.29664236
0.62698466 0.9879697 -0.30806836
0.63087857 0.99410552 -0.31960365
0.62420142 0.98358399 -0.32716224
0.62799054 0.9895547 -0.3388353
0.63172346 0.99543691 -0.35061485
0.63026887 0.99314481 -0.3596172
0.62878084 0.99080008 -0.36857805
0.62747478 0.98874211 -0.37625051
0.63100404 0.99430329 -0.38832313
0.63423818 0.99939942 -0.40179932
0.62727654 0.98842973 -0.4088164
0.62534106 0.98537987 -0.41901672
0.63341212 0.99809784 -0.43610749
0.62158591 0.97946262 -0.43804562
0.61477524 0.96873081 -0.44329673
0.61819291 0.97411615 -0.45446151
0.62625825 0.98682511 -0.47071946
0.62431186 0.98375803 -0.47964033
0.62233353 0.98064071 -0.4885129
0.6203143 0.97745895 -0.49737725
0.6231705 0.98195952 -0.5102098
0.62564892 0.98586494 -0.52443659
0.62317288 0.98196334 -0.53460598
0.62549824 0.98562747 -0.54899043
0.62290734 0.98154491 -0.55915648
0.62540966 0.98548788 -0.57243025
0.62270921 0.98123264 -0.58259398
0.62473023 0.98441738 -0.59727263
0.62666112 0.9874599 -0.61206114
0.61904973 0.97546631 -0.61752975
0.62121421 0.97887695 -0.63110447
0.6229232 0.98156989 -0.64605516
0.61987859 0.97677231 -0.65617555
0.61678672 0.9719004 -0.666246
0.61905688 0.97547752 -0.67883146
0.62085718 0.97831434 -0.69277519
0.62258571 0.98103815 -0.70678937
0.61925715 0.97579312 -0.71690196
0.62946701 0.99188131 -0.7429958
0.63047224 0.99346524 -0.75863796
0.63630843 1.0026617 -0.77857637
0.61927795 0.97582591 -0.77224261
0.63778889 1.0049944 -0.81043911
0.63445824 0.9997462 -0.81949389
0.63060218 0.99367011 -0.82979554
0.62669814 0.98751825 -0.84003401
0.62756699 0.98888737 -0.85484582
0.62784624 0.98932737 -0.87099969
0.6280219 0.98960412 -0.88722724
0.62384939 0.98302931 -0.89742148
0.6238445 0.98302168 -0.9137212
0.62009221 0.97710901 -0.92257446
0.61991525 0.97683012 -0.93893987
0.62018567 0.9772563 -0.95411736
0.61682636 0.97196281 -0.96167225
0.62047029 0.9777047 -0.98463708
0.62799734 0.98956549 -1.0143369
0.61861908 0.97478771 -1.019166
0.62180179 0.97980285 -1.0425684
0.61628258 0.97110599 -1.0539207
0.60741234 0.95712864 -1.0570974
0.59529293 0.93803155 -1.0519615
0.60192692 0.94848502 -1.0824325
0.61597222 0.97061688 -1.1272006
0.64481533 1.0160664 -1.2007591
0.64597344 1.0178913 -1.2267908
0.64021248 1.0088135 -1.2372645
0.64473152 1.0159343 -1.270708
0.64606547 1.0180362 -1.2958015
0.63921177 1.0072366 -1.3075866
0.63307327 0.9975639 -1.317947
0.61980313 0.97665346 -1.3131992
0.61908609 0.97552359 -1.34089
0.33172712 0.52271831 -0.78531694
0.17391834 0.26028717 1.7420973
0.18338802 0.27445957 1.7491257
0.19617935 0.29360312 1.7752213
0.20251575 0.30308625 1.7524914
0.20864689 0.31226215 1.729699
0.22438166 0.33581087 1.7848765
0.22813599 0.34142965 1.7525352
0.23793854 0.35610017 1.7586011
0.2491788 0.37292242 1.7741868
0.25530377 0.38208911 1.7610303
0.26634341 0.3986111 1.766089
0.27489564 0.41141039 1.7618382
0.28187814 0.42186046 1.7478497
0.28822759 0.43136308 1.7444916
0.29725242 0.4448697 1.7500377
0.30572563 0.45755076 1.745302
0.31245878 0.46762758 1.7309228
0.32154125 0.48122048 1.7360697
0.33355179 0.49919555 1.7498705
0.33832526 0.50633955 1.7257046
0.3531996 0.52860057 1.7586163
0.3578437 0.53555095 1.7342529
0.36623809 0.548114 1.7285661
0.37759036 0.56510389 1.7421203
0.38703689 0.57924163 1.7461619
0.3954879 0.59188944 1.7400161
0.40284944 0.60290676 1.7345362
0.41238624 0.61717963 1.7381389
0.42196018 0.63150805 1.7415932
0.42828387 0.64097214 1.736585
0.43898523 0.65698785 1.7388959
0.45208386 0.67659128 1.7500699
0.45339251 0.67854983 1.7158104
0.46655378 0.69824708 1.726609
0.4788093 0.71658874 1.738057
0.48721752 0.72917253 1.7304701
0.50069779 0.74934721 1.7405115
0.51950723 0.77749753 1.7679394
0.5174976 0.77448988 1.7245178
0.53549993 0.80143225 1.7524115
0.54397559 0.81411701 1.7439336
0.55517185 0.83087343 1.7439994
0.56360596 0.84349597 1.7352127
0.58338022 0.87309021 1.7606479
0.57931209 0.86700183 1.7183728
0.611009 0.91443956 1.7772361
0.61367291 0.91842639 1.7506566
0.62514257 0.935592 1.7493612
0.62949598 0.94210732 1.7323593
0.62246335 0.93158221 1.6808016
0.62646681 0.93757385 1.6639094
0.62935686 0.94189912 1.6482524
0.63095075 0.9442845 1.6219211
0.61391002 0.91878122 1.5456246
0.62792099 0.93975013 1.5520905
0.62549341 0.93611705 1.518072
0.61186147 0.91571534 1.461503
0.62141377 0.93001145 1.4610009
0.61736792 0.92395639 1.4287271
0.61911029 0.92656404 1.4135705
0.62160939 0.93030423 1.3972243
0.62401956 0.93391132 1.3808726
0.63069057 0.94389516 1.3710184
0.6301527 0.94309014 1.3457669
0.6330359 0.94740522 1.3282278
0.61962765 0.92733836 1.2830063
0.62504619 0.93544775 1.2744626
0.62748832 0.93910259 1.2571574
0.62981051 0.94257802 1.2398732
0.63201314 0.94587451 1.2226123
0.63409668 0.94899279 1.2053771
0.63220662 0.94616407 1.1809692
0.62623906 0.93723303 1.1495733
0.63571274 0.95141137 1.1467719
0.63333172 0.94784784 1.1227089
0.63543361 0.9509936 1.1045069
0.63335371 0.9478808 1.0794837
0.63449585 0.94959015 1.0626823
0.62670231 0.93792629 1.033653
0.631064 0.94445401 1.0250194
0.63600945 0.95185548 1.0150681
0.63671756 0.95291519 0.99847049
0.64153415 0.96012366 0.98843133
0.63721704 0.95366275 0.96668601
0.64129472 0.95976537 0.95791
0.64160836 0.96023476 0.94148183
0.64181185 0.96053928 0.92511719
0.64627254 0.96721524 0.9150008
0.64628756 0.96723765 0.89870113
0.64566314 0.96630317 0.88372922
0.64494115 0.9652226 0.86884761
0.64861232 0.97071695 0.85994804
0.64825505 0.97018224 0.84386712
0.64275903 0.96195686 0.82334673
0.64623702 0.96716207 0.81447852
0.64966947 0.97229904 0.80558312
0.64387363 0.96362495 0.78540033
0.64765686 0.96928704 0.77525687
0.63743246 0.9539851 0.74866039
0.63167959 0.94537532 0.72783673
0.64459437 0.96470368 0.72852236
0.62875277 0.94099504 0.69864029
0.64637423 0.96736741 0.7042731
0.63065338 0.94383949 0.67367893
0.62909329 0.9415046 0.658719
0.63187248 0.94566405 0.65004361
0.63015264 0.94309008 0.63520759
0.62833744 0.94037342 0.62047553
0.64110965 0.95948839 0.62004876
0.62406284 0.93397605 0.59256589
0.62691194 0.93824005 0.58274096
0.63467169 0.9498533 0.57738245
0.63246673 0.94655335 0.56295872
0.63017064 0.94311702 0.54864854
0.6328066 0.94706202 0.53872937
0.63539439 0.95093489 0.52876914
0.63762152 0.95426804 0.52001083
0.62965077 0.942339 0.50312734
0.63146675 0.9450568 0.4956989
0.63895762 0.95626765 0.4896788
0.64130735 0.95978427 0.47962382
0.63845938 0.955522 0.46577606
0.64069325 0.95886523 0.45572981
0.64806283 0.96989459 0.44924283
0.63435298 0.94937634 0.42974505
0.63615555 0.95207405 0.42102399
0.63817251 0.95509267 0.41101566
0.63989949 0.95767725 0.40222257
