# .PCD v0.7 - Point Cloud Data file format
VERSION 0.7
FIELDS x y z
SIZE 4 4 4
TYPE F F F
COUNT 1 1 1
WIDTH 1538
HEIGHT 1
VIEWPOINT 0 0 0 1 0 0 0
POINTS 1538
DATA ascii
1.2503867 1.3315266 0.65358227
1.2537704 1.3351299 0.63959986
1.2316147 1.3115364 0.610735
1.2482184 1.3292177 0.60127449
1.2517627 1.332992 0.58533943
1.2421367 1.3227412 0.563429
1.2515951 1.3328134 0.55246556
1.2478818 1.3288591 0.53565341
1.2510341 1.332216 0.51972514
1.2537112 1.3350668 0.5057714
1.249709 1.3308049 0.48916799
1.2456012 1.3264306 0.47271544
1.2550179 1.3364583 0.45924854
1.2573844 1.3389785 0.44522008
1.2533296 1.3346604 0.42690337
1.2424722 1.3230984 0.40653843
1.2448534 1.3256342 0.39068404
1.2538449 1.3352091 0.37681496
1.2487923 1.3298287 0.36286801
1.2506505 1.3318076 0.34894377
1.2524401 1.3337132 0.33496734
1.2611374 1.3429749 0.3207036
1.2627752 1.3447189 0.30664307
1.2510341 1.332216 0.28742635
1.2594749 1.3412045 0.27293473
1.2610574 1.3428897 0.25686869
1.2489681 1.3300159 0.23819402
1.2571387 1.3387169 0.22347118
1.2584258 1.3400874 0.2074368
1.2526666 1.3339545 0.19233237
1.2537678 1.3351272 0.17635618
1.2615931 1.3434602 0.16123812
1.2556839 1.3371675 0.14436473
1.2496697 1.330763 0.12765434
1.2502998 1.331434 0.1137272
1.2576174 1.3392265 0.1023268
1.2512785 1.3324764 0.087799974
1.2516451 1.3328667 0.075834654
1.2520505 1.3332983 0.05987592
1.2454834 1.326305 0.045673262
1.2525305 1.3338094 0.031937905
1.2526608 1.3339481 0.017981663
1.2595637 1.3412991 0.0040142541
1.2595547 1.3412895 -0.0080284895
1.2594762 1.3412058 -0.022061829
1.2593238 1.3410437 -0.036125995
1.2590601 1.3407629 -0.052178349
1.2655921 1.3477187 -0.066564701
1.2652068 1.3473084 -0.080695868
1.2579122 1.3395405 -0.094277687
1.2642157 1.3462529 -0.10891099
1.2636102 1.3456082 -0.12299333
1.256205 1.3377224 -0.13434191
1.2622885 1.3442006 -0.1491726
1.2681674 1.3504611 -0.16615175
1.260314 1.3420981 -0.18133171
1.2594746 1.3412043 -0.19337766
1.2584283 1.34009 -0.20740472
1.2708987 1.3533697 -0.22384584
1.2629032 1.3448553 -0.23672657
1.2684104 1.3507199 -0.25217125
1.2672535 1.3494879 -0.26429307
1.2723945 1.3549626 -0.28193751
1.2706618 1.3531175 -0.29814711
1.2690682 1.3514204 -0.31229576
1.2676419 1.3499014 -0.32442263
1.2659072 1.3480542 -0.33856913
1.2708266 1.3532928 -0.35453951
1.2689341 1.3512776 -0.36872071
1.2803792 1.3634654 -0.38689935
1.2585354 1.340204 -0.39286366
1.2029771 1.2810404 -0.38959131
1.187264 1.2643076 -0.40041289
1.1249198 1.1979179 -0.39452267
1.1164824 1.188933 -0.40287149
1.1143465 1.1866585 -0.4152993
1.1187606 1.191359 -0.43027729
1.1164815 1.1889321 -0.44272965
1.114132 1.1864302 -0.4551847
1.1186491 1.1912403 -0.46858349
1.122371 1.1952037 -0.48566625
1.1132541 1.1854951 -0.49524403
1.1037223 1.1753448 -0.50642025
1.1136806 1.1859493 -0.52663052
1.1108922 1.1829801 -0.53905183
1.1205845 1.1933012 -0.55966294
1.104283 1.1759418 -0.56729174
1.1132911 1.1855347 -0.58990699
1.1097249 1.1817369 -0.60407662
1.1065313 1.1783361 -0.6164515
1.0969032 1.1680833 -0.62512773
1.1126744 1.1848778 -0.64847553
1.1155949 1.1879878 -0.66463006
1.1125932 1.1847914 -0.675282
1.1153282 1.187704 -0.69159412
1.1111543 1.1832592 -0.70578587
1.1068959 1.1787244 -0.71992385
1.1212405 1.1939998 -0.74644786
1.1173105 1.1898149 -0.75891864
1.1065526 1.1783588 -0.76883793
1.1203855 1.1930894 -0.79603636
1.1217172 1.1945075 -0.81474072
1.1168075 1.1892791 -0.82900923
1.1172493 1.1897496 -0.84961742
1.1255212 1.1985583 -0.86963212
1.1088948 1.1808531 -0.87266159
1.1223006 1.1951288 -0.89944899
1.1175719 1.1900932 -0.91192716
1.1187178 1.1913134 -0.92932385
1.1131237 1.1853563 -0.94354981
1.1140594 1.1863528 -0.96100914
1.1148657 1.1872113 -0.97857237
1.116302 1.1887408 -0.99441695
1.1161323 1.1885601 -1.0138903
1.110033 1.1820651 -1.02808
1.1153477 1.1877247 -1.0530477
1.1212587 1.1940193 -1.0764278
1.1212848 1.1940471 -1.0944734
1.1155379 1.1879272 -1.1069345
1.1313983 1.2048168 -1.1438769
1.1309782 1.2043695 -1.1622316
1.1295567 1.2028557 -1.1824297
1.1335088 1.2070643 -1.2085751
1.1372336 1.2110308 -1.2349105
1.1461874 1.2205657 -1.2674675
1.1286839 1.2019262 -1.2680087
1.1381983 1.2120581 -1.2990457
1.1421069 1.2162203 -1.3241224
1.1414839 1.2155569 -1.3412814
1.1397327 1.2136921 -1.3603165
1.143133 1.2173131 -1.3857473
1.1463168 1.2207034 -1.4113616
1.1378419 1.2116786 -1.425921
1.1458485 1.2202047 -1.4582632
1.1473377 1.2217906 -1.4860834
1.1384165 1.2122905 -1.500653
1.1484152 1.2229381 -1.5440093
1.1441443 1.21839 -1.5654263
1.1297941 1.2031085 -1.5730529
1.1056126 1.1773578 -1.5665087
0.84865725 0.90372819 -1.2209244
0.80264956 0.85473496 -1.1750667
0.81477052 0.86764252 -1.2138144
0.97482908 1.0380875 -1.4746466
1.0225282 1.0888819 -1.5740623
1.003749 1.0688841 -1.5724105
0.97466576 1.0379137 -1.5571969
0.94245136 1.0036088 -1.532369
0.90042531 0.95885557 -1.4932951
0.61338186 0.65318531 -1.101595
0.22085145 0.22434811 1.7519397
0.23156831 0.23523465 1.7491257
0.23959443 0.24338783 1.7469279
0.25168595 0.25567082 1.7536781
0.2609463 0.26507777 1.7407012
0.27159283 0.27589285 1.737389
0.28380418 0.28829753 1.7436857
0.29775825 0.30247253 1.7595313
0.30851865 0.31340331 1.7557604
0.31616899 0.32117477 1.7426658
0.32910058 0.3343111 1.7585019
0.33798617 0.34333739 1.744702
0.3563593 0.36200142 1.7788937
0.36128086 0.36700088 1.7456192
0.37808478 0.38407084 1.7697575
0.38890472 0.39506212 1.764987
0.39969507 0.40602329 1.7600821
0.41354534 0.42009285 1.7746556
0.41850442 0.42513043 1.7511762
0.42788345 0.43465796 1.7465647
0.43957949 0.44653919 1.7512774
0.44761103 0.45469788 1.7471389
0.464338 0.4716897 1.7703104
0.47012994 0.47757334 1.7457954
0.48079967 0.48841199 1.7398808
0.5006538 0.50858045 1.7608781
0.51276714 0.52088559 1.7646099
0.52219391 0.53046161 1.7589839
0.5316118 0.54002857 1.7532421
0.54247576 0.55106461 1.757398
0.55321378 0.56197262 1.7505832
0.56390971 0.57283789 1.7436349
0.57157016 0.58061957 1.7275094
0.59431517 0.60372472 1.7563616
0.59927768 0.60876578 1.7418009
0.60857987 0.61821532 1.735235
0.61731344 0.62708718 1.7177269
0.63756442 0.64765877 1.7365626
0.65809226 0.66851157 1.7550234
0.67217219 0.68281448 1.755548
0.68630844 0.69717449 1.7558554
0.70260555 0.71372968 1.7657393
0.71338856 0.7246834 1.7569323
0.72411722 0.73558193 1.7479913
0.7456497 0.75745535 1.7646155
0.75275224 0.76467031 1.7467523
0.77458906 0.78685284 1.7627463
0.78535098 0.79778516 1.7530439
0.79719758 0.80981928 1.7540721
0.8104403 0.82327169 1.7536848
0.82370377 0.8367452 1.7531314
0.84492624 0.85830367 1.7689021
0.86771929 0.88145757 1.7829739
0.87455267 0.88839912 1.7639458
0.89761418 0.91182584 1.777347
0.92226404 0.93686593 1.7888855
0.93318039 0.94795507 1.7773451
0.94964558 0.96468097 1.7721354
0.96907228 0.98441523 1.7760421
0.98560774 1.0012126 1.7702403
0.99640757 1.0121833 1.7579126
1.0129396 1.028977 1.7515877
1.0506802 1.0673152 1.7848835
1.0674734 1.0843743 1.7777045
1.0967485 1.1141129 1.7945181
1.1090657 1.1266251 1.7790698
1.1340313 1.151986 1.7874566
1.1306785 1.1485802 1.7512079
1.1653343 1.1837847 1.7735697
1.1879398 1.206748 1.784421
1.197453 1.2164118 1.7714539
1.2265427 1.2459621 1.7869447
1.2374356 1.2570274 1.7716194
1.2682059 1.288285 1.7842578
1.2777159 1.2979455 1.7704179
1.287173 1.3075523 1.7564431
1.2812202 1.3015052 1.7218184
1.2852755 1.3056247 1.701003
1.2995168 1.3200916 1.693728
1.291641 1.3120911 1.6614693
1.3005134 1.321104 1.647346
1.3040105 1.3246564 1.6265737
1.3126954 1.3334789 1.6123166
1.3159348 1.3367695 1.5915285
1.2986842 1.3192458 1.5430844
1.2917984 1.3122509 1.5078644
1.2943854 1.3148789 1.4874675
1.2979426 1.3184924 1.4651016
1.3013248 1.3219283 1.4427609
1.3101078 1.3308502 1.4265186
1.2963434 1.3168681 1.3861645
1.3047801 1.3254383 1.3699862
1.3017484 1.3223586 1.3419832
1.2984741 1.3190324 1.3141608
1.3064699 1.3271548 1.2979586
1.2969956 1.3175305 1.2647195
1.3105134 1.3312622 1.2541115
1.2947074 1.3152061 1.2157573
1.3011748 1.3217758 1.201646
1.2948393 1.3153399 1.1787163
1.2951814 1.3156875 1.1592546
1.295377 1.3158863 1.1398867
1.2971666 1.3177042 1.1165189
1.2979157 1.3184651 1.0952464
1.3045713 1.3252261 1.0790596
1.3042125 1.3248616 1.0598922
1.3045269 1.325181 1.0387516
1.2985281 1.3190871 1.0128839
1.3046794 1.325336 0.99669266
1.291361 1.3118067 0.9684782
1.297963 1.3185132 0.95037621
1.2897768 1.3101974 0.92922491
1.2884372 1.3088367 0.91070086
1.2995813 1.3201571 0.90104049
1.2923775 1.3128393 0.87624967
1.2913314 1.3117766 0.85592371
1.2843891 1.3047245 0.82954115
1.2823784 1.3026819 0.81149572
1.2872976 1.3076789 0.79551297
1.2791975 1.2994505 0.77167493
1.2773887 1.2976131 0.75191647
1.2819432 1.3022398 0.73599803
1.2929301 1.3134006 0.72367853
1.2907591 1.3111953 0.70399427
1.2808272 1.301106 0.68491232
1.2844628 1.3047992 0.67093539
1.2814101 1.3016982 0.65358227
1.2915008 1.3119487 0.64289677
1.2882626 1.3086592 0.62561214
1.2787235 1.298969 0.60327911
1.289047 1.309456 0.59040886
1.2926124 1.3130778 0.57435161
1.2960793 1.3165997 0.55825055
1.2855737 1.3059278 0.53847265
1.2816719 1.3019642 0.5217343
1.2911925 1.3116355 0.51042527
1.2935085 1.3139882 0.49836817
1.2893513 1.3097652 0.48175517
1.2922516 1.3127114 0.46569824
1.2882372 1.3086334 0.44723952
1.2902632 1.3106915 0.43521133
1.2925594 1.313024 0.42113882
1.2879245 1.3083158 0.4049201
1.2831964 1.3035128 0.38879487
1.2921124 1.3125699 0.37683716
1.2869328 1.3073084 0.36283404
1.2891051 1.309515 0.34681171
1.2980839 1.3186359 0.33253178
1.2929152 1.3133855 0.31668356
1.2943417 1.3148345 0.30461454
1.2959338 1.3164519 0.29053366
1.2835776 1.3039 0.27344742
1.2988952 1.3194602 0.2622897
1.2933106 1.3137871 0.24680132
1.2947723 1.315272 0.23070408
1.295969 1.3164877 0.21662067
1.2901193 1.3105452 0.20140372
1.2981386 1.3186916 0.18838456
1.2921265 1.3125843 0.17329673
1.2928945 1.3133644 0.16123812
1.3007127 1.3213063 0.1479727
1.2944711 1.314966 0.1330754
1.2952365 1.3157434 0.11696807
1.2888201 1.3092257 0.1023268
1.2963386 1.3168629 0.088759534
1.2967184 1.3172488 0.076663442
1.3041021 1.3247495 0.062901542
1.2903755 1.3108056 0.048165586
1.297583 1.3181272 0.036322329
1.2977396 1.3182862 0.022214016
1.2978262 1.3183742 0.0060702441
1.304836 1.325495 -0.0081157554
1.3047546 1.3254124 -0.022301631
1.3045969 1.3252522 -0.036518667
1.3043636 1.3250151 -0.050701119
1.3040535 1.3247002 -0.064913064
1.3036684 1.3243089 -0.079088785
1.3032773 1.3239115 -0.09124966
1.3027499 1.3233758 -0.10544858
1.3021477 1.3227642 -0.11960895
1.2944711 1.314966 -0.1330754
1.2936071 1.3140883 -0.1491726
1.299632 1.3202085 -0.16615175
1.2915837 1.3120329 -0.18133171
1.297552 1.3180957 -0.19642451
1.3034309 1.3240677 -0.21169001
1.3092242 1.3299527 -0.22706246
1.3079684 1.3286769 -0.24132222
1.299492 1.3200665 -0.25621307
1.297874 1.3184228 -0.27236804
1.3030885 1.3237199 -0.29004508
1.3014987 1.3221048 -0.30420375
1.2998292 1.3204089 -0.31837708
1.3049927 1.3256541 -0.33426809
1.303162 1.3237944 -0.34847862
1.2946476 1.3151453 -0.3587209
1.2926905 1.3131572 -0.37278584
1.2906536 1.311088 -0.38686115
1.2611302 1.2810973 -0.39235243
1.2247776 1.244169 -0.39504841
1.2018268 1.2208549 -0.4033927
1.1447973 1.1629225 -0.39931229
1.1491086 1.167302 -0.41599905
1.1468494 1.165007 -0.42848003
1.144518 1.1626388 -0.44096452
1.1488835 1.1670732 -0.45607764
1.1535105 1.1717736 -0.46953219
1.144228 1.1623441 -0.47926885
1.1483457 1.1665272 -0.49458721
1.1456598 1.1637987 -0.5070861
1.1425118 1.1606008 -0.52131796
1.153019 1.1712743 -0.53996652
1.1434416 1.1615453 -0.54932123
1.1537304 1.1719971 -0.56826854
1.1506492 1.168867 -0.58082396
1.1475079 1.165676 -0.59331685
1.150869 1.1690903 -0.60928535
1.1414865 1.1595592 -0.6164664
1.1507457 1.1689651 -0.63789093
1.1467968 1.1649536 -0.65218109
1.1432738 1.1613749 -0.66463006
1.1466762 1.164831 -0.67911881
1.1494583 1.1676573 -0.69550139
1.139267 1.1573045 -0.70400065
1.1482882 1.1664687 -0.72448933
1.1507716 1.1689913 -0.74106944
1.1600926 1.17846 -0.76014286
1.1490465 1.1672391 -0.77028888
1.1506093 1.1688263 -0.78888744
1.1457359 1.1638759 -0.80317008
1.1470432 1.165204 -0.82188278
1.1550896 1.1733778 -0.84347659
1.1560975 1.1744015 -0.86244977
1.1507736 1.1689934 -0.87679791
1.1576778 1.1760069 -0.90066081
1.1589571 1.1773064 -0.91807842
1.154717 1.1729991 -0.92887121
1.1497018 1.1679046 -0.94142681
1.1567436 1.175058 -0.96399313
1.1515402 1.169772 -0.97656977
1.152283 1.1705266 -0.99423921
1.1536708 1.1719364 -1.0102023
1.1482195 1.1663989 -1.0227442
1.1486347 1.1668205 -1.0405616
1.1548045 1.1730881 -1.0639038
1.1557616 1.1740603 -1.0801376
1.1499486 1.1681553 -1.0926716
1.1556699 1.1739672 -1.1163905
1.1612175 1.1796025 -1.1402683
1.1665616 1.1850314 -1.1643602
1.1669106 1.1853859 -1.1810079
1.1710051 1.1895453 -1.2071989
1.1635702 1.1819925 -1.2217193
1.1728822 1.191452 -1.2541488
1.1874595 1.2062601 -1.2929721
1.1794987 1.1981733 -1.307694
1.1714482 1.1899953 -1.3223163
1.1708229 1.18936 -1.3394762
1.1744968 1.1930921 -1.3648034
1.1779501 1.1966002 -1.3903171
1.1704768 1.1890086 -1.4030832
1.1682526 1.1867491 -1.4222913
1.1712077 1.189751 -1.4480556
1.178076 1.196728 -1.4824233
1.1782272 1.1968817 -1.5122352
1.1729318 1.1915025 -1.5353999
1.1737385 1.1923219 -1.5635877
1.1590382 1.1773888 -1.5712372
1.1380798 1.1560985 -1.573471
0.86971331 0.88348317 -1.2209244
0.8275193 0.84062111 -1.1821455
0.83989751 0.85319531 -1.2209545
1.0368378 1.0532537 -1.5337939
1.0418791 1.0583748 -1.5684166
1.0274588 1.0437262 -1.5739962
1.0035821 1.0194715 -1.5645769
0.9740175 0.98943877 -1.548774
0.92740279 0.94208604 -1.5007991
0.42708862 0.43385056 -0.75516158
0.09153223 0.09298142 -0.17713359
0.22618112 0.21918474 1.741752
0.23704611 0.22971366 1.7491257
0.24526209 0.23767549 1.7469279
0.25770843 0.24973686 1.7638645
0.26725927 0.25899225 1.7508842
0.27666715 0.26810911 1.7378069
0.29051763 0.28153116 1.7436857
0.30311778 0.29374158 1.7498101
0.31271484 0.30304179 1.7465323
0.32364804 0.31363678 1.7426658
0.33503449 0.32467103 1.7488397
0.34135064 0.33079177 1.7361039
0.36200121 0.35080355 1.7799977
0.36104032 0.34987241 1.7179462
0.38217777 0.37035602 1.7613565
0.39106426 0.37896761 1.7470982
0.39926741 0.38691702 1.7434967
0.41241968 0.39966246 1.7480789
0.42200404 0.40895036 1.7436377
0.43388727 0.42046604 1.7485566
0.44587079 0.43207887 1.7533132
0.455461 0.44137242 1.7485267
0.46616232 0.45174274 1.7537163
0.47323182 0.45859355 1.7393515
0.48534018 0.47032735 1.7435989
0.49225131 0.4770247 1.7290853
0.50577295 0.4901281 1.7323014
0.52489746 0.50866103 1.7537806
0.5302273 0.51382601 1.7289424
0.54542285 0.52855152 1.7415932
0.5563162 0.53910792 1.7348992
0.57612252 0.55830157 1.7553581
0.57493305 0.55714887 1.7120564
0.59803474 0.57953596 1.7410895
0.61207795 0.59314483 1.7427392
0.62297601 0.6037057 1.735235
0.63382655 0.61422068 1.7275985
0.65323985 0.63303345 1.7474114
0.65742278 0.63708699 1.7217478
0.67846727 0.65748054 1.7400578
0.69492739 0.67343152 1.7503045
0.70665485 0.68479615 1.7526532
0.71981919 0.69755328 1.7537616
0.72940385 0.70684153 1.7460656
0.74262619 0.7196548 1.7468553
0.75587767 0.73249638 1.7474834
0.76782024 0.74406958 1.749089
0.77360761 0.7496779 1.7323724
0.79458934 0.77001065 1.7494603
0.8119399 0.78682452 1.7577715
0.83726722 0.81136841 1.7825726
0.8523894 0.8260228 1.7806512
0.87158608 0.84462571 1.7867695
0.87457657 0.84752363 1.7596647
0.90212333 0.87421834 1.7816609
0.92024362 0.89177811 1.7882627
0.92855555 0.8998329 1.7675365
0.9567585 0.92716348 1.788262
0.96933091 0.93934697 1.7750845
0.99499553 0.96421772 1.7854602
0.99724275 0.96639544 1.7576083
1.0203471 0.98878509 1.7703378
1.0541207 1.0215139 1.7965909
1.0621268 1.0292724 1.7744253
1.0732062 1.0400093 1.7614509
1.1090813 1.0747746 1.7844882
1.1392088 1.1039702 1.8009589
1.1518396 1.1162103 1.7853123
1.1775212 1.1410974 1.793388
1.1740396 1.1377236 1.7570475
1.2033784 1.1661549 1.7735735
1.2293789 1.1913511 1.7805084
1.2491285 1.2104896 1.7817106
1.2804914 1.2408824 1.7948406
1.3019015 1.2616303 1.7932768
1.3182392 1.2774627 1.7843583
1.3293712 1.2882503 1.7682713
1.324694 1.2837179 1.7315179
1.3302159 1.2890689 1.7085744
1.3275971 1.2865312 1.6829507
1.3207557 1.2799013 1.6487441
1.3243641 1.2833982 1.6280507
1.3236666 1.2827221 1.5987904
1.3281697 1.2870859 1.5761583
1.3312823 1.2901024 1.555546
1.3176187 1.2768613 1.5158845
1.320331 1.2794896 1.495504
1.3240423 1.2830862 1.4731605
1.3219253 1.2810347 1.4446673
1.3309283 1.2897593 1.4285485
1.3226527 1.2817396 1.3942143
1.3208736 1.2800156 1.3641675
1.3235672 1.2826258 1.3421777
1.3319278 1.2907279 1.3260429
1.335338 1.2940326 1.3020185
1.3316101 1.2904199 1.2744141
1.3207041 1.2798513 1.2434312
1.3344301 1.2931527 1.2328634
1.336087 1.2947583 1.2111452
1.3315213 1.2903339 1.1840986
1.3379828 1.2965955 1.1698899
1.3330336 1.2917993 1.1430993
1.3278514 1.2867775 1.1165189
1.3347977 1.293509 1.1003406
1.3354312 1.2941228 1.0790596
1.3288252 1.2877213 1.0549394
1.3353858 1.2940788 1.0387516
1.3418444 1.3003378 1.0224848
1.3102236 1.2696949 0.97779799
1.3163013 1.2755847 0.96183914
1.3414422 1.299948 0.95951444
1.3345718 1.29329 0.93419433
1.3339312 1.2926693 0.91352808
1.3324391 1.2912233 0.89495724
1.3250066 1.2840207 0.87020022
1.323216 1.2822855 0.85190582
1.3213128 1.2804412 0.83366817
1.3127134 1.2721078 0.81149572
1.3237156 1.2827697 0.80148566
1.3220775 1.2811822 0.78146225
1.3064244 1.2660134 0.75588715
1.3105359 1.2699976 0.74195814
1.3145616 1.2738987 0.72801775
1.311265 1.2707043 0.71238673
1.3089668 1.2684771 0.69287217
1.313259 1.2726365 0.67693949
1.3106951 1.2701519 0.65756571
1.3079888 1.2675294 0.63830608
1.3051414 1.2647702 0.6191625
1.3157895 1.2750888 0.60642117
1.3127027 1.2720975 0.58734977
1.3094776 1.268972 0.56839973
1.319864 1.2790372 0.55535805
1.323294 1.2823611 0.53929818
1.3124013 1.2718053 0.51972514
1.3221319 1.2812349 0.50843334
1.3179477 1.2771803 0.49175617
1.3136524 1.2730176 0.47522989
1.3096144 1.2691047 0.45681864
1.3190632 1.2782611 0.44522008
1.3148093 1.2741389 0.42690337
1.310427 1.2698921 0.4087241
1.3129385 1.2723259 0.39278448
1.3015709 1.26131 0.3708238
1.3173755 1.2766258 0.36283404
1.3193289 1.2785187 0.34879994
1.321201 1.2803328 0.33477759
1.3230002 1.2820764 0.3207036
1.3176342 1.2768763 0.30500326
1.3194954 1.27868 0.28898001
1.3210433 1.28018 0.2749255
1.3225106 1.2816019 0.26088709
1.3169764 1.2762389 0.24349009
1.3184521 1.277669 0.22747716
1.3267957 1.2857544 0.21458928
1.3279325 1.2868561 0.20049152
1.3218491 1.2809609 0.18534791
1.3228259 1.2819074 0.17130354
1.3237276 1.2827814 0.15721703
1.3244382 1.2834699 0.14514932
1.3251947 1.2842031 0.13107863
1.3258755 1.2848628 0.11696807
1.3193076 1.2784979 0.1023268
1.3198307 1.2790049 0.088279754
1.3273925 1.2863327 0.076663442
1.3277737 1.2867023 0.06256336
1.3208996 1.2800407 0.048165586
1.3211511 1.2802845 0.032112427
1.3284695 1.2873765 0.018178184
1.3213493 1.2804765 0.0040142541
1.3213241 1.2804521 -0.012042685
1.3211983 1.2803302 -0.028098708
1.3353302 1.2940251 -0.044632513
1.3278223 1.2867494 -0.060530305
1.3345675 1.293286 -0.077077843
1.3268615 1.2858182 -0.092790753
1.3263147 1.2852883 -0.10688027
1.3256892 1.2846822 -0.12099579
1.3248805 1.2838985 -0.13710071
1.3168142 1.2760818 -0.1523671
1.3086581 1.2681779 -0.16744797
1.3291407 1.2880269 -0.1843148
1.32809 1.2870088 -0.19845814
1.3340986 1.2928314 -0.21370041
1.3328865 1.2916569 -0.22789568
1.3315995 1.2904097 -0.24204525
1.3373454 1.2959778 -0.2575832
1.3356801 1.2943641 -0.27382457
1.3268181 1.2857761 -0.28850228
1.332045 1.2908413 -0.30624348
1.330075 1.2889323 -0.3224186
1.3280039 1.2869253 -0.33856913
1.3261108 1.2850908 -0.35266364
1.3308921 1.2897241 -0.37072638
1.3355473 1.2942353 -0.38893202
1.2909626 1.2510297 -0.39235243
1.2534423 1.2146701 -0.39693737
1.2089771 1.1715803 -0.39833865
1.1712494 1.1350195 -0.40287149
1.1686801 1.1325297 -0.41708896
1.1733042 1.1370109 -0.43204552
1.1712484 1.1350187 -0.44272965
1.1687838 1.1326302 -0.4551847
1.1731576 1.1368688 -0.47035155
1.1705413 1.1343334 -0.48282608
1.1678627 1.1317377 -0.49524403
1.1784172 1.1419656 -0.51540995
1.1683102 1.1321713 -0.52663052
1.1653849 1.1293366 -0.53905183
1.1623986 1.1264426 -0.55141336
1.172897 1.1366162 -0.57036483
1.1769552 1.1405489 -0.58440089
1.1872112 1.1504877 -0.60374475
1.1838621 1.1472422 -0.61636502
1.1737447 1.1374377 -0.62534714
1.1769646 1.1405581 -0.64146811
1.1805946 1.1440758 -0.65588665
1.1769679 1.1405611 -0.66840637
1.173264 1.136972 -0.68091565
1.1827152 1.1461307 -0.70119131
1.1722456 1.135985 -0.70977336
1.1951516 1.1581825 -0.73663157
1.1774075 1.1409873 -0.74287266
1.1727072 1.1364324 -0.75715202
1.1938714 1.1569419 -0.78851533
1.1824232 1.1458478 -0.79862893
1.1908891 1.1540518 -0.82002902
1.1792955 1.1428169 -0.82995862
1.1810892 1.1445551 -0.84706676
1.1834452 1.1468382 -0.86244977
1.1913611 1.1545092 -0.88440228
1.1927822 1.1558863 -0.90183008
1.1815233 1.1449758 -0.90963358
1.1890111 1.1522319 -0.9319948
1.1846051 1.1479622 -0.94281137
1.1794068 1.1429247 -0.9553653
1.1864868 1.1497858 -0.97808051
1.1872468 1.1505222 -0.99581307
1.1817454 1.145191 -1.0084223
1.1769804 1.1405734 -1.019171
1.1835026 1.1468937 -1.0423323
1.182961 1.1463689 -1.0620931
1.17626 1.1398753 -1.0764278
1.1993029 1.1622053 -1.1185039
1.1803848 1.1438724 -1.1217611
1.1909981 1.1541574 -1.1531888
1.1963617 1.159355 -1.1773762
1.2015436 1.1643767 -1.2017154
1.193967 1.1570345 -1.2162704
1.197817 1.1607654 -1.2426819
1.2014259 1.1642627 -1.2692785
1.2114861 1.1740117 -1.3003454
1.2043287 1.1670756 -1.3131745
1.2027045 1.1655018 -1.3321813
1.200959 1.1638101 -1.3512008
1.1945825 1.1576309 -1.3621173
1.1970334 1.1600062 -1.3893871
1.1992328 1.1621374 -1.4168195
1.2011787 1.1640232 -1.4444098
1.2082633 1.1708885 -1.4787562
1.2084647 1.1710838 -1.5085675
1.20427 1.1670189 -1.5299349
1.1998992 1.1627831 -1.5513147
1.1953516 1.1583763 -1.5727043
1.1595672 1.1236988 -1.5525157
0.99173576 0.9610588 -1.3482307
0.85079056 0.82447338 -1.1769873
0.84338224 0.81729424 -1.1872811
0.97105682 0.94101954 -1.3910898
1.0801046 1.0466942 -1.5780386
1.0370263 1.0049484 -1.5384263
1.0419526 1.0097224 -1.5730212
0.99829638 0.96741652 -1.5337567
0.96834481 0.93839139 -1.5174419
0.89044183 0.86289817 -1.4264011
0.21487768 0.20823096 -0.37532315
0.22720045 0.21002194 1.7325908
0.23689754 0.21898584 1.7301805
0.24940531 0.23054789 1.7472963
0.25918412 0.23958734 1.7446551
0.26606038 0.24594368 1.7325194
0.28184989 0.26053935 1.7586017
0.29148006 0.2694414 1.7454343
0.30603546 0.28289628 1.7613665
0.31416857 0.29041445 1.7484157
0.32536063 0.30076027 1.7446157
0.33465829 0.30935496 1.7310122
0.34766954 0.3213824 1.7366172
0.36616379 0.33847833 1.7607546
0.37398222 0.34570563 1.7472907
0.38027093 0.35151884 1.734338
0.39643699 0.36646259 1.7590176
0.40850782 0.37762076 1.7643764
0.41385466 0.38256332 1.7410542
0.42361599 0.39158657 1.7366949
0.43431404 0.40147576 1.7423514
0.44405976 0.41048461 1.7377898
0.45873451 0.42404982 1.7519544
0.46601433 0.43077922 1.7377456
0.47832721 0.44216111 1.7422103
0.48669019 0.44989178 1.7379097
0.49640954 0.45887625 1.7328042
0.51022303 0.47164533 1.736123
0.5282954 0.48835123 1.7585269
0.53529674 0.49482319 1.7437624
0.54506969 0.50385725 1.7381389
0.55048358 0.50886178 1.7240729
0.5690617 0.52603525 1.745725
0.57278353 0.52947563 1.7215326
0.59473473 0.54976714 1.7518409
0.60455132 0.55884147 1.7455984
0.60975212 0.56364906 1.7311563
0.61943001 0.57259524 1.7247728
0.63237047 0.58455724 1.7272233
0.6453523 0.5965575 1.7295201
0.65504211 0.60551471 1.7227513
0.66672689 0.61631602 1.7257259
0.68330991 0.6316452 1.736379
0.70498556 0.65168196 1.7545102
0.70545876 0.65211934 1.7198745
0.72736341 0.67236787 1.7374878
0.74078107 0.68477094 1.7385143
0.76685649 0.70887482 1.7640656
0.7743358 0.71578866 1.7463249
0.79073399 0.73094696 1.7444072
0.80440801 0.74358714 1.7445934
0.81020331 0.74894428 1.7277596
0.84528053 0.78136927 1.7683504
0.85393286 0.78936744 1.7486274
0.87746441 0.81111974 1.7632473
0.89848024 0.83054656 1.7678874
0.91823781 0.84881032 1.7734882
0.93099004 0.86059839 1.7611156
0.94224 0.87099773 1.7499847
0.97239923 0.89887661 1.7693391
0.98815143 0.91343778 1.7656693
1.0188771 0.94184029 1.7839357
1.0348287 0.95658576 1.7795992
1.0429817 0.96412241 1.7579126
1.0728655 0.9917466 1.7763441
1.0856309 1.0035468 1.7619022
1.1111871 1.0271708 1.7717459
1.1238949 1.0389178 1.7568182
1.1545968 1.0672983 1.7733247
1.1870384 1.0972869 1.7874566
1.2034202 1.1124302 1.78064
1.2248244 1.132216 1.7808683
1.2319274 1.1387819 1.7717592
1.2636149 1.1680737 1.7858559
1.2918806 1.1942021 1.7902586
1.3122431 1.2130251 1.7909461
1.3274846 1.2271141 1.7842578
1.3427045 1.2411833 1.7773881
1.3526427 1.25037 1.7633582
1.355751 1.2532433 1.7443968
1.3493537 1.2473297 1.7098285
1.3494203 1.2473913 1.680232
1.3505433 1.2484293 1.6487441
1.3529387 1.2506436 1.6300453
1.3620286 1.2590463 1.6159457
1.3543397 1.2519387 1.5821862
1.3575519 1.2549081 1.5616205
1.3662784 1.2629747 1.5474424
1.3635426 1.2604458 1.5205355
1.353686 1.2513344 1.4894954
1.3562608 1.2537146 1.4691346
1.3482639 1.2463223 1.4344913
1.3562589 1.2537128 1.4204458
1.3653095 1.2620791 1.4042742
1.356562 1.253993 1.3701246
1.3593541 1.256574 1.3480645
1.3679409 1.2645116 1.3318589
1.3583918 1.2556844 1.2983176
1.3555907 1.2530951 1.26875
1.3575815 1.2549355 1.2470002
1.3471504 1.2452931 1.2142614
1.3529575 1.250661 1.2022283
1.347291 1.245423 1.1773397
1.3476503 1.2457551 1.1579435
1.3603364 1.2574821 1.149184
1.3604782 1.2576131 1.1297826
1.3595845 1.2567869 1.1124822
1.3531295 1.25082 1.0881588
1.3591983 1.25643 1.0740408
1.3587948 1.256057 1.0549394
1.3582702 1.255572 1.035877
1.3704664 1.2668461 1.0265588
1.3559994 1.2534729 1.0000358
1.348606 1.2466387 0.97650087
1.3735653 1.2697107 0.97634691
1.3593991 1.2566156 0.94834125
1.3581101 1.255424 0.929703
1.3625492 1.2595276 0.9175784
1.3676602 1.2642521 0.9033671
1.3527859 1.2505025 0.87624967
1.3576653 1.2550129 0.86214125
1.3564563 1.2538953 0.84182727
1.3550907 1.252633 0.82160801
1.3670382 1.2636771 0.80946058
1.3654138 1.2621756 0.7892769
1.3500668 1.2479889 0.76154006
1.3474872 1.2456044 0.74373919
1.3447964 1.2431171 0.72600454
1.3419766 1.2405105 0.70840144
1.3590807 1.2563212 0.70353174
1.3492227 1.2472086 0.68239957
1.3466383 1.2448196 0.66294003
1.3439078 1.2422956 0.64359409
1.3549292 1.2524837 0.63083392
1.3519512 1.2497308 0.61155587
1.3483508 1.2464026 0.5944162
1.3451028 1.2434002 0.57537329
1.3487386 1.2467611 0.55936646
1.3518392 1.2496274 0.54530948
1.3473767 1.2455022 0.53047162
1.3503085 1.2482123 0.51646173
1.3460836 1.2443069 0.49975932
1.3488435 1.246858 0.48576373
1.3515309 1.2493423 0.47170776
1.3470064 1.24516 0.4552477
1.3420271 1.2405571 0.44088706
1.3444628 1.2428086 0.42690337
1.3468146 1.2449826 0.41292673
1.3419173 1.2404555 0.39677224
1.3444086 1.2427586 0.38081008
1.3465024 1.244694 0.36683536
1.3560147 1.2534871 0.35269585
1.358494 1.255779 0.33453387
1.3530924 1.2507857 0.31870985
1.3548419 1.252403 0.30461454
1.3639977 1.2608665 0.29004508
1.3658043 1.2625365 0.27382457
1.3675071 1.2641106 0.2575832
1.3618231 1.2588563 0.2400386
1.3558384 1.2533242 0.22467914
1.364356 1.2611978 0.21169001
1.3508977 1.248757 0.19540058
1.3592629 1.2564898 0.18231188
1.36011 1.2572728 0.17019302
1.361149 1.2582331 0.15402326
1.362084 1.2590976 0.13784179
1.3629155 1.2598661 0.12164982
1.3563117 1.2537616 0.10488166
1.364267 1.2611154 0.089239322
1.357267 1.2546448 0.078695834
1.3577195 1.2550631 0.06256336
1.3580688 1.2553859 0.046426121
1.3656569 1.2624002 0.03044905
1.3657999 1.2625325 0.014218709
1.3658398 1.2625694 1.1389216e-16
1.3657879 1.2625213 -0.016231356
1.3656318 1.2623771 -0.032461476
1.3653718 1.2621367 -0.048689123
1.3723466 1.2685841 -0.065262057
1.3645399 1.2613677 -0.081132062
1.363968 1.2608391 -0.097344875
1.3779514 1.2737651 -0.11477125
1.3699425 1.266362 -0.12839337
1.3690677 1.2655531 -0.14466859
1.3608989 1.258002 -0.15806685
1.36011 1.2572728 -0.17019302
1.3591173 1.2563552 -0.1843148
1.3726456 1.2688605 -0.2005921
1.3714821 1.2677851 -0.2148432
1.370236 1.2666332 -0.22911437
1.3689131 1.2654102 -0.24333961
1.3749893 1.271027 -0.25689462
1.373507 1.2696568 -0.27120104
1.3646891 1.2615057 -0.28394869
1.3703057 1.2666975 -0.29973301
1.3683327 1.2648737 -0.31600603
1.3737534 1.2698846 -0.33195612
1.3643551 1.2611969 -0.34643587
1.3620831 1.2590966 -0.36263639
1.3669016 1.2635509 -0.38081357
1.3500471 1.2479707 -0.39286366
1.290449 1.1928788 -0.38959131
1.2596022 1.1643643 -0.39402801
1.2073451 1.1160583 -0.39093658
1.2051206 1.114002 -0.40346527
1.2099377 1.1184549 -0.41846061
1.2079006 1.1165719 -0.42923567
1.2125524 1.1208719 -0.44436765
1.2096587 1.1181971 -0.45876044
1.2070482 1.1157838 -0.47133988
1.2110226 1.1194578 -0.48850641
1.2008238 1.1100301 -0.49995562
1.2045776 1.1135001 -0.517214
1.2082012 1.1168497 -0.53459942
1.2125748 1.1208926 -0.54850888
1.2025166 1.1115949 -0.55786264
1.2201478 1.1278931 -0.58025551
1.2030345 1.1120737 -0.58617407
1.2134987 1.1217467 -0.60556215
1.2100718 1.1185789 -0.61814851
1.199711 1.1090014 -0.62714392
1.2029989 1.1120408 -0.64324123
1.1998816 1.1091591 -0.65394962
1.2097685 1.1182985 -0.67399454
1.1991835 1.1085137 -0.68268317
1.2088225 1.117424 -0.7030018
1.2115811 1.119974 -0.71953416
1.2136292 1.1218673 -0.73798215
1.2155328 1.1236269 -0.75653338
1.2179056 1.1258204 -0.77339143
1.2129033 1.1211963 -0.7878353
1.2078086 1.1164868 -0.80221921
1.2098558 1.1183792 -0.81919289
1.2190003 1.1268322 -0.8389799
1.2142551 1.1224458 -0.85164547
1.2094499 1.118004 -0.86423254
1.2175155 1.1254598 -0.88622588
1.2189661 1.1268008 -0.90362686
1.2145971 1.1227621 -0.91447204
1.2094283 1.1179841 -0.92708957
1.2169436 1.1249311 -0.94956738
1.2115777 1.1199709 -0.96220827
1.2124684 1.1207942 -0.97986782
1.2140234 1.1222316 -0.99581307
1.214659 1.1228192 -1.0136472
1.2151781 1.1232991 -1.0315236
1.2093523 1.1179137 -1.0441438
1.2096407 1.1181804 -1.0620931
1.2168013 1.1247995 -1.0837992
1.2167963 1.124795 -1.1019723
1.2227559 1.1303039 -1.1257802
1.2275897 1.1347722 -1.1516143
1.2210892 1.1287633 -1.1643602
1.2334296 1.1401706 -1.1925864
1.2207595 1.1284585 -1.1995114
1.2307781 1.1377195 -1.2317384
1.2345961 1.1412489 -1.2583017
1.2206454 1.128353 -1.2668639
1.2377752 1.1441877 -1.3021702
1.2362059 1.142737 -1.3211914
1.2345123 1.1411715 -1.3402264
1.2269529 1.1341836 -1.3530388
1.230682 1.1376307 -1.3784478
1.2240306 1.1314822 -1.3893871
1.2330093 1.1397821 -1.4214728
1.2305804 1.1375369 -1.4407573
1.2378799 1.1442844 -1.4750819
1.2338641 1.1405722 -1.4963871
1.2459922 1.1517833 -1.5378551
1.2360901 1.1426299 -1.5526037
1.2153854 1.1234908 -1.5535464
1.2147262 1.1228813 -1.5835649
1.0162603 0.93942136 -1.3452147
0.87279499 0.80680341 -1.1731143
0.87138617 0.8055011 -1.1892241
0.91514498 0.84595132 -1.2709351
1.1005878 1.0173728 -1.5553967
1.0893117 1.0069494 -1.5700487
1.0692165 0.98837358 -1.5682772
1.0183228 0.94132793 -1.5233254
0.99261296 0.91756195 -1.5144964
0.94661504 0.8750419 -1.476422
0.3167167 0.29276991 -0.53858733
0.043421198 0.040138144 -0.080644459
0.23915905 0.21084706 1.7308803
0.24905868 0.21957476 1.7385789
0.26042971 0.22959967 1.7356153
0.27331638 0.24096081 1.7423077
0.28471091 0.25100642 1.7390617
0.29489005 0.25998053 1.746296
0.30489504 0.26880112 1.7432398
0.31310043 0.27603516 1.7303678
0.32845759 0.28957433 1.7562352
0.3399412 0.29969847 1.7523472
0.34802321 0.30682373 1.7391777
0.3593944 0.31684878 1.7350627
0.37691718 0.33229718 1.7596625
0.38417631 0.33869696 1.736028
0.39552549 0.34870261 1.7314924
0.41134009 0.36264506 1.745906
0.42044276 0.37067017 1.7315402
0.4341335 0.38274017 1.7360697
0.45034972 0.39703667 1.7498705
0.46178699 0.40711999 1.7445648
0.46525714 0.41017935 1.721682
0.48030853 0.42344895 1.735654
0.49287429 0.43452713 1.740075
0.50283784 0.44331118 1.7350012
0.52101946 0.45934045 1.7577386
0.53250557 0.46946681 1.7516103
0.54253411 0.47830814 1.7461324
0.55250812 0.48710144 1.7405652
0.56686407 0.49975795 1.7432462
0.58129704 0.51248229 1.745725
0.59890848 0.52800888 1.7571043
0.59950078 0.52853101 1.7237325
0.61575913 0.54286474 1.7356666
0.62895262 0.55449635 1.7383476
0.63747346 0.56200844 1.7328225
0.6507228 0.57368934 1.735235
0.66405946 0.58544713 1.7374628
0.68089294 0.60028785 1.7484105
0.68528336 0.60415852 1.7227534
0.70227158 0.61913568 1.7333163
0.7157827 0.63104737 1.7348874
0.7367056 0.64949334 1.7537169
0.74671739 0.65831995 1.7461753
0.75903171 0.66917646 1.7482774
0.7766487 0.68470794 1.7577235
0.79439479 0.70035321 1.7669302
0.80984294 0.71397257 1.7661533
0.83579111 0.73684901 1.7918166
0.83799887 0.7387954 1.7663633
0.84404516 0.7441259 1.7493612
0.85402888 0.75292772 1.7407281
0.89035416 0.78495276 1.7806512
0.91040587 0.80263072 1.7867695
0.91779834 0.80914807 1.7678874
0.93365824 0.82313043 1.7653154
0.95538968 0.84228927 1.7692313
0.96847737 0.85382766 1.7689346
0.99344468 0.87583929 1.7816771
1.0050695 0.88608795 1.7700518
1.0120384 0.89223182 1.7503716
1.0327196 0.91046482 1.7542646
1.0628928 0.93706608 1.7734333
1.0806295 0.952703 1.7672004
1.1065266 0.97553444 1.7776477
1.1341155 0.99985731 1.785964
1.1506594 1.0144428 1.7802777
1.1785583 1.0390389 1.7876796
1.1952163 1.0537249 1.781354
1.2118808 1.0684166 1.7747763
1.2387452 1.0921009 1.7826177
1.2489309 1.1010808 1.7699414
1.2708434 1.1203992 1.7697917
1.2928482 1.1397991 1.7692658
1.3202231 1.1639333 1.7754635
1.3531035 1.1929212 1.7881974
1.3755034 1.2126694 1.7863436
1.3871442 1.2229321 1.7702734
1.3877522 1.2234682 1.7403648
1.3811607 1.217657 1.7058154
1.3853605 1.2213595 1.6849502
1.3851664 1.2211885 1.6554191
1.390321 1.2257329 1.6326318
1.3896114 1.2251072 1.6033068
1.3873253 1.2230917 1.5761583
1.373338 1.2107604 1.5362624
1.38787 1.223572 1.5286231
1.389531 1.2250364 1.5101621
1.3864499 1.2223201 1.4834386
1.3961076 1.2308344 1.4672526
1.4068358 1.2402925 1.4489263
1.3912195 1.2265249 1.4103349
1.3932424 1.2283083 1.3901563
1.3962448 1.2309554 1.3679729
1.3979701 1.2324764 1.3478434
1.4006233 1.2348156 1.3257393
1.3969404 1.2315686 1.2979586
1.4064229 1.2399286 1.2796296
1.4022809 1.2362769 1.2520894
1.3988957 1.2332925 1.2226939
1.4005374 1.2347398 1.2009634
1.3946885 1.2295833 1.175997
1.3950212 1.2298766 1.1564686
1.3961338 1.2308575 1.134989
1.3970721 1.2316847 1.113572
1.3978367 1.2323588 1.0922199
1.3975445 1.2321012 1.0729846
1.3905991 1.225978 1.0488622
1.4096726 1.2427936 1.0444077
1.4024516 1.2364274 1.0204295
1.4016373 1.2357095 1.0014163
1.3948548 1.2297299 0.97577888
1.3937408 1.2287477 0.95695651
1.3999518 1.2342235 0.94070572
1.4060562 1.2396053 0.92438334
1.3917849 1.2270234 0.89495724
1.3908057 1.2261602 0.87446594
1.3964769 1.23116 0.85825247
1.3815241 1.2179773 0.82965207
1.3937681 1.2287719 0.81757575
1.3783909 1.2152151 0.78948772
1.3765888 1.2136263 0.76955479
1.3746312 1.2119005 0.74972427
1.3782824 1.2151195 0.73771417
1.3754808 1.2126495 0.72002357
1.3795694 1.216254 0.70598483
1.3835683 1.2197795 0.69193709
1.3804524 1.2170326 0.67437607
1.3772079 1.214172 0.65695125
1.3804036 1.2169895 0.64492065
1.391673 1.2269248 0.63206172
1.3810194 1.2175323 0.61155587
1.3773415 1.2142899 0.5944162
1.3878636 1.2235664 0.58336926
1.3911608 1.2264732 0.56924069
1.3867404 1.2225761 0.55421865
1.3826765 1.2189933 0.53727168
1.3857101 1.2216678 0.52319723
1.3886697 1.224277 0.50906003
1.3842942 1.2204194 0.49234769
1.3866816 1.2225243 0.48025879
1.3821206 1.2185032 0.46367252
1.3774451 1.2143812 0.44723952
1.3872708 1.2230438 0.43548074
1.3750933 1.2123078 0.41692713
1.3701171 1.2079207 0.40075812
1.3793924 1.216098 0.39087397
1.389249 1.2247877 0.37680539
1.3695728 1.2074407 0.35490474
1.3792192 1.2159454 0.34078044
1.3813974 1.2178657 0.32472208
1.3908687 1.2262156 0.3102895
1.3928468 1.2279596 0.2940968
1.3870714 1.2228678 0.27843702
1.3886274 1.2242398 0.26429307
1.390099 1.2255372 0.25016603
1.3842416 1.2203732 0.23273332
1.3857123 1.2216697 0.21662067
1.3792905 1.2160082 0.20342569
1.3880321 1.2237149 0.18838456
1.3892124 1.2247554 0.1722295
1.3977616 1.2322925 0.15690036
1.3837756 1.2199624 0.13912921
1.3921182 1.2273172 0.12369055
1.385208 1.2212251 0.11094157
1.3932945 1.2283543 0.097344875
1.3863173 1.2222031 0.082728066
1.3941894 1.2291433 0.07101205
1.3946011 1.2295063 0.054789826
1.3798759 1.2165242 0.040139388
1.3875657 1.2233038 0.026249744
1.3876758 1.2234007 0.012108135
1.3877054 1.2234269 1.1327983e-16
1.395166 1.2300043 -0.014186247
1.4025441 1.236509 -0.02855684
1.3873416 1.2231063 -0.042358931
1.394509 1.229425 -0.058813374
1.3941309 1.2290918 -0.07302326
1.3936726 1.2286876 -0.087196447
1.3931319 1.2282109 -0.10139697
1.3850247 1.2210635 -0.11493789
1.3844306 1.2205398 -0.12702017
1.3836619 1.2198621 -0.14112535
1.3902889 1.2257046 -0.15602897
1.3893536 1.22488 -0.17019302
1.3881866 1.2238512 -0.18634979
1.401827 1.2358768 -0.20466973
1.4004339 1.2346486 -0.2209703
1.3916868 1.2269369 -0.23395219
1.397536 1.2320938 -0.25147131
1.3884121 1.2240499 -0.26629615
1.3866161 1.2224665 -0.28243831
1.3997684 1.2340618 -0.29973301
1.3980129 1.2325141 -0.31395692
1.4035589 1.2374036 -0.32993153
1.4016305 1.2357035 -0.3441931
1.4069823 1.2404217 -0.36035392
1.405183 1.2388355 -0.37262252
1.4030102 1.23692 -0.38689935
1.3714156 1.2090656 -0.39278448
1.3178778 1.1618656 -0.39149269
1.2790501 1.1276344 -0.39366433
1.2333041 1.0873039 -0.39093658
1.2237474 1.0788785 -0.4010779
1.2286822 1.0832289 -0.41599905
1.2335224 1.0874963 -0.4310154
1.2306541 1.0849675 -0.44534937
1.227692 1.0823561 -0.45964941
1.2250204 1.0800008 -0.47214752
1.2218832 1.0772349 -0.48638102
1.2258214 1.080707 -0.50352204
1.2296277 1.0840627 -0.52079153
1.2337439 1.0876915 -0.53637952
1.2301859 1.0845548 -0.55071205
1.233624 1.0875858 -0.56826854
1.2369252 1.0904963 -0.58594674
1.2325468 1.0866362 -0.60212147
1.2355788 1.0893092 -0.61996007
1.2314736 1.08569 -0.63431078
1.2353122 1.0890743 -0.64870715
1.252439 1.1041734 -0.67245638
1.2277373 1.082396 -0.67378044
1.2307612 1.0850619 -0.69012141
1.2405518 1.0936935 -0.71053892
1.2427193 1.0956044 -0.72897148
1.2459599 1.0984614 -0.74388629
1.2416677 1.0946773 -0.75653338
1.2502581 1.1022507 -0.77942169
1.2376895 1.0911701 -0.79143697
1.2472614 1.0996089 -0.81098664
1.249302 1.1014079 -0.82809711
1.2445171 1.0971894 -0.8408047
1.2463355 1.0987926 -0.85802269
1.241379 1.0944228 -0.87069917
1.2363615 1.0899993 -0.88329595
1.2436932 1.0964631 -0.90724623
1.2384546 1.0918446 -0.91989434
1.2389065 1.092243 -0.9392103
1.2456872 1.0982211 -0.96362531
1.2401381 1.0933287 -0.97626323
1.2409334 1.09403 -0.9940235
1.242431 1.0953503 -1.0100361
1.2366164 1.090224 -1.0226395
1.2370601 1.0906152 -1.0405483
1.2373842 1.0909009 -1.0584967
1.2312784 1.085518 -1.0710762
1.2385038 1.091888 -1.0928352
1.2446622 1.0973173 -1.116562
1.2567966 1.1080153 -1.146152
1.2492461 1.1013587 -1.1607295
1.2609323 1.1116613 -1.1907388
1.2530898 1.1047473 -1.2053627
1.2572408 1.1084069 -1.2317384
1.2491301 1.1012564 -1.2463179
1.2647883 1.1150609 -1.2850486
1.2633137 1.1137608 -1.3040228
1.2676082 1.1175469 -1.3291947
1.2658095 1.1159612 -1.3483163
1.2522345 1.1039932 -1.3548461
1.261793 1.1124202 -1.3866506
1.2664717 1.116545 -1.4104526
1.2583655 1.1093985 -1.4232889
1.2603555 1.1111529 -1.4509457
1.2664868 1.1165583 -1.4872152
1.2691231 1.1188825 -1.5133832
1.2745316 1.1236508 -1.5501542
1.264336 1.1146621 -1.5649227
1.2473143 1.0996555 -1.5745045
1.1937478 1.0524303 -1.5334461
0.9051553 0.79800171 -1.1832105
0.88868409 0.78348041 -1.1769873
0.9030326 0.7961303 -1.214417
1.0742222 0.94705427 -1.4668452
1.1476686 1.011806 -1.594743
1.1050212 0.97420722 -1.5659976
1.0896366 0.96064383 -1.5714501
1.0427598 0.91931635 -1.5337567
1.0227027 0.90163368 -1.5308938
0.9645496 0.85036486 -1.4792308
0.49565634 0.43697986 -0.82883859
0.097145669 0.08564543 -0.17784144
0.23973452 0.20151792 1.7319117
0.25129458 0.21123518 1.7291127
0.26582229 0.22344698 1.7457978
0.27764809 0.2333876 1.7630774
0.28473422 0.23934412 1.7407012
0.29491198 0.24789943 1.7378069
0.30847687 0.2593019 1.7543103
0.31519207 0.26494661 1.7317209
0.33041933 0.27774647 1.7474781
0.34398037 0.28914571 1.7533318
0.35224998 0.29609704 1.7401857
0.36242276 0.30464816 1.7366172
0.38289985 0.32186094 1.7810932
0.38334331 0.32223374 1.7393428
0.39351025 0.33077991 1.7354637
0.40956432 0.34427476 1.7500377
0.42123899 0.35408837 1.745302
0.43524706 0.36586338 1.749944
0.44692016 0.37567565 1.7449155
0.46105137 0.38755417 1.7492094
0.47782904 0.40165725 1.7627395
0.48434976 0.4071385 1.7384313
0.50130564 0.4213914 1.751577
0.51007038 0.42875892 1.7472533
0.52451259 0.44089887 1.750684
0.53763205 0.45192695 1.743879
0.54782099 0.46049166 1.738459
0.56685835 0.47649419 1.7606035
0.57412261 0.48260048 1.7457033
0.59352368 0.49890879 1.7674048
0.60236573 0.50634134 1.7622923
0.61411494 0.51621753 1.7553581
0.61933225 0.52060312 1.7301733
0.6275633 0.52752203 1.7140259
0.64907843 0.54560739 1.7337559
0.66405821 0.55819923 1.735235
0.68114334 0.57256079 1.7463728
0.68571395 0.57640284 1.720801
0.707964 0.59510595 1.7394067
0.73051405 0.61406118 1.7576343
0.73480499 0.61766809 1.731747
0.76142275 0.64004272 1.7581185
0.76165581 0.64023858 1.7233906
0.78962737 0.66375113 1.7599782
0.80380076 0.67566508 1.7606479
0.82202232 0.69098192 1.7696676
0.83233035 0.69964671 1.7614257
0.85075456 0.71513391 1.7700001
0.86930352 0.73072594 1.7783282
0.87819439 0.73819953 1.7708575
0.88010919 0.7398091 1.7453339
0.91733456 0.77110028 1.7850494
0.92922384 0.78109419 1.7745239
0.94979614 0.79838711 1.7802712
0.97051537 0.81580341 1.7856833
0.9868927 0.82957 1.7826543
1.0184159 0.85606807 1.8021033
1.0304153 0.86615449 1.7904247
1.0484924 0.88134998 1.785045
1.0556639 0.88737822 1.7651441
1.092725 0.9185313 1.790629
1.1061407 0.92980844 1.776516
1.1472574 0.96437067 1.8100524
1.1509136 0.967444 1.7799859
1.1777313 0.9899866 1.7895461
1.2148449 1.0211838 1.8136801
1.2218231 1.0270497 1.7922938
1.2352452 1.0383321 1.7765235
1.2797376 1.0757319 1.8046254
1.2850153 1.0801682 1.7845088
1.3127673 1.1034962 1.7914627
1.3353672 1.1224934 1.7907549
1.363446 1.1460961 1.796769
1.3862692 1.1652811 1.7952375
1.4161485 1.1903973 1.7982986
1.4266303 1.199208 1.7841036
1.4314352 1.2032471 1.7629775
1.413661 1.1883062 1.7146109
1.4179811 1.1919377 1.693728
1.4207534 1.194268 1.6748683
1.4261599 1.1988126 1.6519735
1.4198258 1.1934882 1.6159457
1.4305663 1.2025166 1.5996981
1.4327024 1.2043122 1.5809793
1.424256 1.1972122 1.5474424
1.421404 1.1948149 1.5205355
1.4243008 1.1972499 1.50002
1.4270211 1.1995366 1.4795685
1.4296054 1.2017088 1.4591177
1.4259468 1.1986336 1.4326385
1.4354626 1.2066324 1.4163281
1.4202756 1.1938664 1.3760816
1.4356017 1.2067493 1.3657247
1.4384431 1.2091377 1.3434908
1.4285659 1.2008351 1.3098071
1.4309572 1.2028452 1.2877984
1.4215361 1.1949259 1.2525921
1.4298494 1.201914 1.2363389
1.4316338 1.203414 1.214545
1.4267805 1.1993343 1.1874322
1.4216748 1.1950425 1.1605232
1.4218866 1.1952206 1.14109
1.4219695 1.1952902 1.121688
1.4284769 1.2007604 1.1074873
1.4216909 1.1950561 1.083114
1.4213314 1.1947539 1.0639457
1.4266313 1.199209 1.0517703
1.4260492 1.1987196 1.0326445
1.4320368 1.2037526 1.0184058
1.4312034 1.2030522 0.9993611
1.4378246 1.2086178 0.98300725
1.4230947 1.1962361 0.95494533
1.4346803 1.2059748 0.94726813
1.4127495 1.1875401 0.91514325
1.4249351 1.1977831 0.90541446
1.4232826 1.196394 0.88685286
1.422215 1.1954966 0.86636746
1.4209826 1.1944606 0.84597421
1.4188907 1.1927023 0.82771403
1.4096663 1.1849483 0.80550516
1.428401 1.2006965 0.79931128
1.418918 1.1927252 0.77728903
1.4015464 1.1781228 0.75372052
1.4130065 1.1877562 0.74347007
1.4030715 1.1794049 0.72200739
1.4001026 1.1769092 0.70441276
1.4041837 1.1803397 0.69041008
1.4081738 1.1836936 0.67639923
1.4115324 1.1865169 0.66434473
1.4159164 1.1902021 0.64822793
1.4201927 1.1937968 0.63206172
1.4170936 1.1911917 0.61270535
1.420133 1.1937466 0.60057598
1.4236059 1.1966658 0.58637631
1.4123522 1.187206 0.56630647
1.4156249 1.189957 0.55218554
1.4114561 1.1864529 0.53527677
1.414978 1.1894133 0.51916569
1.4183922 1.1922833 0.50301516
1.4142936 1.188838 0.48429072
1.4166898 1.1908522 0.47218803
1.41979 1.1934582 0.45601976
1.4227822 1.1959734 0.43981674
1.4182017 1.1921231 0.42136252
1.4134837 1.1881572 0.4030464
1.4011368 1.1777785 0.38282293
1.4111468 1.1861929 0.36879703
1.4060377 1.1818982 0.35081983
1.4080496 1.1835893 0.33676824
1.4250547 1.1978836 0.32618076
1.4269218 1.1994531 0.31193998
1.4289513 1.201159 0.29566115
1.4308718 1.2027735 0.27935979
1.4398187 1.2102941 0.26853308
1.4263835 1.1990006 0.24945509
1.4279956 1.2003556 0.23318477
1.4294988 1.2016193 0.2168967
1.4308933 1.2027915 0.2005921
1.4321787 1.203872 0.18427223
1.4330713 1.2046223 0.17202304
1.4340339 1.2054315 0.1577394
1.4349151 1.2061721 0.14341387
1.4280739 1.2004215 0.12842593
1.4365184 1.2075199 0.11274063
1.4371362 1.2080392 0.0983916
1.4223047 1.195572 0.085185893
1.4380592 1.2088151 0.071775623
1.438484 1.2091721 0.055378966
1.4311459 1.2030038 0.038770758
1.4313505 1.2031757 0.022454169
1.431446 1.203256 0.0061358684
1.4390948 1.2096856 -0.0082030213
1.4236964 1.1967418 -0.022301631
1.4235244 1.1965972 -0.036518667
1.4385737 1.2092475 -0.051246293
1.445882 1.2153908 -0.06596005
1.4378068 1.2086029 -0.079939201
1.4450212 1.2146672 -0.092721432
1.4367939 1.2077514 -0.10658244
1.4361298 1.2071933 -0.12089507
1.4353805 1.2065634 -0.13523339
1.4267925 1.1993444 -0.15078528
1.4334956 1.2049789 -0.16587931
1.432333 1.2040017 -0.1822149
1.4386733 1.2093313 -0.19959265
1.4372852 1.2081645 -0.21598598
1.443187 1.2131253 -0.23566546
1.4417691 1.2119335 -0.25003803
1.4402639 1.2106682 -0.26442888
1.4384426 1.2091373 -0.28083789
1.4367611 1.2077239 -0.29516187
1.4422859 1.212368 -0.31316939
1.4325991 1.2042253 -0.32787392
1.4378825 1.2086666 -0.34600466
1.4358158 1.2069292 -0.36035392
1.4486824 1.2177447 -0.37857243
1.4239415 1.1969478 -0.38691932
1.3842294 1.1635665 -0.3905406
1.3299421 1.1179332 -0.38714278
1.3052619 1.0971873 -0.39366433
1.2656991 1.0639312 -0.39503929
1.2633505 1.061957 -0.40766758
1.2683508 1.0661603 -0.42271534
1.2662059 1.0643573 -0.43355078
1.2636318 1.0621935 -0.44618303
1.2609901 1.059973 -0.45876044
1.265627 1.0638707 -0.47409624
1.2701643 1.0676847 -0.48952234
1.2595232 1.0587398 -0.50107044
1.2780372 1.0743026 -0.52439964
1.2744856 1.0713171 -0.53894937
1.2567655 1.0564218 -0.54535651
1.2748042 1.0715849 -0.56936806
1.2781736 1.0744171 -0.58719671
1.2675065 1.0654504 -0.59652555
1.2562945 1.0560259 -0.60748112
1.2664994 1.064604 -0.62888587
1.2551188 1.0550376 -0.6396656
1.2650118 1.0633534 -0.66138089
1.2605455 1.0595993 -0.6757769
1.2565542 1.0562443 -0.68834549
1.2595354 1.0587502 -0.70478272
1.2834275 1.0788336 -0.73337036
1.2791085 1.0752031 -0.74613667
1.2753429 1.0720377 -0.75705719
1.2778202 1.0741202 -0.77397758
1.2732643 1.0702904 -0.78668684
1.2755184 1.0721852 -0.80372375
1.2769663 1.0734023 -0.82265699
1.278258 1.074488 -0.8416841
1.2793921 1.0754414 -0.86080295
1.2878859 1.0825812 -0.88281816
1.2759312 1.0725323 -0.89093983
1.2774158 1.0737802 -0.90840799
1.2728373 1.0699315 -0.91931051
1.2807618 1.0765928 -0.94180524
1.2744218 1.0712634 -0.95637012
1.2688011 1.0665387 -0.96904022
1.2820027 1.0776359 -0.99883437
1.2752817 1.0719862 -1.0134112
1.2684635 1.066255 -1.0279108
1.2744877 1.0713189 -1.0530229
1.2949549 1.0885234 -1.0854993
1.288565 1.0831521 -1.0983995
1.2875527 1.0823011 -1.118585
1.2800316 1.0759789 -1.1332206
1.2787119 1.0748696 -1.1534518
1.2834799 1.0788776 -1.1794925
1.2890105 1.0835265 -1.203878
1.2819281 1.0775732 -1.2167155
1.2932624 1.0871006 -1.2472709
1.2920494 1.0860809 -1.2661504
1.2967961 1.090071 -1.2911102
1.3024153 1.0947944 -1.3143971
1.3007075 1.0933589 -1.333539
1.292884 1.0867826 -1.3464601
1.296865 1.0901289 -1.3719184
1.2888175 1.0833642 -1.3848001
1.2936121 1.0873946 -1.4085953
1.2899904 1.0843502 -1.4297584
1.2965384 1.0898544 -1.4658805
1.2936921 1.0874618 -1.4853578
1.3052565 1.0971828 -1.5285927
1.2893407 1.0838041 -1.5366746
1.2846364 1.0798497 -1.5581187
1.2810721 1.0768536 -1.5777328
1.2207694 1.0261639 -1.5299704
0.94211072 0.7919268 -1.2015321
0.91330677 0.76771456 -1.1827447
