# .PCD v0.7 - Point Cloud Data file format
VERSION 0.7
FIELDS x y z
SIZE 4 4 4
TYPE F F F
COUNT 1 1 1
WIDTH 1457
HEIGHT 1
VIEWPOINT 0 0 0 1 0 0 0
POINTS 1457
DATA ascii
0.60544509 0.37758982 1.7068574
0.62982845 0.39279667 1.7381389
0.63927424 0.3986876 1.7224333
0.65893996 0.41095224 1.7340462
0.6720745 0.41914368 1.738026
0.67972523 0.42391512 1.7228667
0.6908806 0.43087223 1.7166924
0.70197022 0.43778837 1.7104324
0.71519852 0.44603828 1.7139548
0.73009759 0.45533019 1.7164009
0.74664766 0.46565172 1.7177269
0.75774235 0.47257102 1.7109655
0.78634894 0.4904117 1.738405
0.80080491 0.49942726 1.7292148
0.81357849 0.5073936 1.7209131
0.83467883 0.52055293 1.7298659
0.83309805 0.51956707 1.6963483
0.8382023 0.52275038 1.681264
0.83166611 0.51867408 1.6393318
0.83784133 0.52252525 1.623265
0.83495104 0.52072275 1.5901587
0.83022773 0.51777703 1.5582776
0.83115453 0.51835501 1.5339134
0.83785182 0.52253181 1.5169261
0.83497941 0.52074039 1.4832528
0.83034158 0.51784801 1.4508158
0.83624655 0.52153069 1.4339795
0.83092475 0.51821172 1.4018276
0.82651389 0.51546085 1.368786
0.82167804 0.51244491 1.3359436
0.83782393 0.5225144 1.3344024
0.83745974 0.52228731 1.3097622
0.84196067 0.52509433 1.2931659
0.84745163 0.5285188 1.2754974
0.83457184 0.52048624 1.2365209
0.8490358 0.5295068 1.2356621
0.84735864 0.5284608 1.2114506
0.84428006 0.52654082 1.1884637
0.83547461 0.52104926 1.1579679
0.84742618 0.52850294 1.1590744
0.84372741 0.52619618 1.1363722
0.8285287 0.51671743 1.0988373
0.83663356 0.52177203 1.0902743
0.82743645 0.51603621 1.0595545
0.82847583 0.51668447 1.0447799
0.83426023 0.52029192 1.038367
0.82332838 0.51347417 1.0091951
0.83076966 0.51811498 1.000689
0.8381477 0.52271634 0.99210685
0.83942288 0.52351165 0.97642452
0.83963323 0.52364278 0.96188062
0.83358914 0.51987338 0.94045776
0.83965117 0.52365398 0.9329375
0.83324158 0.51965666 0.91173756
0.8328557 0.51941597 0.89747334
0.8331576 0.51960421 0.88219041
0.8388555 0.52315778 0.87465847
0.83889621 0.52318317 0.85943735
0.84522802 0.52713203 0.85077697
0.8449955 0.52698702 0.83562392
0.83805609 0.52265924 0.81418014
0.83086455 0.51817417 0.79294372
0.83670425 0.52181613 0.78436846
0.8424803 0.5254184 0.77573347
0.83472884 0.52058417 0.75486416
0.83350998 0.51982403 0.74023247
0.83827621 0.52279651 0.73271877
0.84300447 0.52574527 0.7251451
0.84078115 0.52435869 0.71171278
0.83151442 0.51857948 0.6925742
0.84293878 0.52570432 0.69078887
0.83975899 0.52372122 0.67861694
0.84413624 0.52645111 0.67103148
0.84138387 0.52473462 0.65789574
0.83141446 0.51851714 0.63936692
0.83552802 0.52108252 0.63187498
0.83242607 0.51914805 0.61899287
0.82919735 0.51713437 0.6062209
0.84090376 0.52443516 0.60286707
0.8229416 0.51323295 0.57987851
0.82667041 0.51555848 0.57246441
0.83035946 0.51785916 0.565
0.81923085 0.51091874 0.54765213
0.82275921 0.51311922 0.54025543
0.82574189 0.51497936 0.53389752
0.81423301 0.50780177 0.51697391
0.81802994 0.5101698 0.50858021
0.82930374 0.51720077 0.5047363
0.83300948 0.51951188 0.49618804
0.8294962 0.51732075 0.48209468
0.82495356 0.51448774 0.47027019
0.82073385 0.51185608 0.45749238
0.82367736 0.51369184 0.45008481
0.84284878 0.52564818 0.44877604
0.83837688 0.52285928 0.43605313
0.84157377 0.52485305 0.42741418
0.84509671 0.52705014 0.41764784
0.84030372 0.52406096 0.40515402
0.84327167 0.52591199 0.39649644
0.84653103 0.52794468 0.38672936
0.84901482 0.52949369 0.37909141
0.84382886 0.52625942 0.36688408
0.85483074 0.53312087 0.36048093
0.84945369 0.52976739 0.34838897
0.85200101 0.5313561 0.33963948
0.85479164 0.53309643 0.32975662
0.849114 0.52955556 0.31792507
0.85171914 0.53118026 0.3080942
0.84583497 0.52751058 0.29647222
0.85615182 0.53394473 0.29052886
0.85853279 0.53542966 0.28060031
0.85238183 0.53159356 0.2691718
0.86279821 0.53808981 0.26179883
0.85646856 0.53414232 0.25050667
0.85829085 0.53527874 0.24168874
0.84372097 0.52619213 0.22728127
0.83708376 0.52205282 0.21645224
0.84715039 0.52833092 0.20881251
0.84866428 0.52927506 0.200092
0.85029161 0.53028995 0.19025451
0.85166794 0.53114837 0.18150242
0.86134201 0.53718162 0.17442998
0.85422605 0.53274369 0.16395742
0.86379391 0.53871077 0.15668708
0.86492121 0.53941381 0.14779741
0.85757506 0.53483236 0.13754795
0.85856086 0.53544718 0.12872295
0.85948128 0.53602117 0.11988814
0.85190165 0.53129405 0.10995554
0.86112577 0.53704679 0.10219182
0.85340017 0.53222865 0.092416637
0.85412824 0.53268272 0.082547069
0.85463876 0.53300112 0.074849576
0.86362737 0.53860688 0.066711195
0.85561699 0.53361118 0.057259716
0.85600841 0.53385526 0.048457909
0.85629708 0.53403533 0.040762085
0.86504716 0.53949237 0.03227029
0.85677028 0.53433049 0.023143308
0.85690904 0.53441697 0.014330941
0.85698253 0.53446281 0.0055174818
0.8654722 0.53975743 -0.0044505754
0.86540627 0.53971636 -0.013351387
0.85677063 0.53433067 -0.023125686
0.86504763 0.53949267 -0.032252498
0.86473697 0.53929895 -0.042268496
0.86439109 0.53908318 -0.051160306
0.86397934 0.53882641 -0.060048219
0.86343801 0.53848881 -0.070032746
0.85442692 0.53286898 -0.078136511
0.8537342 0.53243697 -0.088027298
0.86149591 0.53727764 -0.097762667
0.8437655 0.52621996 -0.10560458
0.85970122 0.53615832 -0.11767799
0.86721671 0.54084539 -0.12775548
0.8661117 0.5401563 -0.13777417
0.86505854 0.53949946 -0.14667648
0.86364949 0.53862071 -0.15778859
0.86244828 0.53787154 -0.16666482
0.86954236 0.54229581 -0.17723252
0.85984886 0.53625041 -0.18437852
0.85827011 0.5352658 -0.19432697
0.85661149 0.53423142 -0.20423904
0.85506654 0.53326792 -0.21304111
0.85324907 0.53213441 -0.2229328
0.85983348 0.53624082 -0.2339491
0.85806847 0.53514004 -0.24278317
0.85600656 0.53385413 -0.25269058
0.86231542 0.53778869 -0.26399887
0.85188156 0.53128153 -0.27136278
0.84983981 0.5300082 -0.28011367
0.85561633 0.53361076 -0.29271188
0.86182308 0.53748167 -0.30327287
0.85143578 0.53100353 -0.3091802
0.8572008 0.53459895 -0.32095292
0.85479164 0.53309643 -0.32975662
0.85200608 0.5313592 -0.33962196
0.84945887 0.52977061 -0.34837151
0.846847 0.52814174 -0.35709453
0.84314764 0.52583462 -0.36905283
0.84831101 0.52905476 -0.38127348
0.83719891 0.52212465 -0.38740665
0.84253573 0.52545297 -0.3986637
0.83170545 0.51869857 -0.40350693
0.83650374 0.52169108 -0.41593251
0.83339214 0.51975048 -0.42451972
0.83797604 0.52260929 -0.43712205
0.84974766 0.52995074 -0.45506167
0.83907318 0.52329355 -0.45849761
0.83608156 0.52142781 -0.46602646
0.83347559 0.51980257 -0.47246554
0.83800489 0.52262729 -0.48436406
0.8348459 0.52065718 -0.49188256
0.83163095 0.51865214 -0.49938956
0.83590561 0.52131802 -0.51145804
0.83304733 0.51953548 -0.5178948
0.83713818 0.52208674 -0.53011805
0.83368313 0.51993197 -0.5376274
0.83758372 0.52236462 -0.54998976
0.83400005 0.52012962 -0.55750257
0.83088613 0.51818764 -0.5639236
0.83452439 0.52045667 -0.57644939
0.85263193 0.53174955 -0.59930062
0.79016793 0.49279344 -0.56647086
0.74989092 0.46767443 -0.54821914
0.74580306 0.46512499 -0.55591053
0.73452705 0.45809266 -0.55814075
0.70909351 0.44223085 -0.54919785
0.71152514 0.44374734 -0.56295675
0.69332308 0.43239552 -0.55896086
0.68168175 0.42513531 -0.5612219
0.69823998 0.43546197 -0.5856055
0.6806702 0.42450446 -0.58015865
0.67634845 0.42180917 -0.58713692
0.65161234 0.40638232 -0.5760684
0.66080785 0.41211718 -0.59488857
0.62288916 0.38846892 -0.57096499
0.62528968 0.38996604 -0.58355743
0.60773331 0.37901691 -0.57741356
0.60289842 0.3760016 -0.58441103
0.59204221 0.36923105 -0.58416986
0.58714312 0.36617568 -0.5909977
0.56353331 0.35145128 -0.57733196
0.57139903 0.35635677 -0.59708709
0.55435705 0.34572846 -0.58954227
0.54372102 0.33909521 -0.58845723
0.52694434 0.32863232 -0.58037096
0.51593792 0.32176811 -0.5795458
0.51162702 0.31907958 -0.58482993
0.49519911 0.3088342 -0.57602018
0.50887537 0.3173635 -0.60235059
0.51032996 0.31827065 -0.61470902
0.49931508 0.31140113 -0.61336267
0.48893374 0.30492675 -0.61119837
0.50109333 0.31251016 -0.63886058
0.4906387 0.30599007 -0.63658756
0.46274409 0.28859341 -0.61235756
0.4917185 0.30666348 -0.66224653
0.57530451 0.35879245 -0.78860176
0.56323349 0.3512643 -0.78757948
0.49654135 0.30967131 -0.7098946
0.18893909 0.11783312 -0.29549515
0.26317105 0.15563893 1.7230837
0.27763826 0.16419481 1.7403612
0.29232162 0.17287853 1.7574872
0.30221617 0.17873015 1.7552267
0.31550944 0.18659176 1.7622819
0.32343534 0.19127913 1.7398856
0.33675548 0.19915664 1.7467204
0.3462674 0.20478198 1.7339444
0.35967585 0.21271171 1.7405422
0.3715376 0.21972673 1.7474781
0.38725436 0.22902158 1.7635144
0.39608493 0.23424397 1.7401857
0.4136869 0.24465376 1.7553939
0.42451108 0.25105515 1.7415113
0.43757594 0.25878167 1.7371411
0.45558652 0.26943311 1.7517838
0.46290204 0.27375951 1.7387286
0.48117468 0.2845659 1.753024
0.49432385 0.29234231 1.7480789
0.5007844 0.29616305 1.7139435
0.52499038 0.31047845 1.7465647
0.53971082 0.31918409 1.7404982
0.54977572 0.32513648 1.7255819
0.56577438 0.33459806 1.7292899
0.58337575 0.34500748 1.7428547
0.59161973 0.34988293 1.7283425
0.60457927 0.35754719 1.7222787
0.62413251 0.36911094 1.7345362
0.63374829 0.3747977 1.7189502
0.65009367 0.38446432 1.7216171
0.66843897 0.39531371 1.7340462
0.67622542 0.39991862 1.7189777
0.69479173 0.41089869 1.7310479
0.70452869 0.41665712 1.7257277
0.71583742 0.42334509 1.7194347
0.73093718 0.43227506 1.7219957
0.7344892 0.4343757 1.6975993
0.75578487 0.44696993 1.7186935
0.77899504 0.46069637 1.7385412
0.79038572 0.4674328 1.731588
0.7992633 0.47268298 1.7147155
0.82714874 0.4891744 1.7425939
0.84020638 0.49689665 1.7341416
0.85320002 0.50458109 1.7255572
0.84871906 0.50193107 1.682332
0.85248917 0.5041607 1.6564976
0.84544605 0.49999541 1.6147215
0.84846801 0.5017826 1.589093
0.85117 0.50338054 1.5635273
0.85355324 0.50479001 1.5380292
0.84477085 0.49959609 1.4969522
0.84641868 0.5005706 1.4717013
0.84775227 0.50135928 1.446532
0.84742707 0.501167 1.4225326
0.85311985 0.50453371 1.4057142
0.84228992 0.49812886 1.3655825
0.8474406 0.50117499 1.3489137
0.84727049 0.50107437 1.3242195
0.84679472 0.50079298 1.2996327
0.85652441 0.50654709 1.2909981
0.85556078 0.50597721 1.2665318
0.85007191 0.50273114 1.2333041
0.85816211 0.50751567 1.2257184
0.85521954 0.50577539 1.2026598
0.85092539 0.50323588 1.1807961
0.85867006 0.50781608 1.1732044
0.86634707 0.51235622 1.1655616
0.86938667 0.51415384 1.1492226
0.86546004 0.51183164 1.1265466
0.84495217 0.49970332 1.0807185
0.84719485 0.50102967 1.0647676
0.84336507 0.49876472 1.0415705
0.83139902 0.49168801 1.0134193
0.83897948 0.49617106 1.0049516
0.83951277 0.49648649 0.9903633
0.85209113 0.50392526 0.98994946
0.85335523 0.50467288 0.97426391
0.84825742 0.50165802 0.95168197
0.84912986 0.50217402 0.93616223
0.84983426 0.5025906 0.92069781
0.85037148 0.50290829 0.9052909
0.84434593 0.49934477 0.88325238
0.84450155 0.49943683 0.86803228
0.85748553 0.50711554 0.86599791
0.84352881 0.49886155 0.83886606
0.85481197 0.50553441 0.83888704
0.84707135 0.50095659 0.81848192
0.85241991 0.50411975 0.81095225
0.85102999 0.50329775 0.79708177
0.84949595 0.5023905 0.78330094
0.85462523 0.50542396 0.77573347
0.85286999 0.50438589 0.76204175
0.85856146 0.50775182 0.75336599
0.857274 0.50699043 0.73867583
0.8558318 0.50613749 0.7240696
0.86057109 0.50894034 0.71644759
0.84414583 0.49922645 0.69151342
0.84995365 0.50266123 0.6818434
0.85504282 0.50567091 0.67320031
0.84573245 0.50016475 0.65343082
0.85781687 0.50731152 0.65029627
0.84817016 0.50160646 0.63079184
0.84558642 0.50007838 0.61685103
0.85018754 0.50279951 0.60825467
0.83942914 0.49643701 0.59034657
0.83589178 0.49434501 0.57776117
0.83966041 0.49657378 0.57033759
0.83644414 0.49467167 0.55683136
0.83308947 0.49268776 0.54343414
0.82910359 0.49033052 0.5311904
0.82548869 0.48819265 0.51801199
0.83695686 0.49497491 0.51429856
0.84078807 0.49724066 0.50579357
0.83687741 0.49492794 0.49272963
0.84054661 0.49709788 0.48422629
0.83640724 0.49464986 0.47132197
0.83904451 0.49620956 0.46495199
0.83427554 0.49338916 0.45326757
0.85373366 0.5048967 0.45201564
0.85709637 0.50688541 0.44334295
0.83671325 0.49483085 0.422674
0.85570258 0.50606108 0.42198962
0.85844803 0.50768477 0.41439497
0.85355085 0.50478858 0.40191966
0.84853226 0.50182056 0.38957548
0.8517862 0.50374496 0.37987003
0.86231428 0.50997126 0.37582368
0.85701925 0.50683975 0.36363637
0.85971802 0.50843585 0.35493374
0.85421592 0.50518185 0.34293798
0.85675931 0.50668603 0.33426455
0.85954505 0.5083335 0.32446784
0.87015849 0.51461029 0.31874815
0.87280774 0.51617706 0.30881691
0.87481421 0.51736367 0.30105627
0.85248423 0.50415778 0.28283492
0.86261469 0.51014894 0.27792791
0.86466944 0.5113641 0.2691718
0.86665839 0.51254034 0.2603952
0.86022955 0.50873834 0.24917956
0.86206847 0.50982589 0.24044873
0.86384171 0.51087457 0.23169959
0.85714579 0.50691462 0.22076841
0.85054719 0.50301218 0.20892164
0.85208404 0.50392109 0.20029052
0.86200708 0.50978959 0.1935416
0.88053578 0.52074742 0.18729356
0.87326145 0.5164454 0.17775989
0.89154524 0.5272584 0.17217925
0.88430166 0.52297455 0.16158022
0.87696743 0.51863712 0.15114129
0.89511919 0.52937204 0.14500652
0.88763928 0.52494842 0.1346314
0.88861674 0.52552646 0.12562704
0.8896364 0.52612948 0.11547672
0.87334543 0.51649505 0.10440568
0.88275534 0.52206004 0.095374405
0.88343811 0.52246386 0.086421058
0.87539864 0.51770931 0.077809654
0.87594974 0.51803523 0.068931565
0.87643415 0.51832169 0.060048219
0.8854484 0.52365273 0.051661875
0.87720269 0.51877624 0.042268496
0.88608962 0.52403194 0.033700656
0.87770408 0.51907271 0.024475893
0.88647503 0.52425987 0.014614722
0.87795216 0.51921946 0.0033468374
0.87794852 0.51921731 -0.0044505754
0.86927497 0.5140878 -0.013220492
0.86916292 0.51402152 -0.020922732
0.87757635 0.51899719 -0.030028239
0.88588077 0.52390844 -0.040437609
0.87689972 0.51859707 -0.050040137
0.86789739 0.51327312 -0.05835085
0.86736202 0.51295644 -0.06825576
0.86681628 0.51263374 -0.077046812
0.86620456 0.51227194 -0.085832
0.87400693 0.51688623 -0.096646227
0.86468643 0.51137412 -0.10446922
0.87242198 0.51594895 -0.11435287
0.87152982 0.51542133 -0.12319347
0.87910634 0.51990205 -0.13331904
0.8779363 0.5192101 -0.14334829
0.87682617 0.51855356 -0.15224369
0.87549859 0.51776844 -0.16222826
0.87424672 0.51702809 -0.17109822
0.86428404 0.51113617 -0.1793122
0.87964487 0.52022052 -0.19286141
0.87816274 0.51934397 -0.20177224
0.85955971 0.50834221 -0.20771459
0.86658454 0.51249665 -0.21743612
0.86470366 0.51138431 -0.22731836
0.87134159 0.51530999 -0.23836841
0.86951792 0.5142315 -0.24719332
0.87572944 0.51790494 -0.25956205
0.87374645 0.51673222 -0.26843065
0.86313456 0.51045638 -0.27574083
0.87758881 0.51900458 -0.28995192
0.86684299 0.51264954 -0.29710895
0.86457831 0.51131016 -0.30588603
0.8619495 0.50975549 -0.31574109
0.8598516 0.50851482 -0.32336962
0.85738993 0.50705898 -0.33207482
0.86267841 0.51018661 -0.34510225
0.85193968 0.50383574 -0.35049722
0.85633987 0.50643796 -0.36579037
0.86161214 0.509556 -0.37799096
0.85035145 0.50289643 -0.38418433
0.84743333 0.50117069 -0.39279088
0.8440764 0.49918538 -0.40242893
0.85688978 0.50676322 -0.41872534
0.84580725 0.50020903 -0.4234395
0.84299636 0.49854666 -0.43093896
0.84757525 0.50125462 -0.44357637
0.84421116 0.49926507 -0.45215252
0.84078276 0.49723753 -0.46069425
0.845043 0.49975705 -0.47354534
0.84190965 0.497904 -0.48101947
0.84641469 0.50056827 -0.49296412
0.85081881 0.50317287 -0.5049994
0.84747112 0.50119305 -0.51254094
0.85168606 0.50368571 -0.52472049
0.84113401 0.49744526 -0.52644259
0.8527382 0.50430799 -0.54351729
0.84914523 0.50218308 -0.55105758
0.84549451 0.50002408 -0.55858296
0.85615635 0.50632942 -0.57717139
0.84438157 0.49936587 -0.58073533
0.85472399 0.50548232 -0.599612
0.7695663 0.45512027 -0.55057538
0.75811195 0.44834617 -0.5530389
0.74667972 0.44158515 -0.55531245
0.72806311 0.43057531 -0.5519321
0.72388965 0.42810714 -0.5592925
0.71966106 0.42560637 -0.56661028
0.70829475 0.41888434 -0.56820285
0.69642889 0.4118669 -0.5704844
0.69211727 0.40931702 -0.57752335
0.65996498 0.39030221 -0.5609014
0.66262913 0.39187777 -0.57354552
0.65774626 0.38899007 -0.58108222
0.63974494 0.37834412 -0.57548422
0.64160937 0.37944672 -0.58894622
0.61704028 0.36491662 -0.57662565
0.61213356 0.3620148 -0.58364183
0.60112065 0.35550177 -0.58341449
0.56340975 0.33319962 -0.55780596
0.56570077 0.33455449 -0.57004905
0.58019191 0.34312454 -0.59635806
0.58208692 0.34424525 -0.60890883
0.55789882 0.32994047 -0.5952211
0.53454059 0.31612644 -0.58037096
0.52960616 0.31320822 -0.58644515
0.51900244 0.30693719 -0.58482993
0.51403993 0.30400237 -0.59071606
0.5156498 0.30495444 -0.60299921
0.5171138 0.30582026 -0.61535943
0.506513 0.29955095 -0.61336267
0.51960021 0.3072907 -0.64030308
0.50307161 0.29751572 -0.63087511
0.48613688 0.28750053 -0.62178326
0.49864253 0.29489636 -0.64906991
0.47046563 0.2782326 -0.62461889
0.47136754 0.27876598 -0.63694757
0.46475041 0.27485263 -0.64347732
0.29385278 0.17378405 -0.44390276
0.26981357 0.15110286 1.7427762
0.28142959 0.15760814 1.7403612
0.29633456 0.16595532 1.7472963
0.31136644 0.17437358 1.7540653
0.32289577 0.18083031 1.7411027
0.33991686 0.19036259 1.7573328
0.35132134 0.19674939 1.7441224
0.36458746 0.2041788 1.7405422
0.37993661 0.21277472 1.7465323
0.39758912 0.2226606 1.7620287
0.40540275 0.22703645 1.7493436
0.41933608 0.23483948 1.7553939
0.43103188 0.24138945 1.7516686
0.44679394 0.25021663 1.7568913
0.46015367 0.25769845 1.7523556
0.47347835 0.26516062 1.7476865
0.48676696 0.27260262 1.7428843
0.50548321 0.28308421 1.7569433
0.5087738 0.28492701 1.7240551
0.52597511 0.29456019 1.7384431
0.54044968 0.30266637 1.7432175
0.55206072 0.30916888 1.7384313
0.56361312 0.31563851 1.7335548
0.57826805 0.32384565 1.7379097
0.58185536 0.32585466 1.7148945
0.59969866 0.33584738 1.7283425
0.61448711 0.34412929 1.7215053
0.63101745 0.35338673 1.7353199
0.64420587 0.36077264 1.7289424
0.65734529 0.36813107 1.7224333
0.6740008 0.37745857 1.7249197
0.6890865 0.38590699 1.7280728
0.70591348 0.39533055 1.7301733
0.7152952 0.40058455 1.7140259
0.7398181 0.41431803 1.7337559
0.75136024 0.42078194 1.7272233
0.76448244 0.42813075 1.7196426
0.78560394 0.43995935 1.7296711
0.79709125 0.44639257 1.7227534
0.81685126 0.45745867 1.7333163
0.82836193 0.46390495 1.7261254
0.84837699 0.47511393 1.7362671
0.85827363 0.48065633 1.7298659
0.86538947 0.4846414 1.713658
0.86793739 0.48606828 1.6887932
0.86569393 0.48481187 1.6554248
0.85245681 0.47739875 1.606178
0.86314476 0.48338428 1.5986621
0.85981506 0.48151958 1.565681
0.86082476 0.48208502 1.5412575
0.86010367 0.4816812 1.5179937
0.86056495 0.48193952 1.493741
0.84755039 0.47465104 1.4435943
0.85222793 0.47727057 1.4278727
0.85308945 0.47775304 1.4028865
0.85363615 0.4780592 1.377993
0.8538695 0.47818992 1.3531967
0.8486166 0.47524813 1.3204503
0.85340244 0.47792831 1.3039129
0.85391259 0.47821403 1.2783757
0.8517009 0.47697541 1.2550697
0.85461903 0.47860965 1.2397416
0.85740167 0.48016801 1.2244186
0.85886973 0.48099014 1.2102031
0.86134106 0.48237416 1.1949506
0.86367762 0.48368272 1.1797085
0.87150294 0.48806509 1.1721241
0.8746773 0.4898428 1.1558087
0.8708266 0.48768631 1.1331034
0.87834156 0.4918949 1.1254579
0.87889028 0.49220222 1.1114355
0.86855209 0.48641253 1.0816284
0.86380994 0.48375681 1.0593922
0.85686237 0.47986597 1.0394304
0.85771412 0.48034298 1.0246936
0.85843533 0.4807469 1.0099857
0.85995007 0.48159516 0.99425954
0.86129111 0.48234621 0.97858047
0.86777806 0.48597908 0.97102296
0.8688423 0.48657507 0.95538354
0.86884719 0.48657778 0.94087547
0.8686955 0.48649287 0.92644089
0.86841655 0.48633665 0.91204679
0.8679831 0.48609388 0.8977294
0.86005968 0.48165658 0.87789762
0.8724497 0.48859531 0.87692994
0.87165642 0.48815107 0.86274189
0.87073839 0.48763692 0.8486017
0.87636012 0.49078527 0.84096539
0.87521118 0.49014181 0.82690167
0.88068837 0.49320918 0.81922686
0.86491656 0.48437655 0.79385054
0.86333424 0.48349038 0.78005838
0.86850005 0.48638338 0.77248877
0.87362701 0.48925462 0.76485676
0.86474383 0.48427984 0.74517858
0.86267513 0.48312128 0.73163205
0.86751872 0.48583382 0.7240696
0.86454844 0.48417038 0.71171278
0.87639529 0.49080494 0.70988858
0.86742926 0.48578373 0.68969607
0.87264746 0.48870605 0.68099397
0.87054467 0.48752844 0.66668427
0.86829102 0.48626634 0.65246892
0.86588776 0.48492044 0.63834989
0.86333615 0.48349148 0.62432897
0.86746567 0.48580411 0.61676389
0.85665566 0.47975022 0.59873271
0.85313141 0.47777653 0.58608568
0.84949785 0.47574165 0.57351834
0.84573841 0.47363627 0.56106615
0.85704029 0.47996563 0.55858296
0.8525992 0.4774785 0.54725581
0.84908408 0.47550991 0.53389752
0.84543103 0.47346413 0.52065164
0.84164155 0.47134191 0.50751984
0.8532303 0.47783193 0.50366133
0.84877026 0.47533417 0.49167725
0.85202479 0.47715682 0.48422629
0.85477167 0.47869515 0.47782454
0.85005563 0.47605404 0.46602353
0.8531391 0.47778085 0.45856208
0.86539197 0.48464277 0.45201564
0.86082995 0.48208794 0.43927556
0.86414176 0.48394263 0.43064898
0.86778563 0.48598331 0.42091361
0.87095737 0.48775959 0.41221815
0.86635262 0.48518077 0.3986637
0.86898035 0.48665237 0.3910788
0.87192488 0.4883014 0.38237253
0.87480301 0.48991323 0.37363714
0.87796402 0.49168348 0.36376709
0.87246943 0.48860636 0.3516545
0.8754369 0.49026823 0.3418293
0.87800622 0.49170712 0.33306032
0.8808192 0.49328247 0.32315615
0.88324612 0.4946416 0.31433406
0.88560581 0.4959631 0.30548805
0.88817757 0.49740335 0.29551739
0.89012265 0.49849263 0.28772688
0.89227945 0.49970052 0.27881309
0.89436835 0.50087035 0.26987806
0.8879326 0.49726614 0.25846097
0.88986671 0.49834928 0.24957019
0.9002257 0.50415063 0.24295242
0.87672585 0.49099007 0.22623114
0.88694328 0.49671209 0.21956488
0.88858122 0.4976294 0.21068549
0.88178355 0.49382252 0.19873862
0.86611241 0.48504627 0.18622403
0.87608641 0.49063197 0.1793122
0.87757879 0.49146774 0.16945462
0.88760674 0.49708366 0.16112749
0.88865316 0.4976697 0.1533637
0.88128501 0.49354333 0.14195657
0.89098263 0.49897426 0.13444197
0.8919723 0.4995285 0.12552543
0.88433373 0.49525067 0.11437056
0.89384902 0.50057948 0.10655579
0.89462626 0.50101477 0.097611628
0.90411329 0.50632781 0.088381462
0.8960523 0.50181341 0.078572497
0.89668161 0.50216579 0.068495303
0.89716899 0.50243878 0.059524257
0.89763594 0.50270027 0.049417473
0.89789891 0.50284755 0.04268289
0.89818972 0.50301039 0.033700656
0.89841211 0.50313497 0.024715854
0.89856607 0.50322121 0.015729168
0.88992685 0.49838299 0.0066758366
0.89867038 0.50327957 -0.001114567
0.88990313 0.49836969 -0.010004765
0.88979304 0.49830806 -0.018905021
0.88089353 0.49332407 -0.027531253
0.89805287 0.5029338 -0.038192138
0.90644372 0.50763285 -0.04763082
0.88856953 0.49762285 -0.056706864
0.89681083 0.50223821 -0.066235065
0.88749874 0.49702317 -0.075590663
0.87811494 0.491768 -0.08472541
0.8861239 0.49625322 -0.094430715
0.88527155 0.49577588 -0.10440568
0.89311391 0.50016785 -0.11436637
0.89209223 0.49959564 -0.12440125
0.89111108 0.49904618 -0.13331904
0.89006209 0.49845871 -0.14222668
0.88894528 0.49783328 -0.15112349
0.89622432 0.50190973 -0.16269185
0.88634616 0.49637771 -0.16999903
0.89343941 0.50035012 -0.18170229
0.88344485 0.49475288 -0.18879838
0.88178355 0.49382252 -0.19873862
0.88858443 0.49763119 -0.21066771
0.88694662 0.49671397 -0.21954714
0.88502157 0.4956359 -0.22952533
0.88324028 0.49463832 -0.23836841
0.87268519 0.48872718 -0.24589895
0.87077969 0.48766008 -0.25461802
0.88541991 0.495859 -0.26954666
0.8749212 0.48997942 -0.27574083
0.88090897 0.49333271 -0.28830925
0.88733131 0.49692941 -0.29883823
0.88502222 0.49563625 -0.30770177
0.8743189 0.48964208 -0.31355563
0.87189823 0.48828647 -0.32228845
0.87737525 0.49135375 -0.33523744
0.87478942 0.4899056 -0.34400001
0.87179798 0.48823035 -0.35383528
0.86872792 0.48651102 -0.363619
0.87409544 0.48951697 -0.37580621
0.86305875 0.48333612 -0.38094065
0.85975122 0.48148382 -0.39064202
0.87329888 0.48907086 -0.40565845
0.86172539 0.48258942 -0.41162699
0.86658245 0.48530948 -0.4241575
0.86331993 0.48348242 -0.43280873
0.8683815 0.48631701 -0.44442019
0.85702926 0.47995943 -0.44893187
0.86148202 0.48245311 -0.46172261
0.8579337 0.48046595 -0.47032142
0.86215788 0.4828316 -0.48327783
0.85890931 0.48101234 -0.49081761
0.86291361 0.48325482 -0.50392944
0.8595351 0.48136276 -0.51145804
0.85609865 0.47943828 -0.51897401
0.86030149 0.48179197 -0.53118533
0.86438286 0.48407766 -0.54351729
0.86126065 0.48232913 -0.54998976
0.85757565 0.48026544 -0.55750257
0.85383219 0.47816899 -0.565
0.85757011 0.48026231 -0.57751334
0.86174732 0.4826017 -0.58905619
0.79759616 0.4466753 -0.55607694
0.77056253 0.43153575 -0.54919058
0.76688552 0.42947653 -0.55591053
0.7406249 0.41476989 -0.54730308
0.74372101 0.41650379 -0.5601818
0.73942757 0.41409931 -0.56759906
0.71345782 0.39955559 -0.55806208
0.70148104 0.39284825 -0.56035221
0.69007373 0.38645986 -0.56155771
0.68523473 0.3837499 -0.56928849
0.68087417 0.38130784 -0.57612038
0.65499794 0.36681646 -0.56570613
0.64374381 0.36051384 -0.5661481
0.63940871 0.35808608 -0.5725652
0.64185315 0.35945502 -0.58516377
0.61703163 0.34555432 -0.57268155
0.61994123 0.34718379 -0.58441103
0.60153365 0.33687502 -0.57850885
0.59710604 0.33439547 -0.58450323
0.56629372 0.31713974 -0.56421077
0.56197637 0.31472188 -0.56985325
0.56410009 0.31591123 -0.5821436
0.53981197 0.30230924 -0.5681656
0.54184008 0.30344501 -0.58037096
0.51789105 0.29003292 -0.56574708
0.53235275 0.29813185 -0.59179217
0.52782667 0.29559711 -0.59709412
0.52884066 0.29616499 -0.6100933
0.51808029 0.2901389 -0.60820413
0.51887447 0.29058364 -0.62123299
0.52608109 0.29461956 -0.64096648
0.50282371 0.28159481 -0.62479812
0.49744293 0.27858141 -0.63043076
0.49841952 0.27912834 -0.64285713
0.46481371 0.26030821 -0.61015397
0.47659078 0.26690367 -0.6381408
0.47048908 0.26348653 -0.64406121
0.41898909 0.23464516 -0.5890584
0.099043019 0.055466752 -0.15236115
0.28149611 0.14904451 1.7614329
0.29008305 0.15359108 1.7392992
0.30352867 0.16071016 1.756742
0.31362626 0.16605656 1.744266
0.32537436 0.17227685 1.7415086
0.3409183 0.18050696 1.7581786
0.35667893 0.18885177 1.7746873
0.36460698 0.19304946 1.7520827
0.3726517 0.19730891 1.7396264
0.39252403 0.20783079 1.7649734
0.40165809 0.212667 1.7416784
0.41276902 0.21854994 1.7279924
0.42914647 0.22722135 1.7436467
0.44407615 0.23512623 1.7596625
0.4559513 0.2414138 1.7557698
0.46777281 0.24767296 1.7517838
0.483895 0.25620922 1.7566452
0.49472079 0.26194116 1.7422795
0.50813878 0.26904565 1.7373283
0.52384007 0.27735904 1.7524736
0.53855979 0.28515273 1.7573392
0.5474304 0.28984949 1.7432175
0.56523675 0.29927745 1.7572252
0.58186233 0.30808026 1.7609438
0.5922538 0.31358227 1.7457954
0.60077417 0.31809354 1.7313251
0.61245328 0.32427731 1.726078
0.63413244 0.33575583 1.7376835
0.64416993 0.34107041 1.7329501
0.65585876 0.34725934 1.7273275
0.67271465 0.35618407 1.7299387
0.68073481 0.36043054 1.7149606
0.70131731 0.37132841 1.7263457
0.71836561 0.38035503 1.7284042
0.73549885 0.38942659 1.7302568
0.75271499 0.39854208 1.731902
0.76439357 0.40472558 1.7253405
0.77198029 0.40874252 1.7097883
0.79575121 0.42132857 1.7296711
0.80573893 0.42661682 1.7237409
0.83160216 0.44031066 1.7421149
0.85354143 0.45192695 1.7513506
0.86268067 0.45676589 1.7341416
0.87161976 0.46149892 1.716886
0.8758899 0.46375984 1.6909595
0.875292 0.46344328 1.6564976
0.87265342 0.46204621 1.623265
0.86964309 0.46045232 1.5901587
0.87715769 0.46443111 1.5730537
0.8686443 0.45992348 1.5317727
0.8789674 0.46538928 1.5242143
0.87800926 0.46488199 1.5009944
0.87329948 0.46238828 1.4684839
0.87321532 0.46234372 1.4443799
0.87283522 0.46214244 1.4203813
0.87084693 0.4610897 1.3975414
0.86996764 0.46062416 1.3737109
0.87531865 0.46345738 1.3569909
0.86993378 0.46060622 1.3242195
0.87602925 0.46383363 1.3065341
0.87526643 0.46342972 1.2820069
0.87419277 0.46286124 1.2575955
0.87593919 0.46378592 1.2432752
0.87992507 0.46589634 1.2268139
0.88372421 0.46790788 1.2103692
0.88619483 0.46921599 1.1950294
0.88963777 0.47103897 1.1786293
0.88709772 0.46969405 1.1547056
0.89011323 0.47129071 1.1384127
0.88594818 0.46908543 1.1158202
0.90048337 0.4767814 1.1144098
0.87894285 0.46537629 1.0688707
0.87399948 0.4627589 1.0466992
0.88102937 0.46648103 1.0391259
0.87569016 0.46365407 1.0171487
0.86913854 0.46018517 0.99640745
0.88834137 0.47035256 1.0030046
0.88248473 0.4672516 0.981273
0.8827228 0.46737766 0.96667397
0.88283044 0.46743467 0.95211095
0.88277882 0.46740735 0.93762034
0.8825978 0.4673115 0.92316902
0.88225955 0.46713236 0.90879345
0.88092321 0.46642482 0.89555693
0.88694775 0.46961468 0.88791084
0.87957996 0.46571362 0.86709279
0.88541228 0.46880168 0.85945922
0.88524926 0.46871537 0.84423912
0.88411325 0.46811387 0.83018863
0.87678242 0.46423241 0.80878973
0.88988495 0.47116983 0.80635214
0.87448549 0.46301624 0.78005838
0.88046819 0.4661839 0.77139378
0.87934899 0.46559134 0.75661749
0.88515073 0.46866319 0.74790573
0.88375795 0.46792576 0.73322397
0.88220668 0.46710438 0.7186271
0.88049805 0.46619973 0.70411712
0.88521856 0.4686991 0.69649786
0.88922828 0.47082216 0.68992722
0.87920988 0.46551767 0.67103148
0.87634319 0.46399984 0.65789574
0.87336087 0.46242079 0.6448316
0.88574398 0.46897727 0.64157462
0.87568915 0.46365353 0.62216872
0.86540359 0.45820761 0.60301113
0.868873 0.46004456 0.59658927
0.87344092 0.46246317 0.58798707
0.85503948 0.45272011 0.56422687
0.85935837 0.45500684 0.55576247
0.86361182 0.45725891 0.54725581
0.86727548 0.45919871 0.53978682
0.86312103 0.45699906 0.52751678
0.85934424 0.45499936 0.51429856
0.85542995 0.45292684 0.50119549
0.87454087 0.46304554 0.50285894
0.86209434 0.45645544 0.4863556
0.8653475 0.45817792 0.47890148
0.86900795 0.46011603 0.47033858
0.87260222 0.46201909 0.46173984
0.87656981 0.46411982 0.45201564
0.87152147 0.46144688 0.44036016
0.87447107 0.46300858 0.43280873
0.88548672 0.46884108 0.42918685
0.87245536 0.46194136 0.41271272
0.88378835 0.46794182 0.40785861
0.88651794 0.46938708 0.40020204
0.87309712 0.46228114 0.38418433
0.88429117 0.46820807 0.37909141
0.87888974 0.46534815 0.36688408
0.88133717 0.46664399 0.35928848
0.88407451 0.46809337 0.35057223
0.87837899 0.46507776 0.33860451
0.88967013 0.47105607 0.33195364
0.89250487 0.47255701 0.32206354
0.88651174 0.46938381 0.31028336
0.88887095 0.47063294 0.3015179
0.89144641 0.47199658 0.29162055
0.8936615 0.47316942 0.28280705
0.89580852 0.4743062 0.27397203
0.88103294 0.46648294 0.25898772
0.89156955 0.47206178 0.2527082
0.89372098 0.47320092 0.24278317
0.88694823 0.46961489 0.23169959
0.89754426 0.47522524 0.22399835
0.89923763 0.47612181 0.21512723
0.88373423 0.46791318 0.20117418
0.89393103 0.47331211 0.19432697
0.88687766 0.46957755 0.18260595
0.89696056 0.47491616 0.17554606
0.88955909 0.47099727 0.16506428
0.89094955 0.47173348 0.15516585
0.89211226 0.47234914 0.14636247
0.89333808 0.47299817 0.13645421
0.90312463 0.4781799 0.1288792
0.89542156 0.47410133 0.11767799
0.89629507 0.47456381 0.10883188
0.89719534 0.4750405 0.098878995
0.90672696 0.48008719 0.090898596
0.90747249 0.48048195 0.080812871
0.90806121 0.48079365 0.071849167
0.89975959 0.47639817 0.062269509
0.9002561 0.47666106 0.052280411
0.89175373 0.4721593 0.044055581
0.90092534 0.47701541 0.034494393
0.90999192 0.48181593 0.025848055
0.90133584 0.47723275 0.015576459
0.91025913 0.48195738 0.0067412863
0.90143615 0.47728586 -0.0033290351
0.90136373 0.47724751 -0.013351387
0.89239085 0.47249666 -0.022033034
0.90982342 0.48172671 -0.032568697
0.90070713 0.47689989 -0.041147884
0.90030634 0.47668767 -0.051160306
0.89987749 0.47646061 -0.060048219
0.89049685 0.47149381 -0.069346145
0.89873934 0.47585797 -0.078910135
0.88929164 0.47085571 -0.086920917
0.89729089 0.47509107 -0.097762667
0.89650273 0.47467378 -0.10661903
0.88675565 0.46951294 -0.11542108
0.89447993 0.47360274 -0.12651514
0.91098917 0.48234394 -0.13799644
0.90974915 0.48168737 -0.14810053
0.90857232 0.48106429 -0.157078
0.89844167 0.47570038 -0.16556485
0.89713061 0.47500619 -0.17442998
0.90427029 0.47878647 -0.18616861
0.88543856 0.46881557 -0.19133878
0.90106237 0.47708794 -0.20511878
0.89924091 0.47612357 -0.21510948
0.906178 0.47979656 -0.22613429
0.88694823 0.46961489 -0.23169959
0.88512754 0.46865091 -0.24044873
0.90014625 0.47660291 -0.25512031
0.88959068 0.47101402 -0.26148459
0.89580852 0.4743062 -0.27397203
0.8936615 0.47316942 -0.28280705
0.89144641 0.47199658 -0.29162055
0.88916343 0.47078779 -0.30041182
0.88681275 0.46954316 -0.3091802
0.89281732 0.47272244 -0.32095292
0.89030802 0.47139385 -0.32975662
0.88773102 0.47002935 -0.33853519
0.89343619 0.47305012 -0.3505643
0.89035434 0.47141838 -0.36046335
0.88718116 0.46973825 -0.37034526
0.87602675 0.46383229 -0.37554851
0.88133389 0.46664226 -0.38780871
0.87792975 0.46483988 -0.39757165
0.88300616 0.46752769 -0.41002193
0.87166399 0.46152231 -0.41484827
0.87695581 0.46432418 -0.42632335
0.86554527 0.45828265 -0.43093896
0.878739 0.46526837 -0.44659051
0.87569624 0.46365729 -0.45417845
0.87260938 0.46202287 -0.46172261
0.87744123 0.46458122 -0.47356221
0.86673158 0.45891076 -0.47568607
0.87142205 0.46139422 -0.48758483
0.86762851 0.45938566 -0.49617091
0.88732624 0.46981505 -0.51848429
0.88329381 0.46767998 -0.52722627
0.87141359 0.46138975 -0.53118533
0.88329589 0.46768111 -0.54832721
0.87185866 0.4616254 -0.55105758
0.88347507 0.46777597 -0.56846941
0.88016802 0.46602497 -0.57499999
0.8762666 0.46395931 -0.58257926
0.84141886 0.44550836 -0.57064575
0.79874611 0.4229143 -0.55384851
0.78694957 0.41666833 -0.5564152
0.77463996 0.41015074 -0.55974042
0.74807358 0.39608458 -0.55100173
0.74325264 0.39353201 -0.5592925
0.72427905 0.38348603 -0.55539024
0.72779232 0.3853462 -0.5672977
0.70168781 0.37152457 -0.55722862
0.69736362 0.36923501 -0.56413609
0.69298631 0.36691737 -0.57100052
0.67380887 0.35676345 -0.56674635
0.66236591 0.3507047 -0.56734258
0.65096557 0.34466854 -0.56775647
0.64656216 0.34233704 -0.57416266
0.63520509 0.33632377 -0.57428288
0.61703992 0.32670581 -0.56791294
0.6194436 0.32797849 -0.58036172
0.61494416 0.32559615 -0.58645618
0.59027487 0.31253445 -0.57297277
0.57862872 0.30636814 -0.57291126
0.57418829 0.30401704 -0.57860303
0.56315577 0.29817563 -0.57753515
0.55811334 0.29550579 -0.58376867
0.54715282 0.2897025 -0.58240557
0.52348834 0.27717283 -0.56704068
0.54384279 0.28794995 -0.60076606
0.52664959 0.27884659 -0.59201753
0.53389937 0.28268519 -0.61207885
0.52300555 0.27691719 -0.6101492
0.5298723 0.28055295 -0.63041681
0.5249902 0.27796802 -0.63562495
0.50750387 0.26870948 -0.62668574
0.4967379 0.26300916 -0.62424165
0.49776071 0.26355073 -0.63661236
0.49800909 0.26368225 -0.64966041
0.48151517 0.25494915 -0.63933098
0.44644022 0.23637794 -0.60738504
0.27816778 0.14728226 -0.41392103
0.28343168 0.14162278 1.7414101
0.2970148 0.14840989 1.7385789
0.31057534 0.1551857 1.7356153
0.32594335 0.16286466 1.7423077
0.34334683 0.17156069 1.7586017
0.35507822 0.17742252 1.7454343
0.37074974 0.18525314 1.7516352
0.38440937 0.19207849 1.7479517
0.39803973 0.19888918 1.7441351
0.40995505 0.20484293 1.7406827
0.42013752 0.20993082 1.737646
0.43850479 0.21910843 1.7527422
0.45465493 0.2271782 1.7580043
0.46492094 0.23230782 1.7337767
0.48636749 0.24302405 1.7578356
0.49566537 0.24766994 1.7440974
0.51204425 0.25585401 1.7486993
0.52567559 0.26266518 1.7436377
0.54219764 0.27092081 1.7478912
0.56009758 0.27986491 1.7620631
0.5721308 0.28587756 1.7572252
0.58097965 0.29029906 1.7429254
0.59606886 0.29783872 1.7472533
0.60952795 0.30456385 1.7521747
0.62649751 0.31304306 1.75545
0.63507783 0.31733039 1.7299935
0.65034878 0.32496089 1.7337378
0.66215867 0.33086193 1.7281424
0.67562383 0.3375901 1.7216171
0.70003277 0.34978655 1.742327
0.70613492 0.3528356 1.7172596
0.72925198 0.36438656 1.7383366
0.73892546 0.36922011 1.7221398
0.75458372 0.37704411 1.7247728
0.76466566 0.38208178 1.7192149
0.78044361 0.38996556 1.7215501
0.80037552 0.39992496 1.7326163
0.81804401 0.40875342 1.7335873
0.83578831 0.41761974 1.7343447
0.85622919 0.42783347 1.7446862
0.86107421 0.4302544 1.7188171
0.87996286 0.43969253 1.7298659
0.88725853 0.44333795 1.713658
0.88533068 0.44237465 1.6801769
0.88757062 0.4434939 1.6554248
0.87864798 0.43903551 1.6147215
0.88495708 0.44218799 1.5986621
0.88154322 0.4404822 1.565681
0.88890082 0.44415855 1.5486053
0.88479954 0.44210926 1.5158395
0.88173813 0.44057956 1.4821699
0.88825637 0.44383657 1.4652337
0.88441211 0.44191569 1.431826
0.88387764 0.44164863 1.4078732
0.88442922 0.44192421 1.3829273
0.88992518 0.44467041 1.366163
0.87263668 0.43603182 1.3183253
0.88289464 0.44115746 1.3097622
0.88763976 0.44352844 1.2931659
0.88791358 0.4436653 1.267624
0.87985009 0.43963617 1.2365209
0.8882609 0.4438388 1.2289832
0.88528925 0.44235396 1.2058963
0.8877635 0.44359025 1.1906316
0.8831706 0.44129533 1.1688319
0.89226121 0.44583765 1.1601719
0.89428526 0.44684902 1.1449803
0.8972472 0.44832903 1.1287376
0.88095075 0.44018611 1.0913578
0.90758836 0.45349622 1.1048188
0.8846131 0.44201609 1.0604628
0.88465941 0.44203925 1.0466992
0.87938923 0.43940589 1.0246936
0.88012862 0.43977535 1.0099857
0.87973917 0.43958074 0.99640745
0.88651174 0.44296482 0.98887771
0.89324814 0.44633079 0.981273
0.89348906 0.44645119 0.96667397
0.89451915 0.4469659 0.95102942
0.89537352 0.44739279 0.93543887
0.89605314 0.44773236 0.91990465
0.88991767 0.44466665 0.8977294
0.89019847 0.44480696 0.88237941
0.8903079 0.44486165 0.86709279
0.89024699 0.44483122 0.85187173
0.89686304 0.44813707 0.84315467
0.89651453 0.44796291 0.82800418
0.8959983 0.44770497 0.81292516
0.8883208 0.44386876 0.791686
0.89293689 0.44617528 0.7851696
0.90535313 0.45237932 0.78363812
0.89644402 0.44792768 0.76377279
0.90164077 0.45052436 0.75608975
0.89957649 0.4494929 0.7424407
0.89809525 0.44875276 0.72776777
0.90374219 0.45157439 0.71897888
0.90130472 0.45035645 0.70549899
0.89940554 0.44940749 0.6910156
0.89734948 0.44838011 0.6766234
0.90259719 0.45100224 0.66784376
0.89213359 0.4457739 0.64921743
0.90470684 0.45205638 0.645872
0.90152127 0.45046464 0.6328041
0.89820057 0.44880539 0.61984628
0.8947655 0.44708899 0.60696471
0.89119786 0.44530633 0.59419578
0.8803575 0.43988973 0.5753848
0.87650973 0.43796709 0.56286365
0.88032448 0.43987322 0.55537403
0.89192045 0.44566739 0.552683
0.86423844 0.43183547 0.52593726
0.86780971 0.43361995 0.51853639
0.86291045 0.43117189 0.50751984
0.88224429 0.4408325 0.50932479
0.87070239 0.43506533 0.49060729
0.88204288 0.44073185 0.48760206
0.87730283 0.4383634 0.47568607
0.88098282 0.44020215 0.46710962
0.88503891 0.44222888 0.45742726
0.88042396 0.43992293 0.44465882
0.88386154 0.44164059 0.43605313
0.87818825 0.43880579 0.42559943
0.89795339 0.44868186 0.42481095
0.89296716 0.44619039 0.41221815
0.89615101 0.44778129 0.40349132
0.88299412 0.44120717 0.38633874
0.89433461 0.44687369 0.38127348
0.88889116 0.44415373 0.36905283
0.89208657 0.44575039 0.35928848
0.90329933 0.4513531 0.35387951
0.89789557 0.44865298 0.34072584
0.90052116 0.44996491 0.33195364
0.91191304 0.45565712 0.32510188
0.9058702 0.45263767 0.31323844
0.90000826 0.44970864 0.30041182
0.90231907 0.4508633 0.29162055
0.91345191 0.45642605 0.28439564
0.90699911 0.45320177 0.27287504
0.90909469 0.45424888 0.2640166
0.90269178 0.45104951 0.25159878
0.90462142 0.4520137 0.24278317
0.89798981 0.44870007 0.23061346
0.90849131 0.4539474 0.22399835
0.90166241 0.45053515 0.21195053
0.89451283 0.44696274 0.20117418
0.8960492 0.44773042 0.1924403
0.90649557 0.45295015 0.18439621
0.91671503 0.45805654 0.1772504
0.90923625 0.45431963 0.16668256
0.90181619 0.45061201 0.15516585
0.91184598 0.4556236 0.14779741
0.91309893 0.45624965 0.13779199
0.91413981 0.45676976 0.1288792
0.90622646 0.45281571 0.11879198
0.90701234 0.45320836 0.11104421
0.8989442 0.44917697 0.10118994
0.9175157 0.45845661 0.094246671
0.91821653 0.45880678 0.085292451
0.90992647 0.4546645 0.075590663
0.9194082 0.45940226 0.067365222
0.91995507 0.45967549 0.057280764
0.92036718 0.45988142 0.048304159
0.91177028 0.45558581 0.038942095
0.92101043 0.46020284 0.029208532
0.91223943 0.4558202 0.021147687
0.92131454 0.46035478 0.012367804
0.91243064 0.45591575 0.0033468374
0.912422 0.45591143 -0.0055543082
0.92128843 0.46034175 -0.014596747
0.91219634 0.45579866 -0.023354653
0.91194701 0.45567408 -0.033373464
0.92952728 0.46445847 -0.043097287
0.92017072 0.45978326 -0.05277501
0.91972369 0.45955989 -0.061749525
0.92806017 0.46372539 -0.072546735
0.90954483 0.45447376 -0.081128575
0.90887684 0.45414004 -0.08999835
0.89913952 0.44927457 -0.09899731
0.92501563 0.46220413 -0.11096584
0.91522849 0.45731375 -0.11883169
0.92301697 0.46120542 -0.13011245
0.91310108 0.45625073 -0.13777417
0.91170233 0.45555186 -0.14890034
0.91949886 0.45944753 -0.15820833
0.90939969 0.45440125 -0.16556485
0.91688883 0.45814338 -0.17612348
0.91547906 0.45743895 -0.18506129
0.92278802 0.46109104 -0.19585024
0.90367693 0.45154175 -0.20094304
0.91062635 0.4550142 -0.21288911
0.90892977 0.45416647 -0.22176442
0.90716404 0.45328417 -0.23062284
0.91379589 0.45659792 -0.2428896
0.91186506 0.45563313 -0.2517947
0.90961188 0.45450729 -0.2617811
0.90726697 0.45333561 -0.27175999
0.90511096 0.45225832 -0.28060031
0.90260541 0.45100635 -0.29051125
0.90030318 0.44985601 -0.29930535
0.90617776 0.45279136 -0.31212479
0.90370673 0.45155665 -0.32095292
0.90084714 0.45012778 -0.33084652
0.89823014 0.44882017 -0.33962196
0.90364689 0.45152673 -0.35276899
0.90015084 0.4497799 -0.36376709
0.89727694 0.44834387 -0.37253445
0.89433461 0.44687369 -0.38127348
0.89132428 0.44536948 -0.38998345
0.89654738 0.44797933 -0.40238953
0.88510013 0.44225946 -0.40731362
0.87364489 0.4365356 -0.4120453
0.88681763 0.44311765 -0.42848721
0.87525898 0.43734211 -0.43307462
0.88043088 0.43992639 -0.44464165
0.88504606 0.44223246 -0.45741001
0.88098282 0.44020215 -0.46710962
0.87730283 0.4383634 -0.47568607
0.8815704 0.44049576 -0.48866874
0.87772214 0.43857288 -0.49725011
0.88225222 0.44083646 -0.50930756
0.88666028 0.44303903 -0.52148825
0.88307649 0.44124833 -0.52903289
0.88781703 0.44361702 -0.54026365
0.89138496 0.44539982 -0.5537616
0.88702822 0.44322285 -0.56243622
0.87540919 0.43741718 -0.565
0.89408827 0.44675058 -0.58874452
0.85111958 0.42528036 -0.57169229
0.81611544 0.40778977 -0.55907345
0.79600865 0.39774299 -0.55737847
0.77654868 0.38801938 -0.5543583
0.75665522 0.37807918 -0.5519321
0.75976652 0.37963381 -0.56483001
0.7473743 0.37344179 -0.56751466
0.73556006 0.36753854 -0.56909299
0.70860666 0.35407066 -0.55983084
0.6969496 0.34824598 -0.56087971
0.69199479 0.34577018 -0.56849468
0.69469237 0.34711811 -0.58121556
0.66822374 0.33389249 -0.57060742
0.66374397 0.33165407 -0.57710439
0.6446346 0.32210568 -0.57192147
0.63318741 0.31638581 -0.57190359
0.60106373 0.30033454 -0.55264956
0.61673486 0.30816495 -0.57850885
0.59178889 0.29570013 -0.56501979
0.60703737 0.30331936 -0.59118778
0.57562596 0.287624 -0.57054991
0.57721782 0.2884194 -0.58355278
0.57864535 0.28913268 -0.59663373
0.54731071 0.27347565 -0.57555372
0.53633505 0.26799142 -0.57395583
0.5382418 0.2689442 -0.58614397
0.51514751 0.25740463 -0.56961906
0.53590012 0.26777413 -0.60299921
0.53117257 0.26541188 -0.60820413
0.52580088 0.26272783 -0.61400938
0.53324628 0.26644808 -0.63368273
0.5094654 0.25456542 -0.61744756
0.5100137 0.25483939 -0.63043076
0.48724684 0.24346344 -0.61295682
0.47596902 0.23782824 -0.61073005
0.47700045 0.23834361 -0.62294698
0.48300186 0.24134235 -0.64347732
0.41939095 0.20955777 -0.5725354
0.10720317 0.053566389 -0.16011909
0.28498441 0.13410348 1.741752
0.295351 0.13898163 1.7192882
0.31071836 0.14621297 1.7363685
0.32624978 0.15352149 1.7430985
0.34000087 0.15999226 1.7398856
0.35173884 0.16551574 1.7267843
0.36572725 0.17209817 1.7335011
0.38153252 0.17953558 1.7396264
0.39967033 0.18807058 1.7552757
0.41351479 0.19458529 1.7513543
0.42496681 0.19997421 1.737646
0.44180113 0.20789583 1.75328
0.4514215 0.21242283 1.7398837
0.46597582 0.21927159 1.7456192
0.47803652 0.22494692 1.7416314
0.49004185 0.23059618 1.7375512
0.50307018 0.23672687 1.7434967
0.51964188 0.2445249 1.7480789
0.53342491 0.25101072 1.7430007
0.55187905 0.25969458 1.7465647
0.56086808 0.26392448 1.7324464
0.57594812 0.27102062 1.7370468
0.59282917 0.27896425 1.740785
0.60655189 0.28542164 1.7350012
0.62356293 0.29342642 1.7383815
0.63554156 0.29906318 1.7330748
0.65961677 0.31039208 1.7545832
0.6646629 0.31276661 1.7305491
0.6801852 0.32007083 1.7340711
0.69582194 0.32742897 1.7374182
0.70237982 0.33051485 1.7232302
0.7218098 0.33965793 1.7354317
0.7337926 0.34529659 1.7292827
0.74180102 0.34906507 1.7140259
0.75589323 0.35569635 1.7176162
0.77177137 0.36316806 1.7201389
0.78361982 0.36874351 1.7135835
0.80127215 0.37705004 1.7148458
0.82574922 0.38856807 1.7345757
0.84797943 0.39902884 1.7441636
0.85736698 0.40344626 1.7271518
0.88423544 0.41608962 1.744992
0.89349031 0.42044464 1.7277156
0.90538752 0.42604303 1.7201339
0.88960308 0.41861543 1.6608033
0.90407956 0.42542753 1.6629046
0.90137148 0.42415324 1.629639
0.90306103 0.42494828 1.6049922
0.89476478 0.42104435 1.5635273
0.89911836 0.42309299 1.5486053
0.8999145 0.42346761 1.5242143
0.8903982 0.41898957 1.4832528
0.90063173 0.42380512 1.4756869
0.90424275 0.42550436 1.4608871
0.89363611 0.42051324 1.4203813
0.89435714 0.42085251 1.3953882
0.88812345 0.41791916 1.3634443
0.89482319 0.42107183 1.3456931
0.88914979 0.41840211 1.3129936
0.89948332 0.42326471 1.3043684
0.90293974 0.42489117 1.288824
0.90748018 0.42702776 1.2722135
0.90616399 0.42640841 1.2478151
0.90453243 0.42564067 1.2235404
0.90717179 0.42688265 1.2081848
0.89800853 0.42257074 1.177546
0.9061088 0.42638245 1.1699423
0.91417474 0.43017799 1.1622528
0.90907651 0.42777893 1.1406074
0.91088921 0.4286319 1.1254579
0.88822848 0.4179686 1.0807185
0.90179551 0.42435274 1.0805507
0.89581913 0.42154047 1.0593922
0.89066386 0.41911459 1.0372853
0.89779639 0.4224709 1.0297476
0.89856488 0.42283255 1.0149846
0.89278919 0.4201147 0.99319237
0.89963293 0.42333511 0.98562062
0.89993429 0.42347693 0.97102296
0.90103799 0.4239963 0.95538354
0.90761995 0.42709354 0.94774318
0.90180689 0.42435813 0.9253456
0.90239471 0.42463472 0.90987313
0.90280735 0.42482889 0.89446038
0.89625597 0.42174605 0.87249953
0.90225118 0.42456716 0.86491942
0.90215951 0.42452404 0.84969854
0.9088344 0.427665 0.84096539
0.90066099 0.42381889 0.8205409
0.89927185 0.42316523 0.8066234
0.89775598 0.42245191 0.79276007
0.90320081 0.42501405 0.7851696
0.90145099 0.42419064 0.77139378
0.89235544 0.41991061 0.75164938
0.90401977 0.42539942 0.7511881
0.90991676 0.42817432 0.7424407
0.90109253 0.42402196 0.72189867
0.90675831 0.42668808 0.71318066
0.91235507 0.42932171 0.70440835
0.91041988 0.42841107 0.68992722
0.90832609 0.4274258 0.67553753
0.9067322 0.4266758 0.66013968
0.91191018 0.42911234 0.65136963
0.90874237 0.42762169 0.63830012
0.89778411 0.42246515 0.62000555
0.90203673 0.42446628 0.61241984
0.89908731 0.42307839 0.59853709
0.89598793 0.42161992 0.58475828
0.88435417 0.4161455 0.56713367
0.88824236 0.41797513 0.5596627
0.88419294 0.41606963 0.54725581
0.895872 0.42156535 0.54460633
0.89165163 0.41957942 0.53226918
0.88679552 0.41729429 0.52111346
0.88234466 0.41519988 0.50899601
0.90194577 0.42442346 0.51064527
0.8892749 0.41846099 0.49404508
0.89266622 0.42005682 0.48651755
0.89599776 0.42162454 0.4789789
0.8992846 0.42317122 0.47139505
0.90205699 0.42447579 0.46488008
0.89700949 0.42210063 0.45310596
0.89185941 0.4196772 0.44142702
0.89487982 0.4210985 0.43389648
0.90658915 0.42660847 0.42918685
0.901187 0.42406639 0.41764784
0.90445042 0.42560205 0.40894049
0.90764499 0.42710531 0.40020204
0.91077042 0.42857602 0.39143309
0.91382647 0.4300141 0.38263431
0.90832394 0.42742482 0.37034526
0.91156709 0.42895094 0.36048093
0.90583318 0.42625272 0.34838897
0.91712075 0.43156427 0.34284362
0.92012471 0.4329778 0.33286753
0.91409445 0.4301402 0.32095292
0.91659385 0.43131635 0.31212479
0.91064709 0.428518 0.29932293
0.91297585 0.42961383 0.29052886
0.91551483 0.43080857 0.28060031
0.91769558 0.43183479 0.27175999
0.92006338 0.43294895 0.26179883
0.92209548 0.43390521 0.25291538
0.92405742 0.4348284 0.24401267
