# .PCD v0.7 - Point Cloud Data file format
VERSION 0.7
FIELDS x y z
SIZE 4 4 4
TYPE F F F
COUNT 1 1 1
WIDTH 1501
HEIGHT 1
VIEWPOINT 0 0 0 1 0 0 0
POINTS 1501
DATA ascii
0.93306142 0.74752319 1.093163
0.93955594 0.75272626 1.0839915
0.94105756 0.75392932 1.0668182
0.93650728 0.75028384 1.0431339
0.93170696 0.74643803 1.0196334
0.93263721 0.74718332 1.0027487
0.93773913 0.75127071 0.99490583
0.95053357 0.76152098 0.99069256
0.94505024 0.757128 0.96754181
0.93932492 0.75254112 0.94459015
0.93954104 0.75271428 0.92794603
0.95125449 0.76209855 0.92478138
0.94423747 0.75647688 0.90347016
0.95035458 0.76137757 0.89287758
0.95006549 0.76114601 0.87637448
0.95035022 0.76137412 0.85862911
0.9490326 0.76031852 0.84359521
0.94183981 0.754556 0.82169521
0.94091105 0.7538119 0.80557686
0.94636154 0.75817859 0.79502517
0.93861258 0.75197047 0.77359349
0.94384533 0.7561627 0.76306874
0.93573344 0.74966383 0.74196166
0.93950325 0.752684 0.73409837
0.93715161 0.75080001 0.71975434
0.93469381 0.74883097 0.70547831
0.9388659 0.75217342 0.69632322
0.93678415 0.75050563 0.68086475
0.93456382 0.74872679 0.6655063
0.93165648 0.74639761 0.65154189
0.93605834 0.74992412 0.64109957
0.93347424 0.74785388 0.62597162
0.94464779 0.7568056 0.62006927
0.9413383 0.75415421 0.60632801
0.93741953 0.75101465 0.59398794
0.94795775 0.75945735 0.58915246
0.94438934 0.75659853 0.57557577
0.93364942 0.74799424 0.55785608
0.94451475 0.75669897 0.55154198
0.93306643 0.74752712 0.5354346
0.93712026 0.75077486 0.52368194
0.94021714 0.75325596 0.51448733
0.92927784 0.74449193 0.49626055
0.93262219 0.74717128 0.48585078
0.94315052 0.75560606 0.47908926
0.93909764 0.75235903 0.46492097
0.93453664 0.74870503 0.45219702
0.9375807 0.75114375 0.44173008
0.93320531 0.7476384 0.42786056
0.93608367 0.74994445 0.41740945
0.92376631 0.74007636 0.40179932
0.93387932 0.74817842 0.39458638
0.93653107 0.75030291 0.38412902
0.93165827 0.74639899 0.37067696
0.93383753 0.74814498 0.36156124
0.92847961 0.74385244 0.34958434
0.93803775 0.75150996 0.34324625
0.92473459 0.74085212 0.33000627
0.9342103 0.7484436 0.32354793
0.93610901 0.74996471 0.31440863
0.93795741 0.75144559 0.30523008
0.93216836 0.74680769 0.29366717
0.92605776 0.74191219 0.28351948
0.92772222 0.7432456 0.27444029
0.9293288 0.74453276 0.26536584
0.92325461 0.7396664 0.25415468
0.92495036 0.74102497 0.24382144
0.91871876 0.73603249 0.23283468
0.9279384 0.74341881 0.22440758
0.92943138 0.74461496 0.21402311
0.93085361 0.74575436 0.20362234
0.9322049 0.74683696 0.19320607
0.9333303 0.7477386 0.18406929
0.92682487 0.74252671 0.17219114
0.93569529 0.74963325 0.16316962
0.93677092 0.75049502 0.15270075
0.92227477 0.73888141 0.1398695
0.92296946 0.739438 0.13213202
0.93925399 0.75248432 0.12517719
0.93220496 0.74683702 0.1150149
0.92508858 0.74113572 0.10501876
0.93346697 0.74784809 0.096760616
0.92615837 0.74199277 0.088189103
0.93444341 0.74863034 0.079800352
0.94268298 0.7552315 0.071233675
0.92749149 0.74306077 0.060993813
0.92782825 0.7433306 0.05190707
0.93594599 0.74983412 0.041879397
0.93619555 0.75003409 0.031412337
0.93635529 0.75016207 0.022262143
0.9442752 0.7565071 0.011889515
0.93651593 0.75029075 0.0013194686
0.92869228 0.74402285 -0.0077884761
0.93640727 0.75020367 -0.018325245
0.9440732 0.75634527 -0.027705031
0.93607968 0.74994123 -0.036646217
0.93583435 0.74974465 -0.045793299
0.94328254 0.75571179 -0.056724567
0.94286031 0.75537354 -0.067269906
0.94243145 0.75502998 -0.076503441
0.92630637 0.74211133 -0.085599855
0.9179092 0.73538393 -0.095147938
0.93277246 0.74729168 -0.10719467
0.9320069 0.74667835 -0.11762056
0.92341059 0.73979139 -0.12697053
0.94588751 0.75779879 -0.13941953
0.94502813 0.7571103 -0.1486806
0.94411564 0.75637925 -0.15791188
0.93541521 0.7494089 -0.16578494
0.94212353 0.75478327 -0.1763674
0.94859868 0.75997084 -0.18842715
0.939744 0.75287694 -0.19610593
0.93837267 0.75177824 -0.20660639
0.94460958 0.75677496 -0.21887057
0.93541569 0.74940926 -0.22755933
0.93383026 0.74813914 -0.2380102
0.94002891 0.75310516 -0.24915509
0.93088478 0.74577934 -0.25625512
0.93694985 0.75063837 -0.26752001
0.92772222 0.7432456 -0.27444029
0.93389314 0.74818951 -0.28452781
0.93217236 0.74681091 -0.29364634
0.93795741 0.75144559 -0.30523008
0.92101473 0.73787189 -0.30931693
0.92667639 0.74240774 -0.32093868
0.9472937 0.75892532 -0.33803403
0.9380424 0.75151366 -0.34322527
0.91350412 0.7318548 -0.34394589
0.87407655 0.70026737 -0.33840179
0.86428785 0.69242513 -0.3451868
0.86933428 0.69646806 -0.3578968
0.86717367 0.69473714 -0.36640164
0.87236035 0.69889247 -0.37806973
0.86975235 0.69680303 -0.38780978
0.85972995 0.68877357 -0.39415151
0.87200892 0.6986109 -0.4094426
0.86954641 0.69663805 -0.41795269
0.85974157 0.68878287 -0.42287418
0.86446387 0.69256616 -0.43491876
0.86184388 0.69046718 -0.44337365
0.85956073 0.68863803 -0.45059186
0.86405408 0.69223785 -0.46283606
0.8684448 0.69575548 -0.4752135
0.8584373 0.68773794 -0.47968942
0.86980957 0.69684887 -0.49621871
0.86725628 0.6948033 -0.50350255
0.87131792 0.69805729 -0.51615989
0.88187957 0.70651877 -0.53443402
0.87118059 0.69794726 -0.53992039
0.8609345 0.68973863 -0.54401511
0.84372544 0.67595154 -0.54343069
0.81267494 0.65107536 -0.53344196
0.79518175 0.6370607 -0.53323507
0.79151988 0.63412702 -0.54210627
0.78094733 0.62565678 -0.54614538
0.76356304 0.61172938 -0.54512256
0.75257349 0.60292506 -0.54974031
0.72181708 0.5782845 -0.5380215
0.71765637 0.57495117 -0.54708362
0.69388717 0.55590844 -0.5395242
0.68309182 0.54725975 -0.54294777
0.68548644 0.54917818 -0.55687666
0.68822229 0.55137002 -0.56994843
0.68382627 0.54784811 -0.57857072
0.69280958 0.55504513 -0.59736067
0.64960486 0.52043164 -0.5720703
0.62011242 0.49680373 -0.55636913
0.5972389 0.47847855 -0.54586077
0.59981239 0.48054034 -0.55839598
0.58343953 0.4674232 -0.55318516
0.56672144 0.4540295 -0.54843777
0.56248838 0.45063818 -0.55554664
0.54026532 0.43283412 -0.54329365
0.52998865 0.42460096 -0.54380703
0.52626485 0.42161766 -0.54971248
0.53402454 0.4278343 -0.56910074
0.50630236 0.40562466 -0.54920536
0.49026036 0.39277261 -0.54247069
0.48654723 0.38979784 -0.54793197
0.48813301 0.39106828 -0.5607065
0.46123406 0.36951816 -0.53918409
0.46898302 0.37572625 -0.55792898
0.45949265 0.36812302 -0.55628401
0.45006084 0.36056674 -0.55446988
0.44626752 0.3575277 -0.5594812
0.44196326 0.35407934 -0.56506306
0.42666849 0.34182593 -0.55633533
0.42286336 0.33877742 -0.56108505
0.40244997 0.32242322 -0.5445891
0.39872575 0.31943956 -0.54906845
0.37871608 0.3034088 -0.53189963
0.36466032 0.29214802 -0.521222
0.3555007 0.28480977 -0.51826888
0.32645333 0.26153845 -0.48438194
0.32272306 0.25854993 -0.48846877
0.23445089 0.18783058 -0.38710782
0.25196424 0.19229303 1.7312243
0.26396433 0.20145121 1.7283924
0.27594432 0.21059406 1.7254289
0.28653443 0.21867616 1.7329105
0.29703283 0.22668828 1.730111
0.31426117 0.23983654 1.7560519
0.32978481 0.2516838 1.7618165
0.34199417 0.26100171 1.7581291
0.34679893 0.26466858 1.7257117
0.35776886 0.27304056 1.7324983
0.37034413 0.28263772 1.7386665
0.38451573 0.29345313 1.7441711
0.3966006 0.30267602 1.7398837
0.40488869 0.3090013 1.7264366
0.41998351 0.32052127 1.7416314
0.42816535 0.32676545 1.7280043
0.43865377 0.33476999 1.7238364
0.45157391 0.3446303 1.7290781
0.46609849 0.35571513 1.7335279
0.47510782 0.36259082 1.7296532
0.48975021 0.37376556 1.7337947
0.50175911 0.38293043 1.7283524
0.51243514 0.39107811 1.7127079
0.53289187 0.40669021 1.7350012
0.54783708 0.41809604 1.7383815
0.55535406 0.4238328 1.734603
0.56736606 0.43300006 1.7284405
0.5793348 0.44213435 1.7221464
0.59293717 0.45251533 1.7257043
0.60659242 0.46293673 1.7291139
0.6236124 0.47592592 1.7414654
0.63415283 0.48397017 1.7354317
0.64468038 0.49200454 1.7292827
0.64828622 0.4947564 1.7050047
0.66358185 0.50642967 1.7068064
0.67748165 0.51703763 1.7093246
0.69142687 0.52768028 1.7116899
0.70546371 0.5383929 1.7138711
0.71436566 0.54518664 1.7080262
0.72845566 0.55593979 1.7099366
0.74644226 0.56966674 1.720437
0.76457465 0.58350492 1.7307073
0.78289866 0.59748936 1.7407115
0.77904546 0.5945487 1.6974097
0.81903344 0.62506658 1.7491072
0.82552779 0.63002288 1.7326208
0.83336961 0.63600761 1.7149605
0.86205536 0.65789986 1.7396921
0.87835485 0.67033923 1.7386024
0.89902675 0.6861155 1.7456794
0.91835505 0.70086646 1.7536848
0.93934739 0.71688724 1.7601418
0.95152193 0.72617859 1.749763
0.97726017 0.74582136 1.7638631
0.98945904 0.7551313 1.753068
1.0155582 0.77504951 1.7664484
1.0324881 0.78797001 1.7632843
1.0700729 0.81665379 1.7904247
1.0679554 0.81503773 1.7547891
1.0898623 0.83175665 1.7587725
1.1084964 0.84597778 1.7530422
1.1440728 0.87312871 1.7812479
1.1614356 0.88637966 1.7763441
1.1788173 0.89964485 1.7711942
1.2029209 0.91804022 1.7717459
1.2203811 0.93136549 1.7660204
1.2446405 0.94987959 1.7658423
1.2781453 0.97544968 1.7818087
1.2920016 0.98602444 1.765924
1.3080987 0.99830937 1.7607828
1.3327585 1.0171292 1.7590063
1.361514 1.0390747 1.7658435
1.3873879 1.058821 1.7759936
1.4052763 1.072473 1.767767
1.4344959 1.0947727 1.7733004
1.4425294 1.1009037 1.7485765
1.4588796 1.1133817 1.7415371
1.4577805 1.1125429 1.7138333
1.4637589 1.1171055 1.6910012
1.4622003 1.115916 1.6634607
1.4663069 1.1190501 1.6427327
1.4642935 1.1175134 1.6153972
1.4573773 1.1122352 1.5796787
1.4534528 1.1092401 1.5546901
1.4628366 1.1164017 1.5407
1.4673295 1.1198305 1.5182304
1.4530727 1.10895 1.4769258
1.4620054 1.1157672 1.4629093
1.4658338 1.1186889 1.4406478
1.4631585 1.1166472 1.4123266
1.4792489 1.1289271 1.402229
1.46453 1.117694 1.3601514
1.4610373 1.1150284 1.3322845
1.463747 1.1170964 1.3103969
1.466265 1.1190181 1.2885518
1.475148 1.1257973 1.2724068
1.4564756 1.111547 1.2358164
1.4583642 1.1129884 1.2142614
1.467762 1.1201606 1.1962086
1.4491678 1.10597 1.1585952
1.4696493 1.1216009 1.155224
1.4640512 1.1173285 1.1285969
1.4650106 1.1180608 1.1073319
1.4648368 1.1179281 1.0881588
1.4585696 1.1131451 1.0620182
1.4589669 1.1134484 1.0410323
1.4591846 1.1136144 1.0201192
1.438278 1.0976591 0.98493707
1.4450558 1.1028317 0.96911079
1.4579461 1.1126692 0.95982313
1.4433236 1.1015097 0.9301039
1.4639338 1.117239 0.92318732
1.4560077 1.11119 0.8982752
1.4485992 1.105536 0.87163663
1.4473897 1.1046129 0.85146523
1.4452953 1.1030145 0.83335495
1.4488813 1.1057513 0.82344228
1.4611121 1.1150856 0.81353271
1.4441215 1.1021187 0.78755784
1.4415478 1.1001545 0.76974034
1.4455217 1.1031873 0.7578553
1.4500747 1.1066619 0.74396431
1.4397862 1.0988101 0.72258699
1.4373351 1.0969394 0.70312977
1.4415565 1.1001611 0.68931895
1.4462835 1.1037686 0.67346799
1.4428579 1.1011543 0.65614063
1.446794 1.1041583 0.64227819
1.4356222 1.0956322 0.62183517
1.4468865 1.1042289 0.61122662
1.4349312 1.0951048 0.59305829
1.4384931 1.0978233 0.57924217
1.4495525 1.1062635 0.56839973
1.4453572 1.1030618 0.55154091
1.4410347 1.0997629 0.53482771
1.4437864 1.101863 0.52295196
1.4392666 1.0984135 0.50635928
1.4499665 1.1065794 0.49515554
1.4375582 1.0971098 0.47610563
1.4327004 1.0934024 0.4598271
1.4504929 1.1069812 0.45283896
1.4377427 1.0972506 0.43420836
1.4325899 1.093318 0.41814125
1.4506035 1.1070656 0.4087241
1.4378394 1.0973244 0.38858357
1.4404802 1.0993398 0.37278485
1.4349003 1.0950812 0.35701317
1.4370278 1.096705 0.34320423
1.4547089 1.1101987 0.33298734
1.4412973 1.0999633 0.31359687
1.4434178 1.1015817 0.29776302
1.4535309 1.1092998 0.28142828
1.4396936 1.0987394 0.26259151
1.4414604 1.1000878 0.24677721
1.4348297 1.0950274 0.23362045
1.4521804 1.108269 0.22025472
1.4457526 1.1033635 0.20319462
1.4471072 1.1043973 0.18731606
1.4483515 1.1053469 0.17142326
1.4571316 1.1120477 0.16036656
1.4422131 1.1006622 0.1447905
1.4430507 1.1013016 0.13091743
1.4517355 1.1079296 0.11771165
1.4524084 1.1084431 0.1037478
1.4450554 1.1028314 0.089319028
1.4534986 1.109275 0.075834654
1.4539692 1.1096343 0.05987592
1.45429 1.109879 0.045924217
1.4465784 1.1039937 0.031763379
1.4546779 1.1101751 0.017981663
1.4547447 1.110226 0.0039924374
1.446785 1.1041514 -0.0079412227
1.4625925 1.1162152 -0.022061829
1.4544678 1.1100147 -0.035929658
1.4621093 1.1158466 -0.052178349
1.4616917 1.1155279 -0.068226732
1.4532217 1.1090637 -0.083811924
1.452585 1.1085777 -0.099761538
1.4519378 1.108084 -0.11369532
1.4591346 1.1135763 -0.12835191
1.4503883 1.1069014 -0.14157407
1.4494855 1.1062124 -0.15551738
1.4565614 1.1116126 -0.16836298
1.447588 1.1047642 -0.18134198
1.4464437 1.1038909 -0.1952572
1.4610125 1.1150095 -0.21141484
1.4517949 1.1079749 -0.22423959
1.4661583 1.1189365 -0.24075089
1.4567779 1.1117778 -0.25347283
1.454964 1.1103934 -0.26945502
1.4530394 1.1089246 -0.28541669
1.4591113 1.1135585 -0.30096754
1.4104975 1.0764577 -0.30287832
1.1892673 0.90762007 -0.26882938
1.117053 0.85250789 -0.26518443
1.0839773 0.82726532 -0.26967636
1.0431421 0.79610085 -0.27143726
0.99459755 0.75905287 -0.27021188
0.96941912 0.73983729 -0.27453107
0.96772254 0.7385425 -0.28384534
0.95799088 0.73111552 -0.29210207
0.97134626 0.74130803 -0.30748811
0.96945369 0.73986363 -0.31679863
0.96778464 0.73858988 -0.32477358
0.9811126 0.74876148 -0.33937335
0.97137779 0.74133211 -0.34605184
0.93079299 0.71035874 -0.34265861
0.90584695 0.69132054 -0.34295356
0.91133577 0.69550943 -0.35458955
0.9091543 0.69384462 -0.36334291
0.90659916 0.69189459 -0.37330937
0.90397495 0.68989187 -0.38324738
0.91630322 0.69930053 -0.39970881
0.89887196 0.68599737 -0.40179205
0.91098464 0.69524145 -0.41850489
0.90878767 0.69356483 -0.42599624
0.90617239 0.69156891 -0.43472302
0.88869864 0.67823333 -0.43613562
0.8934058 0.68182576 -0.44837451
0.90538299 0.69096643 -0.46448576
0.89560592 0.68350482 -0.46809319
0.89273518 0.68131393 -0.47669199
0.89711261 0.68465471 -0.48922077
0.90138263 0.68791348 -0.50188088
0.90555793 0.6911 -0.51463157
0.9019534 0.68834907 -0.52455276
0.8987394 0.68589622 -0.53321093
0.89500624 0.68304718 -0.54305655
0.90498048 0.69065928 -0.56293887
0.90104085 0.68765265 -0.5728519
0.88996935 0.67920315 -0.57813293
0.89998716 0.68684852 -0.59721202
0.89581001 0.68366057 -0.60706896
0.89906418 0.68614411 -0.62047553
0.90166152 0.68812633 -0.63520759
0.89778399 0.68516707 -0.64384001
0.90072089 0.68740845 -0.6574735
0.89670843 0.68434626 -0.66609627
0.88640511 0.67648298 -0.66832381
0.86816996 0.66256636 -0.66759771
0.86350572 0.65900671 -0.67710268
0.85877568 0.65539688 -0.68655604
0.84063685 0.64155376 -0.68508285
0.84248608 0.64296508 -0.69979507
0.83820885 0.63970077 -0.70787627
0.83326632 0.63592875 -0.71705079
0.82889456 0.63259232 -0.72502464
0.83809841 0.63961649 -0.74335849
0.82645303 0.63072902 -0.74669689
0.82124168 0.62675184 -0.75574088
0.81662512 0.62322855 -0.76361614
0.80495846 0.61432487 -0.76651603
0.79331428 0.60543829 -0.76921844
0.78794789 0.6013428 -0.77789778
0.78252155 0.59720153 -0.78651786
0.77773005 0.59354484 -0.79400283
0.77219236 0.58931857 -0.80251014
0.62666172 0.4782531 -0.66292465
0.5133332 0.39176351 -0.5527299
0.48503843 0.37016964 -0.53274024
0.49320886 0.37640509 -0.55132955
0.48936543 0.37347189 -0.55672276
0.48548475 0.37051025 -0.56207359
0.46369037 0.35387731 -0.54750538
0.47137147 0.35973933 -0.56638902
0.43892291 0.33497539 -0.53669184
0.44035512 0.33606842 -0.54913151
0.43652898 0.33314839 -0.55394459
0.43266958 0.330203 -0.55871552
0.41731045 0.31848127 -0.54956502
0.41348216 0.3155596 -0.55412513
0.39298382 0.29991576 -0.53713524
0.38924268 0.29706064 -0.54142874
0.37972829 0.28979948 -0.53872323
0.37075475 0.28295109 -0.53533131
0.35106704 0.26792589 -0.51707608
0.3363694 0.25670901 -0.50651366
0.27589172 0.2105539 -0.42667413
0.085363925 0.065147683 -0.14446031
0.25496772 0.18524489 1.7213877
0.26863721 0.19517636 1.7283924
0.28088114 0.2040721 1.7356153
0.29312375 0.21296687 1.7325194
0.30534402 0.22184542 1.7292917
0.31602991 0.22960918 1.7263559
0.33036423 0.24002366 1.7427989
0.34265566 0.24895391 1.7391691
0.35293821 0.25642461 1.7257117
0.3681705 0.26749152 1.7518559
0.37480631 0.27231273 1.7290072
0.38546407 0.28005603 1.7254235
0.39391071 0.28619286 1.7121122
0.4135527 0.30046362 1.7467386
0.42046973 0.30548915 1.7337767
0.43508461 0.31610748 1.7387286
0.44980127 0.32679975 1.7434967
0.46308756 0.33645281 1.7486993
0.474904 0.34503794 1.7543987
0.47783902 0.34717038 1.7214943
0.48847166 0.35489544 1.7169288
0.50179362 0.3645744 1.721682
0.51242667 0.37229979 1.7168901
0.52720612 0.38303766 1.731426
0.53649402 0.38978574 1.7163453
0.54560935 0.39640841 1.7011969
0.56520677 0.41064677 1.723807
0.58045924 0.42172834 1.7268794
0.59262878 0.43057001 1.7205524
0.60970414 0.44297597 1.7332436
0.62038118 0.4507333 1.7274451
0.63438529 0.46090791 1.7306412
0.64504558 0.46865305 1.7246102
0.65719664 0.47748128 1.7175868
0.67282021 0.4888325 1.7194347
0.68851972 0.50023884 1.7210758
0.69334579 0.5037452 1.6957335
0.7186299 0.52211517 1.7246933
0.73454559 0.53367865 1.7257259
0.75053036 0.5452922 1.7265458
0.76658231 0.55695468 1.7271518
0.7826997 0.56866461 1.727542
0.80936354 0.58803701 1.7548627
0.80801177 0.58705491 1.7212157
0.83094966 0.60372031 1.7393805
0.84319794 0.61261916 1.7303511
0.85961652 0.62454796 1.7297108
0.87303644 0.63429809 1.7312057
0.90258271 0.65576476 1.755482
0.90614438 0.65835243 1.728894
0.94060498 0.68338948 1.7607785
0.95003277 0.69023919 1.740979
0.97447264 0.70799583 1.7567142
0.9837535 0.71473873 1.7487931
1.0038786 0.72936046 1.7557794
1.0256894 0.74520695 1.7611156
1.052435 0.76463878 1.7741781
1.0713106 0.77835274 1.7693391
1.0788573 0.78383571 1.7497624
1.1159687 0.8107987 1.7775599
1.1269294 0.81876218 1.7669631
1.1561086 0.83996207 1.7765913
1.1737326 0.85276669 1.7717903
1.1929474 0.86672705 1.7651234
1.2210858 0.88717073 1.775043
1.2457144 0.90506446 1.7752616
1.2758487 0.92695832 1.7825146
1.2829711 0.93213308 1.7612532
1.3172191 0.95701575 1.7768384
1.3281446 0.96495354 1.7643687
1.3421062 0.97509724 1.7481523
1.3656367 0.99219316 1.7479957
1.4062778 1.0217206 1.7688611
1.4187123 1.0307548 1.7536248
1.4394832 1.0458457 1.7561592
1.4734819 1.0705472 1.7704179
1.4917749 1.0838379 1.761364
1.4864572 1.0799744 1.724674
1.483688 1.0779624 1.6990194
1.4896439 1.0822897 1.676219
1.4893615 1.0820845 1.646753
1.4887775 1.0816602 1.6174216
1.4817706 1.0765693 1.5816935
1.4976726 1.0881228 1.5741237
1.4825298 1.0771209 1.5342803
1.4919752 1.0839834 1.520227
1.4950305 1.0862032 1.4998153
1.4726603 1.0699503 1.4544338
1.48033 1.0755227 1.4424889
1.5096478 1.0968233 1.4448328
1.4811521 1.0761199 1.3921762
1.484442 1.0785103 1.3701633
1.5071073 1.0949775 1.3659253
1.4904301 1.0828608 1.3262467
1.5008826 1.0904551 1.3081129
1.4967561 1.0874569 1.2804915
1.4912571 1.0834616 1.255055
1.4798807 1.0751963 1.2222545
1.5087504 1.0961714 1.2226939
1.4969127 1.0875707 1.1901438
1.4984159 1.0886629 1.1686158
1.4928502 1.0846192 1.1418842
1.4850501 1.078952 1.1193699
1.4859525 1.0796076 1.098177
1.4866692 1.0801284 1.0770502
1.4872015 1.080515 1.055992
1.4743466 1.0711756 1.0232228
1.4815143 1.0763832 1.0072807
1.4672023 1.0659848 0.9770332
1.4803534 1.0755396 0.96781641
1.487962 1.0810677 0.94982189
1.47295 1.0701609 0.92020333
1.47135 1.0689983 0.90181595
1.4768717 1.0730101 0.88791853
1.4976958 1.0881397 0.88054502
1.4811012 1.0760829 0.8536889
1.4863256 1.0798788 0.83970094
1.4752619 1.0718405 0.82143772
1.4728862 1.0701145 0.80346823
1.4785025 1.074195 0.78755021
1.4840063 1.0781937 0.77157223
1.4744282 1.0712348 0.74794215
1.4871634 1.0804875 0.7357254
1.4615353 1.0618676 0.70707279
1.4582998 1.0595168 0.68970001
1.4701004 1.0680904 0.67940229
1.4590514 1.0600629 0.65866208
1.4707024 1.0685279 0.64821482
1.4588276 1.0599003 0.62970912
1.4473548 1.0515648 0.60948807
1.4510819 1.0542727 0.59579414
1.4701097 1.0680972 0.58825648
1.4582734 1.0594976 0.56833398
1.4617378 1.0620147 0.55456954
1.4573729 1.0588434 0.53788018
1.4688866 1.0672086 0.52491695
1.4647454 1.0641998 0.50635928
1.4752004 1.0717958 0.49712899
1.4625825 1.0626284 0.47809377
1.4654964 1.0647455 0.46425974
1.4761704 1.0725006 0.45283896
1.4710612 1.0687885 0.43654284
1.4583216 1.0595326 0.41615945
1.460847 1.0613675 0.402399
1.4636323 1.0633911 0.38662612
1.4504542 1.0538167 0.36681488
1.4609284 1.0614266 0.35307434
1.4554124 1.0574191 0.33546931
1.4733729 1.0704681 0.32522312
1.4753369 1.071895 0.31132343
1.4612492 1.0616597 0.29415891
1.4712663 1.0689375 0.27990702
1.4731864 1.0703325 0.26402643
1.4745529 1.0713254 0.2521027
1.4682533 1.0667485 0.23490408
1.4698558 1.0679127 0.21905769
1.4713464 1.0689957 0.20319462
1.4807725 1.0758443 0.18833965
1.4739913 1.0709174 0.17142326
1.466808 1.0656984 0.15862346
1.4677441 1.0663785 0.1447905
1.4685966 1.0669979 0.13091743
1.4774351 1.0734195 0.11771165
1.4700428 1.0680486 0.10318087
1.4787171 1.0743508 0.089809798
1.4711461 1.0688503 0.075420253
1.4715687 1.0691572 0.061548818
1.4799938 1.0752784 0.047903817
1.4802463 1.0754619 0.033949766
1.4804296 1.0755951 0.017981663
1.4804976 1.0756445 0.0039924374
1.472397 1.069759 -0.0079412227
1.4803947 1.0755697 -0.021941928
1.4721271 1.0695629 -0.03573332
1.479951 1.0752473 -0.049883358
1.4876845 1.080866 -0.064215071
1.479092 1.0746232 -0.079823479
1.4785564 1.0742341 -0.093765311
1.4859138 1.0795796 -0.11030983
1.4770074 1.0731087 -0.12564698
1.4760641 1.0724233 -0.14157407
1.4830685 1.0775124 -0.15835099
1.4739913 1.0709174 -0.17142326
1.4646772 1.0641503 -0.18629248
1.4793866 1.0748372 -0.20430496
1.4859198 1.0795839 -0.22145176
1.4845102 1.0785598 -0.23545384
1.4830106 1.0774703 -0.24947423
1.4814281 1.0763205 -0.26344806
1.4795117 1.0749283 -0.27941757
1.4854692 1.0792565 -0.29696241
1.4673665 1.0661042 -0.30960894
1.2182831 0.88513446 -0.27059799
1.1450108 0.83189905 -0.26550752
1.1115798 0.80760998 -0.26861954
1.0702473 0.77758014 -0.26914671
1.0289793 0.74759722 -0.26888683
1.0038211 0.72931874 -0.27080846
1.002117 0.72808063 -0.28028575
0.99248153 0.72108006 -0.28744376
0.99041444 0.71957821 -0.29813829
0.98799658 0.71782154 -0.31015316
0.99387991 0.72209603 -0.32199386
0.9915688 0.7204169 -0.33270219
1.0047599 0.73000079 -0.34879279
0.97895086 0.71124941 -0.35125425
0.95349395 0.69275391 -0.35191098
0.94387352 0.68576425 -0.35669348
0.94131935 0.68390852 -0.36686108
0.93869346 0.68200076 -0.37700072
0.93599612 0.68004102 -0.38711169
0.93322754 0.67802948 -0.39719313
0.93837863 0.68177199 -0.4093073
0.93581986 0.67991292 -0.41816217
0.94079953 0.68353087 -0.43044376
0.93772477 0.68129694 -0.44057539
0.92743254 0.67381918 -0.44579878
0.92424995 0.67150688 -0.45578566
0.92099696 0.66914344 -0.46573779
0.91809636 0.66703606 -0.47440696
0.92300832 0.67060483 -0.48574147
0.91997731 0.66840261 -0.49444884
0.92429394 0.67153889 -0.5071649
0.92113042 0.66924042 -0.5158838
0.92526376 0.67224348 -0.52874917
0.91512322 0.66487598 -0.53196746
0.92639548 0.67306572 -0.54924858
0.92297941 0.67058384 -0.55796623
0.93398207 0.67857772 -0.5755952
0.91597843 0.66549724 -0.57532334
0.92624211 0.67295432 -0.59439719
0.92969048 0.67545968 -0.6078074
0.91824585 0.66714466 -0.61306006
0.92152494 0.66952705 -0.62651837
0.91762334 0.66669238 -0.63520759
0.92012775 0.66851193 -0.65004361
0.91608995 0.66557831 -0.65869921
0.90444744 0.65711951 -0.66345215
0.89972907 0.65369147 -0.67318279
0.88805807 0.64521194 -0.67760938
0.88324034 0.64171171 -0.6871627
0.87835544 0.63816255 -0.69666368
0.866633 0.62964576 -0.70063788
0.8690111 0.63137352 -0.71434385
0.87128019 0.63302213 -0.72811657
0.86675173 0.62973201 -0.73632812
0.86947149 0.63170803 -0.74904221
0.87142605 0.63312811 -0.76299769
0.85944551 0.62442374 -0.76651704
0.85400122 0.6204682 -0.77575839
0.84338772 0.61275709 -0.77667618
0.83855975 0.60924929 -0.78462273
0.82728088 0.60105473 -0.78640926
0.81601804 0.59287179 -0.78804672
0.8174687 0.59392577 -0.80193335
0.8069011 0.58624798 -0.80226177
0.79494703 0.57756281 -0.80459952
0.75746876 0.55033326 -0.7821601
0.55469352 0.40300846 -0.58300883
0.53220457 0.38666925 -0.56933755
0.50946587 0.37014863 -0.55590874
0.50502211 0.36692002 -0.56206971
0.48314062 0.35102221 -0.5472281
0.47334206 0.34390312 -0.54559869
0.45773536 0.3325642 -0.53691655
0.46507972 0.33790019 -0.5563491
0.45537007 0.33084571 -0.55432773
0.4566496 0.33177537 -0.56691819
0.4526298 0.3288548 -0.57182235
0.4312678 0.31333441 -0.55563444
0.41622922 0.30240822 -0.54571283
0.41736263 0.30323169 -0.55808508
0.38620889 0.28059718 -0.5255549
0.39278099 0.28537208 -0.5451476
0.36227915 0.26321122 -0.51173592
0.35292611 0.25641581 -0.5085215
0.34321722 0.24936192 -0.50558931
0.2363992 0.17175408 -0.38080961
0.26074278 0.18021041 1.7312243
0.27314055 0.18877906 1.7385789
0.28246099 0.19522081 1.7261821
0.2965174 0.20493579 1.7329105
0.30894634 0.21352595 1.729699
0.32316729 0.22335465 1.7361094
0.33750364 0.23326313 1.7423489
0.34608817 0.23919626 1.7192755
0.36246726 0.25051653 1.7349234
0.3691707 0.25514957 1.7121658
0.38207361 0.26406732 1.7183388
0.39725783 0.27456179 1.7340133
0.40884429 0.28256968 1.7404312
0.42209652 0.29172885 1.7461755
0.43461588 0.30038151 1.7416314
0.44218895 0.3056156 1.7178673
0.4595544 0.3176176 1.7321458
0.47040901 0.32511967 1.7278347
0.49075305 0.33918029 1.7511762
0.49786454 0.34409538 1.7270291
0.51024359 0.35265106 1.721682
0.5282951 0.36512721 1.7349601
0.53919017 0.37265727 1.7300001
0.551458 0.38113609 1.7350012
0.56232792 0.38864872 1.729838
0.5731898 0.39615586 1.7245619
0.58869636 0.40687311 1.7276547
0.60750508 0.41987261 1.7397542
0.61669105 0.4262214 1.7240729
0.63573629 0.43938437 1.7357364
0.64817256 0.44797963 1.7289264
0.66403615 0.45894364 1.7310479
0.67334211 0.46537536 1.7257277
0.6913141 0.47779658 1.7374393
0.69858164 0.48281947 1.7219957
0.7130602 0.49282625 1.7244035
0.72388357 0.50030673 1.7177269
0.72931796 0.50406265 1.7030607
0.75154448 0.51942438 1.7227534
0.76780051 0.53065962 1.7235088
0.78412437 0.5419417 1.7240499
0.80301386 0.55499703 1.7341416
0.82205063 0.56815416 1.7439994
0.82470554 0.56998909 1.7190326
0.84232467 0.58216643 1.7296449
0.86588609 0.59845072 1.7474834
0.8811484 0.60899913 1.7479123
0.89208966 0.61656111 1.7396921
0.90740883 0.62714881 1.739797
0.92120695 0.63668531 1.7409507
0.94561213 0.65355277 1.757466
0.95819265 0.66224772 1.747368
0.98153061 0.67837757 1.7523702
1.0018601 0.69242817 1.7596647
1.0270963 0.70986992 1.7748402
1.0397984 0.71864885 1.7638773
1.0572711 0.73072505 1.7608573
1.0812582 0.74730355 1.7642047
1.0988541 0.7594648 1.7606342
1.1180692 0.77274513 1.7553308
1.1408136 0.78846478 1.75911
1.175577 0.81249124 1.7765913
1.1934978 0.82487708 1.7717903
1.2183102 0.84202605 1.7727978
1.2416483 0.85815597 1.775043
1.2597272 0.87065107 1.7693654
1.2832562 0.88691294 1.7709429
1.3014117 0.89946103 1.7647088
1.3195752 0.91201454 1.7582238
1.3433414 0.92844033 1.7588156
1.378515 0.95275038 1.7735735
1.385493 0.95757318 1.7516743
1.41943 0.98102844 1.7673997
1.4378616 0.99376726 1.7593694
1.4738312 1.0186274 1.7721795
1.4864972 1.0273814 1.7564776
1.503442 1.0390928 1.7495281
1.5188091 1.0497136 1.7443968
1.5373026 1.0624952 1.735023
1.5314677 1.0584624 1.6984298
1.5359602 1.0615674 1.6774983
1.5294428 1.057063 1.6412868
1.5163095 1.047986 1.5987904
1.521468 1.0515512 1.5761583
1.5264175 1.0549721 1.553539
1.5234472 1.0529191 1.5265877
1.5265937 1.0550938 1.5061171
1.51674 1.0482835 1.4731605
1.5310994 1.058208 1.4672526
1.5545833 1.0744387 1.4631993
1.5191905 1.0499772 1.4042821
1.5094395 1.0432378 1.3701633
1.5258522 1.0545814 1.3600122
1.5300711 1.0574973 1.3359199
1.5194337 1.0501453 1.3023503
1.5298877 1.0573704 1.2841384
1.539048 1.0637015 1.2678605
1.5343912 1.060483 1.240411
1.5283602 1.0563147 1.2152013
1.5231787 1.0527335 1.188141
1.524688 1.0537767 1.1666108
1.5190048 1.0498488 1.1398867
1.5200925 1.0506006 1.1185514
1.5280645 1.0561104 1.1023837
1.5126621 1.0454651 1.0750611
1.5193785 1.0501071 1.060973
1.5116626 1.0447743 1.0370259
1.510945 1.0442784 1.0181003
1.5245141 1.0536565 1.0088433
1.5226624 1.0523767 0.99196899
1.528856 1.0566574 0.97779047
1.5130187 1.0457116 0.94982189
1.5336235 1.0599524 0.94477516
1.5256072 1.054412 0.9195857
1.5239348 1.0532562 0.90104049
1.5064901 1.0411994 0.87595165
1.5194027 1.0501238 0.86617279
1.5106064 1.0440444 0.84168851
1.5151058 1.0471541 0.82965207
1.5059446 1.0408224 0.80549335
1.5026979 1.0385785 0.78952736
1.5000321 1.036736 0.77167493
1.5124413 1.0453125 0.76154006
1.5095514 1.0433152 0.74373919
1.5148331 1.0469656 0.72769761
1.5123227 1.0452305 0.70800668
1.4936334 1.0323136 0.68336511
1.5062064 1.0410033 0.67093539
1.5032171 1.0389372 0.65157342
1.4917227 1.030993 0.63104421
1.5034374 1.0390896 0.6203782
1.4922085 1.0313288 0.59814286
1.4964457 1.0342572 0.58229083
1.4927124 1.031677 0.563429
1.4962041 1.0340903 0.54957312
1.4996165 1.0364487 0.53565341
1.5029336 1.0387414 0.5217343
1.5061707 1.0409787 0.5077529
1.501369 1.03766 0.49117506
1.5048379 1.0400574 0.47522989
1.4918271 1.0310651 0.4563514
1.5026398 1.0385382 0.44487315
1.4973861 1.0349072 0.42860472
1.4843588 1.0259035 0.40829027
1.4952724 1.0334463 0.39465046
1.4899945 1.0297986 0.37673724
1.5003816 1.0369775 0.36487365
1.5029438 1.0387484 0.34894377
1.5053916 1.0404401 0.33298734
1.5077246 1.0420526 0.31700552
1.509943 1.0435858 0.30099958
1.5036639 1.0392461 0.28541669
1.5054109 1.0404536 0.27146736
1.5070741 1.041603 0.25747025
1.5002744 1.0369034 0.24414754
1.5099244 1.0435729 0.23148207
1.4949971 1.0332562 0.21509343
1.5044798 1.0398099 0.20232609
1.5057082 1.040659 0.18833965
1.4986567 1.0357854 0.17342649
1.5078986 1.0421729 0.16036656
1.5089924 1.0429288 0.14436473
1.5098543 1.0435245 0.1303701
1.5023146 1.0383135 0.11771165
1.5030109 1.0387948 0.1037478
1.5118346 1.0448933 0.09030056
1.5124253 1.0453014 0.074259646
1.5046785 1.0399474 0.057896696
1.5050368 1.040195 0.041932926
1.5135062 1.0460485 0.026107853
1.5136261 1.0461314 0.012042685
1.5054286 1.0404657 -0.0039924374
1.5053426 1.0404062 -0.019961808
1.505142 1.0402676 -0.035929658
1.5212729 1.0514164 -0.052461926
1.5208995 1.0511583 -0.066564701
1.5203637 1.050788 -0.082695805
1.5114975 1.0446602 -0.098286442
1.5189449 1.0498074 -0.11493789
1.518062 1.0491972 -0.13104641
1.5170634 1.0485071 -0.14714496
1.507755 1.0420736 -0.16234997
1.5068486 1.0414472 -0.1743422
1.5057082 1.040659 -0.18833965
1.5126592 1.0454631 -0.20339359
1.5193099 1.0500597 -0.22061819
1.5095087 1.0432856 -0.23545384
1.5240611 1.0533434 -0.25417614
1.5221783 1.0520422 -0.27033365
1.5120504 1.0450424 -0.28493863
1.502363 1.038347 -0.29536584
1.5247935 1.0538496 -0.31433403
1.5227768 1.0524559 -0.32846183
1.4475777 1.0004826 -0.32810593
1.138612 0.78694326 -0.26904067
1.0802085 0.74657804 -0.26715302
1.0380163 0.71741724 -0.26820609
1.0119572 0.69940668 -0.2727139
1.0099609 0.69802696 -0.28343832
1.0084132 0.69695729 -0.29146752
1.0142688 0.70100433 -0.30455166
1.0040751 0.69395894 -0.31281671
1.0097419 0.69787556 -0.3260231
1.0156013 0.70192528 -0.33801606
1.0216796 0.70612627 -0.34879279
1.0115536 0.69912773 -0.35549933
1.0092937 0.69756579 -0.36486748
1.0148365 0.70139676 -0.37715951
1.0042447 0.69407624 -0.38490343
1.0092671 0.69754744 -0.39863193
1.0070993 0.69604909 -0.40665314
1.0119257 0.69938487 -0.42055595
1.0166285 0.70263523 -0.43459189
1.0138723 0.7007302 -0.4440048
1.0114599 0.699063 -0.45206168
1.0162866 0.70239896 -0.46497005
1.0056629 0.69505644 -0.47078514
1.0026729 0.69298989 -0.48011661
1.0068154 0.69585299 -0.4944807
1.0112873 0.69894367 -0.50761759
1.0151807 0.70163459 -0.52222311
1.0113932 0.69901681 -0.53297222
1.0150474 0.70154244 -0.54773808
1.0110767 0.69879806 -0.55848479
1.0149982 0.70150846 -0.57207042
1.0108528 0.69864333 -0.58281565
1.0066304 0.69572508 -0.59351659
1.0170715 0.70294136 -0.61305714
1.0199697 0.70494443 -0.62834328
1.0165647 0.70259112 -0.63644475
1.0125419 0.6998108 -0.64585119
1.0078669 0.69657969 -0.65656757
1.0175484 0.70327103 -0.67683452
1.0204487 0.70527548 -0.69113755
1.0160825 0.70225787 -0.70057845
1.0187714 0.70411628 -0.71499997
1.0284411 0.7107994 -0.73455644
1.0160726 0.70225102 -0.7402972
1.0317762 0.71310437 -0.76669425
1.026233 0.70927322 -0.77761012
1.0206115 0.70538807 -0.78846675
1.0287207 0.71099269 -0.81013763
1.0160009 0.70220143 -0.8155092
1.0184234 0.70387572 -0.82913977
1.0267792 0.70965075 -0.84983546
1.0214173 0.7059449 -0.85933036
1.0159833 0.70218933 -0.86879689
1.0171947 0.70302659 -0.88400704
1.0124134 0.69972193 -0.8920809
1.0133973 0.70040202 -0.90739346
1.0208468 0.70555067 -0.92874652
1.0084282 0.6969676 -0.93215275
1.0220804 0.70640326 -0.95981556
1.0668787 0.73736525 -1.0200796
1.0659364 0.73671401 -1.0376089
1.0593801 0.73218262 -1.0474838
1.0391475 0.71819907 -1.0459266
1.0369425 0.7166751 -1.0647192
1.0479734 0.72429901 -1.0952363
1.0081451 0.69677192 -1.0747337
0.81467885 0.56305921 -0.88778526
0.55855495 0.38604107 -0.6207968
0.48180619 0.33299673 -0.54495502
0.47141066 0.32581195 -0.54380012
0.47983271 0.33163279 -0.56203228
0.46403205 0.3207123 -0.55309844
0.47169051 0.32600537 -0.57212639
0.46179295 0.31916475 -0.56998348
0.43479937 0.30050835 -0.54611742
0.43036395 0.29744282 -0.55128455
0.40394843 0.27918595 -0.52657467
0.41633344 0.28774574 -0.55350596
0.40634799 0.28084439 -0.55100614
0.38062686 0.26306739 -0.5252797
0.37099338 0.25640929 -0.52222431
0.35126376 0.24277332 -0.50326425
0.35151371 0.24294607 -0.51605749
0.21846421 0.1509899 -0.35082108
0.25700757 0.16882242 1.7329299
0.26799583 0.17604035 1.7407148
0.27753305 0.18230514 1.7283924
0.28854299 0.18953732 1.7258096
0.29940864 0.19667472 1.712943
0.31367317 0.20604476 1.7195216
0.33522946 0.22020459 1.7547454
0.34255674 0.22501773 1.7321726
0.35162753 0.2309761 1.7192755
0.37077102 0.24355105 1.7547967
0.37775144 0.24813631 1.7320024
0.38600808 0.25355992 1.7086852
0.40070719 0.26321542 1.7142203
0.42015889 0.27599281 1.7387911
0.43521643 0.28588375 1.7439201
0.44230324 0.29053891 1.7309116
0.45582899 0.29942366 1.7363656
0.46434438 0.30501726 1.7226285
0.47531214 0.31222174 1.718341
0.49321747 0.32398331 1.7322446
0.51019281 0.33513406 1.7357962
0.51999229 0.34157109 1.7209989
0.53834492 0.35362649 1.7342529
0.54938459 0.36087823 1.7292899
0.56344676 0.37011537 1.7335347
0.57448119 0.37736362 1.7283425
0.58078408 0.38150382 1.7145392
0.59492034 0.3907896 1.718416
0.61396277 0.40329817 1.7305491
0.62497669 0.41053295 1.7248962
0.64431608 0.42323655 1.736585
0.65695763 0.43154052 1.7297918
0.67307317 0.44212642 1.7319344
0.68208981 0.44804925 1.7158104
0.69823414 0.45865408 1.7176162
0.7091881 0.46584949 1.7111799
0.72384578 0.47547781 1.7135835
0.74242711 0.48768348 1.7246933
0.75339997 0.49489126 1.7178682
0.77617383 0.50985092 1.7373849
0.78167307 0.51346326 1.7224815
0.80636281 0.52968138 1.7404932
0.81902677 0.53800005 1.7320079
0.83580738 0.54902279 1.7320508
0.84840858 0.55730027 1.7232584
0.87068444 0.57193279 1.7423265
0.88771081 0.58311701 1.7417072
0.92244864 0.60593551 1.7748326
0.91745704 0.6026566 1.7313514
0.9404729 0.61777526 1.7493612
0.96074724 0.63109297 1.757466
0.97657645 0.64149082 1.7569542
0.99404287 0.65296412 1.7549691
1.0115544 0.66446698 1.7527525
1.0387266 0.68231583 1.7666613
1.0467042 0.68755615 1.7476203
1.0741934 0.7056132 1.7608573
1.0935708 0.71834183 1.7561855
1.1164418 0.73336524 1.7606342
1.1461984 0.75291163 1.7711446
1.1538985 0.75796968 1.7512567
1.1823223 0.77664059 1.7625389
1.20201 0.78957301 1.7563161
1.2361801 0.81201851 1.7744253
1.2615217 0.82866484 1.775043
1.2853595 0.8443234 1.7769269
1.2927464 0.84917563 1.755935
1.3222417 0.86855042 1.7647088
1.3632284 0.89547372 1.7877737
1.3705292 0.90026939 1.766144
1.3906889 0.91351187 1.7572366
1.4018759 0.92086029 1.7444657
1.4347173 0.94243312 1.7621027
1.4710517 0.96630037 1.7754635
1.4898812 0.97866905 1.767077
1.5222758 0.99994832 1.7704179
1.5456182 1.0152814 1.7702734
1.564559 1.0277232 1.7609203
1.5957556 1.0482155 1.764882
1.5961938 1.0485033 1.7347064
1.615021 1.0608705 1.7246336
1.5850528 1.0411851 1.6595002
1.584421 1.0407701 1.629849
1.5593845 1.0243241 1.5724759
1.5772319 1.0360477 1.5625123
1.5769863 1.0358864 1.5313241
1.5750246 1.0345978 1.5023333
1.541183 1.012368 1.4406478
1.5516319 1.0192317 1.4245018
1.5431939 1.013689 1.3881955
1.5532603 1.0203013 1.3720305
1.5441358 1.0143076 1.336123
1.5686556 1.0304142 1.3294984
1.5508443 1.0187143 1.2902337
1.5613657 1.0256256 1.2719392
1.5705835 1.0316805 1.2555888
1.5528226 1.0200138 1.2152013
1.5475581 1.0165557 1.188141
1.5572411 1.0229162 1.1698899
1.5728315 1.0331572 1.15883
1.5822561 1.039348 1.1403164
1.5761192 1.0353168 1.1135832
1.5634737 1.0270102 1.08
1.5567423 1.0225886 1.0537864
1.5643691 1.0275984 1.0374926
1.5645314 1.0277051 1.0163481
1.5571253 1.0228401 0.99058497
1.5642911 1.0275472 0.9742896
1.5713377 1.0321759 0.95791996
1.5773984 1.0361571 0.94355315
1.5383559 1.010511 0.90267849
1.5674893 1.0296479 0.89955676
1.5596464 1.0244962 0.87264597
1.5659517 1.028638 0.85632873
1.5629783 1.0266849 0.83995056
1.5690452 1.03067 0.82359976
1.5519438 1.0194366 0.7953738
1.557686 1.0232084 0.77913988
1.5626186 1.0264486 0.76487023
1.5519297 1.0194273 0.74315697
1.5566326 1.0225165 0.72894102
1.5534279 1.0204114 0.71114147
1.5572848 1.0229449 0.69896179
1.5544727 1.0210977 0.67924529
1.5514921 1.0191399 0.65964097
1.5483445 1.0170723 0.6401509
1.5529547 1.0201006 0.62396049
1.5489526 1.0174717 0.6066277
1.529421 1.0046418 0.58134866
1.549052 1.017537 0.57328546
1.5521549 1.0195752 0.56114304
1.5396568 1.0113654 0.54129189
1.5591362 1.024161 0.53271818
1.5544401 1.0210763 0.51577008
1.5576829 1.0232064 0.50157028
1.5446675 1.0146569 0.48225892
1.5472726 1.016368 0.4701528
1.5502247 1.0183072 0.45601976
1.5449616 1.01485 0.43951452
1.5395726 1.0113101 0.42316449
1.5340713 1.0076965 0.40690649
1.5362644 1.009137 0.39488494
1.5390861 1.0109906 0.37883002
1.5417905 1.0127671 0.36274621
1.5361629 1.0090704 0.34479102
1.546847 1.0160886 0.330497
1.5568591 1.0226654 0.32007056
1.550885 1.018741 0.30219603
1.5447693 1.0147238 0.28447074
1.5467854 1.0160481 0.2683312
1.5486835 1.0172949 0.25217125
1.558755 1.0239108 0.23725407
1.552126 1.0195563 0.21979493
1.5449888 1.0148679 0.20652567
1.5462604 1.0157032 0.19242114
1.5557642 1.0219461 0.17923155
1.5485361 1.0171981 0.16414697
1.5578704 1.0233296 0.15078528
1.5505745 1.018537 0.13379474
1.559723 1.0245465 0.12028458
1.5521958 1.0196021 0.10343905
1.5528911 1.0200589 0.087228872
1.5617548 1.0258812 0.073415853
1.5454695 1.0151838 0.058529448
1.5457984 1.0153997 0.044392552
1.5460364 1.0155561 0.030285345
1.5545425 1.0211436 0.016231356
1.5629598 1.0266727 1.1450448e-16
1.5461986 1.0156627 -0.014109978
1.5544204 1.0210633 -0.02840413
1.5541941 1.0209147 -0.042587895
1.5538243 1.0206718 -0.058813374
1.5700388 1.0313227 -0.075841196
1.5527297 1.0199528 -0.09124966
1.5520051 1.0194768 -0.107458
1.5595018 1.0244012 -0.12432298
1.5502013 1.018292 -0.13984889
1.5491222 1.0175831 -0.15602897
1.54808 1.0168985 -0.17019302
1.5550958 1.021507 -0.18735167
1.5455468 1.0152345 -0.20045924
1.5606283 1.0251412 -0.21891734
1.5672646 1.0295004 -0.23645435
1.5571973 1.0228875 -0.25147131
1.5557883 1.0219619 -0.26365983
1.5540583 1.0208255 -0.27788168
1.5522417 1.0196322 -0.29205489
1.5503303 1.0183766 -0.30624348
1.5480375 1.0168706 -0.3224186
1.5541604 1.0208925 -0.33832565
1.5522763 1.0196549 -0.35048851
1.5417905 1.0127671 -0.36274621
1.1461279 0.75286531 -0.28210744
1.0541389 0.69243979 -0.27095827
1.044223 0.68592626 -0.27839482
1.0424137 0.6847378 -0.28793734
1.0486771 0.68885213 -0.29976511
1.0467311 0.68757385 -0.30934775
1.03663 0.68093866 -0.3164185
1.0342827 0.67939675 -0.32722974
1.0486028 0.68880332 -0.34056127
1.046079 0.68714547 -0.35149661
1.0354487 0.68016267 -0.35961744
1.0327864 0.67841381 -0.3704147
1.0380301 0.68185836 -0.38413867
1.0431519 0.68522269 -0.39800015
1.0481497 0.68850571 -0.41199756
1.0375664 0.68155372 -0.41837838
1.0344753 0.67952329 -0.42919552
1.0391781 0.68261242 -0.4433386
1.035905 0.68046236 -0.45417163
1.0403754 0.68339884 -0.46849257
1.0377902 0.68170077 -0.47662938
1.0269418 0.67457467 -0.48243091
1.0238293 0.67253017 -0.49180943
1.0206645 0.67045122 -0.50113791
1.0251405 0.67339146 -0.51432556
1.0290295 0.67594606 -0.52895677
1.0404327 0.68343657 -0.54773551
1.0440186 0.68579209 -0.56268483
1.0322845 0.67808419 -0.56937724
1.0432113 0.68526179 -0.58866489
1.0394285 0.68277687 -0.59816736
1.0430803 0.68517578 -0.61206007
1.0397099 0.68296176 -0.62021494
1.035726 0.68034476 -0.62968463
1.0390946 0.68255752 -0.64373732
1.0423533 0.6846981 -0.65786636
1.045482 0.68675333 -0.67211396
1.0338349 0.6791026 -0.67683452
1.0301104 0.67665601 -0.6849156
1.0329785 0.67854011 -0.69924146
1.0502198 0.68986541 -0.72361881
1.0383549 0.68207163 -0.72814661
1.0408612 0.68371809 -0.74272299
1.0439262 0.68573135 -0.75603604
1.046182 0.68721318 -0.77080554
1.041238 0.6839655 -0.78032982
1.042551 0.68482804 -0.79655367
1.050711 0.69018817 -0.81831938
1.0516671 0.69081622 -0.83478689
1.0524625 0.69133866 -0.8513363
1.0522977 0.69123042 -0.86935037
1.0459169 0.68703896 -0.88030416
1.0402747 0.6833328 -0.88982284
1.047258 0.68791997 -0.91242355
1.0548351 0.69289714 -0.93387175
1.0546587 0.69278121 -0.95086771
1.0675758 0.70126623 -0.98010588
1.1921116 0.78307092 -1.1143472
1.1904796 0.78199893 -1.1329767
1.1496935 0.75520742 -1.1138971
1.1286266 0.74136913 -1.1131369
1.0820489 0.71077323 -1.0863111
1.0677289 0.70136678 -1.0910727
1.0418007 0.68433517 -1.0811275
1.0411345 0.68389755 -1.0972342
1.0383066 0.68203998 -1.1160828
1.0609688 0.69692624 -1.1606201
1.0402253 0.68330026 -1.1580294
0.9882254 0.64914274 -1.122018
0.78078115 0.51287735 -0.90406728
0.48778561 0.32041526 -0.57602018
0.45407999 0.29827482 -0.54565877
0.45542356 0.29915735 -0.55811673
0.44554913 0.29267105 -0.55563444
0.41805711 0.27461219 -0.5317108
0.42550999 0.27950782 -0.55074191
0.42658749 0.28021559 -0.5631184
0.40022907 0.26290137 -0.53767979
0.38479969 0.25276616 -0.52729356
0.38589349 0.25348464 -0.53938091
0.35949081 0.23614134 -0.51371551
0.32215264 0.21161473 -0.47279689
0.12502103 0.082123466 -0.20031345
0.25794873 0.16087143 1.7132375
0.27217999 0.16974685 1.72035
0.28333789 0.17670555 1.7280321
0.29453835 0.18369079 1.7254289
0.30569607 0.19064936 1.7227312
0.31844047 0.19859751 1.7195216
0.33843368 0.21106641 1.7449968
0.34580931 0.21566626 1.7224413
0.35855004 0.22361211 1.7188193
0.37755609 0.23546535 1.7441351
0.38885823 0.24251401 1.7406827
0.39851668 0.24853757 1.737646
0.40975046 0.25554359 1.7340133
0.42332482 0.26400933 1.7398837
0.43457234 0.2710239 1.736028
0.44582021 0.27803874 1.732062
0.45542958 0.28403166 1.7285861
0.46918097 0.29260781 1.7339694
0.48041451 0.29961368 1.7296917
0.49591371 0.30927986 1.7341614
0.50873554 0.31727627 1.7289951
0.52559215 0.32778904 1.7432175
0.53398198 0.33302137 1.7290344
0.54811883 0.34183794 1.7335548
0.55632389 0.34695506 1.7192224
0.56743383 0.35388386 1.7141719
0.58956313 0.36768493 1.736123
0.59598774 0.37169167 1.7222787
0.61040592 0.38068369 1.7260894
0.61997861 0.38665375 1.7213441
0.6394676 0.39880821 1.7332436
0.65227717 0.40679696 1.7266009
0.66503704 0.41475475 1.7198268
0.68133223 0.42491734 1.7219847
0.69405681 0.43285313 1.7149121
0.70356566 0.43878335 1.7095218
0.7183696 0.44801596 1.7121118
0.74473059 0.46445614 1.7413089
0.75759584 0.47247967 1.7335835
0.77040344 0.48046717 1.7257259
0.78315234 0.4884181 1.717737
0.81624776 0.5090583 1.7534535
0.82343382 0.51353991 1.7373352
0.840469 0.52416402 1.7374878
0.86183536 0.5374893 1.7460656
0.88772243 0.55363393 1.7629346
0.89195466 0.5562734 1.7366281
0.91209149 0.56883192 1.7455714
0.9278658 0.57866967 1.7457968
0.92548555 0.57718515 1.7120847
0.9519915 0.59371579 1.7276614
0.98348075 0.61335427 1.7511603
0.99004787 0.61744988 1.7339725
1.026841 0.64039624 1.7649617
1.0447299 0.65155274 1.7625318
1.0610442 0.66172719 1.7612219
1.0773761 0.67191273 1.7597426
1.1054394 0.68941456 1.7727695
1.1185238 0.69757479 1.761333
1.1418097 0.71209717 1.7656693
1.1564759 0.7212438 1.7523615
1.1852101 0.73916411 1.7639199
1.1998336 0.74828416 1.7501343
1.2289169 0.76642215 1.7608976
1.2653555 0.78914732 1.7772231
1.2784668 0.7973243 1.7641418
1.3098087 0.81687087 1.7718982
1.3268861 0.82752126 1.7675354
1.3626339 0.84981567 1.7835476
1.3815209 0.86159462 1.7768384
1.4061986 0.87698507 1.7771895
1.4167098 0.88354045 1.7517675
1.4440906 0.90061665 1.7623825
1.4749271 0.91984802 1.7688611
1.4999683 0.93546516 1.767767
1.5311568 0.954916 1.7733004
1.5625399 0.97448838 1.7783254
1.5895876 0.99135685 1.7739286
1.6010476 0.99850392 1.7595558
1.6140153 1.0065913 1.7430227
1.6394715 1.0224673 1.7397395
1.671356 1.0423522 1.7426907
1.7290227 1.0783165 1.7713593
1.7145694 1.0693026 1.7144514
1.8233155 1.1371228 1.6675948
1.9386915 1.2090777 1.6185198
2.1165023 1.3199707 1.6121399
2.7195599 1.6960715 1.7041818
1.7773768 1.1084728 0.79361194
1.7368141 1.0831757 0.75007135
1.7502942 1.0915825 0.73553908
1.7650207 1.1007669 0.71624994
1.7634926 1.0998138 0.6903646
1.852077 1.1550601 0.62333518
1.8078362 1.1274689 0.50659829
1.6745218 1.0443265 0.38139078
1.6870438 1.0521361 0.2949456
1.7216733 1.0737329 0.21104254
1.6939663 1.0564532 0.11993684
1.7476648 1.0899427 0.035951957
1.7897431 1.1161851 -0.055233359
1.752004 1.0926489 -0.14663032
1.7560211 1.0951542 -0.20839117
1.7708532 1.1044043 -0.23317415
1.6759492 1.0452168 -0.24251999
1.7077397 1.0650432 -0.26496816
1.6721026 1.0428178 -0.27695447
1.6529361 1.0308645 -0.2932927
1.6507014 1.0294709 -0.31028122
1.6647661 1.0382423 -0.33272591
1.6371802 1.0210382 -0.34456071
1.6675855 1.0400007 -0.37088734
1.639804 1.0226747 -0.38220319
1.6863821 1.0517234 -0.41339275
1.6417973 1.0239178 -0.42011181
1.6464957 1.026848 -0.44128793
1.6349084 1.0196214 -0.45590204
1.6475034 1.0274764 -0.47960892
1.6767672 1.0457269 -0.5064652
1.6314794 1.0174829 -0.51293606
1.6276193 1.0150754 -0.52969551
1.5415603 0.96140426 -0.52095461
1.4648991 0.91359401 -0.50932962
1.4286036 0.89095813 -0.51272321
1.392372 0.86836201 -0.51540995
1.3562119 0.84581053 -0.51739138
1.33623 0.83334869 -0.52499449
1.3086993 0.81617892 -0.52731246
1.2887357 0.80372852 -0.53411674
1.2602987 0.78599364 -0.53875899
1.2249503 0.76394838 -0.53617108
1.2135134 0.75681567 -0.5436132
1.2020437 0.74966246 -0.55090582
1.1979187 0.74708992 -0.56324732
1.2015557 0.74935818 -0.57933241
1.2044978 0.75119299 -0.59707135
1.2545778 0.7824257 -0.63713795
1.2886263 0.80366027 -0.67020327
1.275882 0.79571229 -0.67931366
1.1783813 0.7349053 -0.64205259
1.1588335 0.72271419 -0.64411879
1.1469848 0.71532464 -0.65018195
1.1573552 0.72179222 -0.67077941
1.1833117 0.73798019 -0.69911271
1.2776875 0.79683828 -0.76724392
1.2877464 0.80311161 -0.78792185
1.2968558 0.80879265 -0.81050575
1.2833437 0.80036575 -0.81905049
1.2690316 0.79143995 -0.82902443
1.2496122 0.77932888 -0.82898486
1.2221245 0.76218593 -0.82527846
1.2020761 0.74968272 -0.82618934
1.1959128 0.74583894 -0.83852065
1.1896584 0.74193829 -0.85078812
1.1833134 0.7379812 -0.86299086
1.1625261 0.72501707 -0.86445552
1.156081 0.72099751 -0.87637866
1.1495477 0.716923 -0.88823503
1.193188 0.74413955 -0.93736804
1.3144847 0.81978709 -1.0473677
1.3076526 0.81552619 -1.0591797
1.3067107 0.81493872 -1.0783237
1.271045 0.79269564 -1.0684935
1.2630849 0.78773123 -1.0815248
1.2628753 0.78760052 -1.0987864
1.2614733 0.78672618 -1.1177419
1.2464116 0.77733278 -1.1245941
1.244729 0.7762835 -1.1435181
1.2295681 0.7668283 -1.1500595
1.2144055 0.75737208 -1.1563765
1.2003103 0.74858147 -1.1609397
1.1732087 0.73167938 -1.152487
1.165699 0.72699589 -1.1630231
1.1452702 0.71425533 -1.160429
1.1121433 0.69359547 -1.1444049
1.1163125 0.69619566 -1.1690843
1.1087141 0.69145691 -1.1790845
1.1072896 0.69056851 -1.1957947
1.1119426 0.69347036 -1.2193369
1.0927993 0.68153149 -1.2141682
1.1094091 0.6918903 -1.2516387
1.1012768 0.68681848 -1.2615744
1.0991005 0.68546128 -1.2784839
1.0836053 0.67579758 -1.2826525
0.75872034 0.47318095 -0.91588384
0.49931508 0.31140113 -0.61336267
0.43072733 0.26862594 -0.53843665
0.42672405 0.26612929 -0.54284602
0.42840028 0.26717466 -0.55460876
0.41245541 0.25723052 -0.54462188
0.41400161 0.25819486 -0.55636144
0.39275596 0.24494486 -0.53837234
0.37780377 0.23561981 -0.52711254
0.35621446 0.2221555 -0.50927222
0.17872617 0.11146376 -0.27952242
