# .PCD v0.7 - Point Cloud Data file format
VERSION 0.7
FIELDS x y z
SIZE 4 4 4
TYPE F F F
COUNT 1 1 1
WIDTH 1505
HEIGHT 1
VIEWPOINT 0 0 0 1 0 0 0
POINTS 1505
DATA ascii
0.063629851 0.67313349 1.7220169
0.065219149 0.68994653 1.7152902
0.06608925 0.69915122 1.7007116
0.067676641 0.71594411 1.704507
0.069073871 0.73072529 1.6981665
0.070290752 0.74359846 1.6925189
0.072874032 0.77092671 1.7240827
0.074287139 0.78587586 1.7172596
0.075120799 0.79469508 1.7021213
0.077152476 0.81618792 1.7140259
0.079029769 0.83604765 1.726609
0.080687672 0.85358638 1.729098
0.081750952 0.86483473 1.7234493
0.082125649 0.86879861 1.6989833
0.084041245 0.88906348 1.7109655
0.084652387 0.89552873 1.6962495
0.086141683 0.91128379 1.6991296
0.086734645 0.9175567 1.6843297
0.08914163 0.94301993 1.7044845
0.090365246 0.95596445 1.6971936
0.09392903 0.99366534 1.7331493
0.094697259 1.0017923 1.7168415
0.097372927 1.030098 1.7348824
0.099772133 1.0554789 1.742874
0.10399432 1.100145 1.7857397
0.10527304 1.1136724 1.7772595
0.10825328 1.1452 1.792679
0.11005405 1.1642503 1.792208
0.1115217 1.1797763 1.7819345
0.11509264 1.2175529 1.804638
0.11478297 1.214277 1.7705525
0.1178545 1.2467704 1.7843974
0.11876811 1.2564354 1.7652661
0.12095749 1.2795966 1.7731615
0.12240908 1.2949528 1.7618778
0.12367301 1.3083237 1.751883
0.12606773 1.3336574 1.7577158
0.12848087 1.3591856 1.7632377
0.12817615 1.355962 1.7276973
0.13176546 1.3939329 1.7484819
0.13438562 1.4216514 1.7516986
0.1352181 1.4304581 1.731475
0.13827924 1.4628416 1.7433798
0.1409312 1.4908963 1.7456708
0.14235945 1.5060056 1.732536
0.1456522 1.5408394 1.7416945
0.14752856 1.5606892 1.7372636
0.14704004 1.5555211 1.7014209
0.15164453 1.6042315 1.7242521
0.15611953 1.6515721 1.7481523
0.15606378 1.6509824 1.7210466
0.16178326 1.7114881 1.7456044
0.15921366 1.6843046 1.6881555
0.1614397 1.7078537 1.6784437
0.16298126 1.7241616 1.6615366
0.161768 1.7113267 1.6170318
0.1639446 1.7343527 1.6068736
0.1648857 1.7443086 1.5810757
0.16352047 1.7298658 1.5372785
0.16335623 1.7281283 1.5089358
0.16259243 1.7200482 1.4723784
0.1616307 1.7098743 1.4379866
0.16295263 1.7238587 1.421041
0.1619155 1.712887 1.3870478
0.1608351 1.7014576 1.3533566
0.15984619 1.6909961 1.3181356
0.16030827 1.6958843 1.2953291
0.1591038 1.6831424 1.2624649
0.16000533 1.6926795 1.2495337
0.16026224 1.6953975 1.2287976
0.15908521 1.6829457 1.1946906
0.15774056 1.6687208 1.1627934
0.1579116 1.6705303 1.142494
0.15974165 1.6898903 1.1315272
0.16066483 1.6996564 1.1166714
0.16067199 1.6997321 1.0981781
0.16225089 1.7164352 1.09047
0.16234055 1.7173836 1.0701116
0.16230218 1.7169777 1.051687
0.16305232 1.7249134 1.0385027
0.16217293 1.7156104 1.0150768
0.16300038 1.7243639 1
0.16299634 1.7243211 0.97992289
0.16050252 1.6979393 0.94537878
0.16117641 1.7050683 0.9323433
0.16184244 1.7121142 0.91922367
0.16175738 1.7112143 0.89954436
0.16156124 1.7091393 0.88183945
0.16135055 1.7069105 0.86418903
0.16112256 1.7044986 0.84665447
0.16444059 1.7395997 0.8428238
0.16248858 1.7189497 0.81664532
0.16409054 1.7358966 0.80382669
0.16388638 1.7337369 0.784473
0.16702758 1.7669673 0.78328061
0.16585851 1.7545997 0.76175505
0.16734485 1.7703235 0.75023341
0.16534391 1.7491558 0.7232672
0.16585822 1.7545968 0.70984584
0.16380695 1.7328966 0.68347418
0.16355175 1.7301967 0.66277444
0.16408981 1.735889 0.64758325
0.16284533 1.7227237 0.62554342
0.16157728 1.7093091 0.60378414
0.16111581 1.7044272 0.58742613
0.15974879 1.6899657 0.56797534
0.16015182 1.6942294 0.55501199
0.16060153 1.6989866 0.54014015
0.15923968 1.6845798 0.51935875
0.1615169 1.7086704 0.50838745
0.16011901 1.6938822 0.48787811
0.16046454 1.6975374 0.47488707
0.16089591 1.7021011 0.45810971
0.16035491 1.6963778 0.44066882
0.16162382 1.7098014 0.42820176
0.1628844 1.723137 0.41553274
0.16505338 1.7460824 0.40491191
0.16537963 1.7495337 0.38959131
0.16201121 1.7138995 0.36592457
0.16418597 1.7369062 0.35298723
0.16258752 1.7199965 0.33582383
0.16193181 1.7130595 0.31891218
0.16311432 1.7255694 0.30562079
0.16243093 1.7183398 0.28883332
0.16080296 1.7011175 0.27063161
0.16192313 1.7129676 0.25908044
0.16396804 1.7346008 0.24874642
0.16414182 1.7364391 0.23545039
0.16337284 1.7283041 0.2208482
0.16539548 1.7497015 0.2099738
0.16554171 1.7512484 0.1965325
0.16848606 1.7823963 0.186214
0.1686151 1.7837615 0.17252235
0.16968787 1.7951101 0.15775189
0.16982532 1.7965642 0.14005831
0.16805616 1.7778484 0.12293176
0.16533254 1.7490356 0.10554442
0.16729261 1.769771 0.091234446
0.16547298 1.7505214 0.076770119
0.16176139 1.7112567 0.061917186
0.16179606 1.7116235 0.050665863
0.16371326 1.7319055 0.036075465
0.16185001 1.7121942 0.024405167
0.16186388 1.7123411 0.0093961079
0.16186592 1.7123625 -0.0037524549
0.16091748 1.702329 -0.016772695
0.15995976 1.6921976 -0.029669091
0.16181083 1.7117798 -0.04502435
0.1617738 1.7113881 -0.058137011
0.16172725 1.7108957 -0.071276285
0.16261135 1.7202483 -0.084872
0.16254553 1.7195522 -0.098078519
0.16528781 1.7485625 -0.11317836
0.16237286 1.7177254 -0.1263106
0.16322969 1.7267897 -0.1383958
0.16217241 1.7156048 -0.15264426
0.16299459 1.7243028 -0.16677161
0.16193412 1.7130841 -0.17894232
0.16180065 1.7116722 -0.19209108
0.16165808 1.7101638 -0.20519865
0.16243929 1.7184281 -0.21958621
0.16132028 1.7065903 -0.2332921
0.16114815 1.7047693 -0.24635954
0.16468796 1.7422167 -0.26544115
0.16452093 1.7404498 -0.276889
0.16527538 1.748431 -0.28995395
0.16784441 1.7756084 -0.30845276
0.17039579 1.8025992 -0.32741612
0.16923107 1.7902777 -0.33936191
0.16802272 1.7774948 -0.35310143
0.1677638 1.7747556 -0.36673969
0.16841599 1.7816551 -0.38241515
0.16997351 1.7981318 -0.40041327
0.16784677 1.7756333 -0.40969956
0.16567327 1.7526401 -0.42060065
0.1635386 1.7300577 -0.42925
0.16413762 1.7363946 -0.44496351
0.1629497 1.7238278 -0.45383388
0.16266668 1.7208338 -0.46515679
0.16318506 1.7263176 -0.48290575
0.16192827 1.7130221 -0.49339086
0.16241923 1.7182161 -0.51122761
0.16294783 1.7238081 -0.52728921
0.16250859 1.7191614 -0.54237908
0.16300932 1.7244585 -0.55863333
0.16528389 1.7485209 -0.58125389
0.16396976 1.7346188 -0.59144861
0.16449109 1.740134 -0.60611582
0.16398706 1.7348019 -0.62134576
0.1652378 1.7480333 -0.64340979
0.16815756 1.7789211 -0.67473155
0.1658421 1.7544261 -0.6830706
0.16359615 1.7306665 -0.68915147
0.1613524 1.70693 -0.69487792
0.16258667 1.7199874 -0.71561801
0.16127534 1.7061149 -0.72302288
0.1536193 1.6251224 -0.70977336
0.15646945 1.6552738 -0.74026066
0.15593356 1.6496048 -0.75292021
0.15957603 1.6881381 -0.78843212
0.16402158 1.7351671 -0.82897049
0.16240126 1.7180259 -0.8416726
0.16254607 1.7195579 -0.86116177
0.16425748 1.7376627 -0.89171064
0.16518748 1.747501 -0.91616219
0.16692016 1.7658308 -0.94555771
0.17357625 1.8362449 -1.0040299
0.16955651 1.7937205 -0.99870783
0.16637598 1.760074 -0.99767649
0.16167521 1.710345 -0.98436826
0.15933645 1.6856035 -0.98739702
0.15943238 1.6866184 -1.0053852
0.15951006 1.6874402 -1.0234756
0.1570608 1.6615297 -1.0277407
0.15642442 1.6547974 -1.0386418
0.15726288 1.6636674 -1.0620164
0.15649426 1.6555364 -1.07476
0.15582892 1.6484979 -1.0856206
0.15661129 1.6567744 -1.1093113
0.1581458 1.6730077 -1.1388305
0.15720452 1.6630502 -1.1534518
0.16330479 1.7275842 -1.2178605
0.16689177 1.7655305 -1.2678522
0.16673614 1.7638842 -1.2872497
0.16794214 1.7766423 -1.3205066
0.16746612 1.7716064 -1.3439739
0.16724096 1.7692246 -1.3636256
0.16833949 1.7808458 -1.3975515
0.16630548 1.7593282 -1.4087962
0.1658729 1.754752 -1.4304655
0.1675939 1.7729583 -1.4712687
0.16493873 1.7448696 -1.473881
0.16602041 1.7563125 -1.5067195
0.16548696 1.7506691 -1.5286175
0.16563496 1.7522348 -1.5571572
0.16838169 1.7812923 -1.6145419
0.1644399 1.7395926 -1.6011488
0.16311872 1.7256157 -1.6163361
0.16161887 1.7097491 -1.6332597
0.16094768 1.7026486 -1.6551385
0.15673023 1.6580327 -1.643765
0.15271837 1.6155915 -1.6298898
0.14791942 1.564824 -1.6099521
0.14333405 1.5163158 -1.5875269
0.14008814 1.4819777 -1.5789292
0.13606609 1.4394289 -1.5641069
0.13335177 1.4107144 -1.5633945
0.12705564 1.3441083 -1.5159583
0.12348121 1.3062948 -1.5094192
0.11643779 1.2317832 -1.4550781
0.061158311 0.64698732 -0.83741689
0.007071822 0.074812062 -0.10608084
0.032440342 0.27408704 1.5455498
0.034040365 0.28760558 1.5532303
0.03743637 0.31629831 1.6291574
0.041226164 0.3483181 1.7144897
0.042737521 0.36108747 1.7015843
0.04404559 0.3721393 1.6991681
0.046094831 0.38945326 1.7157509
0.049436305 0.41768524 1.7604531
0.051240109 0.43292549 1.7567157
0.05362609 0.45308453 1.772213
0.056047715 0.47354478 1.7874882
0.058504719 0.49430388 1.8025373
0.060351342 0.50990593 1.798125
0.06275896 0.53024775 1.8025811
0.064605467 0.54584885 1.797853
0.066447049 0.56140834 1.7929878
0.068414442 0.57803071 1.7981379
0.068546012 0.57914233 1.7556752
0.069738895 0.58922094 1.7417104
0.071689315 0.60569996 1.7465647
0.073478028 0.62081271 1.7411757
0.074040689 0.62556666 1.7075082
0.076205678 0.64385849 1.7112974
0.07858716 0.66397959 1.7249508
0.0799191 0.67523307 1.7097583
0.082779996 0.69940466 1.7215053
0.084320843 0.71242321 1.7160836
0.084718332 0.71578157 1.69295
0.087643027 0.74049217 1.7149023
0.089177817 0.75345957 1.7091653
0.091413744 0.77235085 1.7115834
0.094926588 0.80203068 1.7418771
0.09598282 0.81095475 1.7266266
0.097238377 0.82156289 1.7104324
0.098772377 0.83452362 1.7040582
0.10008115 0.84558135 1.6985217
0.10191925 0.86111134 1.7018225
0.10452506 0.88312775 1.7129098
0.10496199 0.88681942 1.6883821
0.10814485 0.91371119 1.7079334
0.10967629 0.92665029 1.7008499
0.11177102 0.94434863 1.7024138
0.1129308 0.95414758 1.6853632
0.11834642 0.9999038 1.7396225
0.11990602 1.0130808 1.7318746
0.1222832 1.0331655 1.731478
0.12812304 1.0825061 1.7832175
0.13158357 1.1117439 1.8003086
0.13382192 1.1306556 1.8001692
0.13670717 1.1550331 1.8082339
0.1383242 1.1686953 1.7993103
0.14188947 1.1988181 1.8152417
0.14440534 1.2200745 1.8129163
0.14469276 1.2225031 1.7870227
0.14922103 1.2607621 1.8089533
0.15015949 1.2686912 1.7910541
0.15083334 1.2743845 1.7622695
0.15428008 1.3035058 1.777968
0.15680417 1.3248318 1.7744389
0.15816586 1.3363365 1.7656693
0.1604673 1.3557813 1.7632377
0.16131665 1.3629575 1.7449137
0.16383493 1.3842343 1.7406762
0.16709943 1.4118159 1.7439477
0.17016071 1.4376806 1.7484336
0.17194758 1.4527779 1.7357334
0.17601725 1.4871622 1.7456708
0.17912121 1.5133874 1.7492782
0.18012883 1.5219008 1.7284304
0.18661936 1.576739 1.7595361
0.18876204 1.5948424 1.756487
0.18975581 1.6032388 1.7350845
0.19453812 1.6436442 1.7517673
0.19750711 1.6687291 1.7553444
0.19870022 1.6788098 1.7316223
0.19881201 1.6797541 1.7026155
0.1957496 1.6538799 1.643765
0.20333411 1.7179612 1.6779048
0.20270365 1.7126346 1.6401812
0.20200932 1.706768 1.6026962
0.20124499 1.7003105 1.5655174
0.20196876 1.7064254 1.5438331
0.20109603 1.6990517 1.5070447
0.20263413 1.7120471 1.492057
0.20147054 1.702216 1.457522
0.20043264 1.6934469 1.4214305
0.20115441 1.699545 1.3982788
0.19983099 1.6883636 1.3645132
0.19862302 1.6781573 1.3292241
0.19811855 1.6738952 1.3021996
0.19867578 1.6786033 1.2795386
0.19526412 1.6497781 1.2349105
0.19636548 1.6590836 1.2222039
0.19570231 1.6534805 1.1959108
0.19596091 1.6556654 1.1755728
0.19715923 1.66579 1.1609789
0.19737026 1.667573 1.1406776
0.19867814 1.6786231 1.1241225
0.20080793 1.6966176 1.1147935
0.19784456 1.6715803 1.0801281
0.19980334 1.6881299 1.0725652
0.19989638 1.688916 1.0524279
0.20311108 1.7160769 1.0460527
0.20114395 1.6994567 1.015622
0.20116204 1.6996095 0.99562109
0.2023022 1.7092427 0.97875601
0.19919136 1.6829593 0.9442302
0.19808884 1.6736442 0.91982383
0.19787169 1.6718094 0.90221941
0.19867657 1.6786098 0.88932371
0.19969229 1.6871916 0.87270123
0.1984795 1.6769449 0.84885925
0.19945028 1.6851469 0.8322255
0.20241584 1.7102028 0.82603526
0.20219122 1.708305 0.80672956
0.2019425 1.7062036 0.78752047
0.2028407 1.7137924 0.7706303
0.20577815 1.7386109 0.76353621
0.20537725 1.7352237 0.74620301
0.20604022 1.7408251 0.73285437
0.20451696 1.7279551 0.71185941
0.20305593 1.715611 0.68923682
0.20366791 1.7207814 0.67604047
0.20325488 1.7172918 0.65734023
0.20171683 1.7042968 0.63528162
0.20007101 1.6903914 0.61534435
0.19847693 1.676923 0.59383166
0.19692683 1.6638263 0.57079047
0.19534403 1.6504534 0.54803663
0.19582964 1.6545564 0.53534484
0.19637129 1.6591326 0.52078509
0.19577284 1.6540765 0.50329328
0.19634466 1.6589077 0.48690248
0.19796784 1.6726218 0.4750208
0.19844754 1.6766747 0.46030462
0.19891211 1.6805999 0.44555342
0.19930574 1.6839257 0.43263301
0.19968864 1.6871608 0.41965783
0.20348863 1.7192668 0.41365957
0.20156386 1.7030045 0.39591387
0.20081475 1.6966753 0.37876934
0.20004593 1.6901795 0.36176634
0.1992576 1.6835189 0.34490654
0.19956098 1.6860824 0.33196664
0.19985344 1.6885532 0.31897777
0.20013358 1.69092 0.30599999
0.19808587 1.6736192 0.28958765
0.19953546 1.6858665 0.27647722
0.19864975 1.6783832 0.260131
0.19774579 1.6707457 0.24393746
0.20148237 1.7023159 0.2332921
0.2005755 1.6946539 0.21521576
0.20195599 1.7063175 0.20148051
0.204492 1.7277442 0.1886345
0.20701687 1.7490767 0.17542708
0.20718892 1.7505304 0.16005048
0.2073452 1.7518507 0.14466169
0.20984691 1.7729877 0.12875944
0.20763907 1.7543336 0.10999843
0.20658232 1.7454052 0.092111282
0.20432042 1.7262945 0.075897731
0.20320791 1.7168949 0.062277168
0.20090812 1.6974641 0.048491836
0.20095021 1.6978197 0.033573613
0.19979917 1.6880946 0.020412881
0.19863631 1.6782697 0.0073739928
0.19746177 1.6683462 -0.0054831165
0.19744863 1.6682351 -0.02014341
0.19860408 1.6779974 -0.031323027
0.19739516 1.6677833 -0.043977272
0.20087411 1.6971767 -0.057799004
0.20199066 1.7066106 -0.071276285
0.19838819 1.6761733 -0.084765606
0.20182666 1.7052248 -0.099369764
0.20173147 1.7044206 -0.11249338
0.20164062 1.703653 -0.12372416
0.20035219 1.692767 -0.13600966
0.19903426 1.681632 -0.14999725
0.20006363 1.6903291 -0.16389623
0.19991089 1.6890386 -0.17687362
0.20091423 1.6975157 -0.19098073
0.19954377 1.6859368 -0.20469326
0.19818865 1.6744875 -0.216363
0.19798845 1.672796 -0.22924659
0.19894059 1.6808405 -0.24351145
0.19991127 1.6890419 -0.25607282
0.20199715 1.7066653 -0.27219597
0.2029431 1.7146577 -0.28506708
0.20271946 1.7127681 -0.29636163
0.20707527 1.7495701 -0.31658196
0.20794 1.7568761 -0.33188438
0.20759167 1.7539331 -0.34731022
0.2084258 1.7609807 -0.36277503
0.20809375 1.7581753 -0.37632015
0.20769984 1.754847 -0.3917557
0.20739402 1.7522632 -0.40331283
0.20473886 1.7298298 -0.41215387
0.20327541 1.7174653 -0.4211795
0.2040872 1.7243241 -0.43491936
0.20027666 1.6921289 -0.44066882
0.19993336 1.6892285 -0.45181155
0.19958152 1.6862557 -0.46293494
0.19808918 1.673647 -0.4713451
0.19985645 1.6885786 -0.49158892
0.20060097 1.694869 -0.50554729
0.20133254 1.70105 -0.51960957
0.19973874 1.6875842 -0.52968317
0.20044681 1.6935666 -0.54383224
0.20114161 1.6994369 -0.5580827
0.20182303 1.7051941 -0.57243371
0.20352714 1.7195921 -0.59201336
0.20417701 1.7250829 -0.6066308
0.20149177 1.7023954 -0.61126989
0.20212172 1.7077178 -0.62589687
0.20257299 1.7115304 -0.64438158
0.20080702 1.69661 -0.65581334
0.19911921 1.6823497 -0.66516989
0.19960648 1.6864666 -0.68182671
0.19889952 1.6804936 -0.69662046
0.19926037 1.6835424 -0.71524841
0.19753397 1.668956 -0.72420025
0.19238883 1.6254851 -0.72448933
0.1894972 1.6010537 -0.73049146
0.19630495 1.6585722 -0.77214164
0.19560544 1.652662 -0.78488648
0.19796892 1.6726309 -0.81241262
0.19923641 1.68334 -0.83592564
0.20047058 1.6937674 -0.85968804
0.20387615 1.722541 -0.8909474
0.20503613 1.7323415 -0.91534305
0.20512545 1.7330962 -0.93525457
0.21356454 1.8043977 -0.99168503
0.20945896 1.7697098 -0.99290186
0.20536739 1.7351403 -0.99358565
0.20027398 1.6921062 -0.9887197
0.19735762 1.6674662 -0.99151736
0.19633311 1.6588101 -1.0061324
0.19429214 1.641566 -1.0154365
0.19237731 1.6253878 -1.0227442
0.19231227 1.6248381 -1.0423613
0.1912358 1.6157432 -1.0565997
0.18930221 1.5994062 -1.0634681
0.19029285 1.6077762 -1.0868967
0.19125463 1.6159022 -1.1104871
0.19039626 1.60865 -1.1211132
0.19419006 1.6407034 -1.1622316
0.20079172 1.6964806 -1.2213255
0.20270285 1.7126278 -1.250087
0.20614094 1.741676 -1.294786
0.20497152 1.7317957 -1.3081553
0.20549005 1.7361766 -1.3354641
0.2068958 1.7480538 -1.3690881
0.2064051 1.7439079 -1.390605
0.20405586 1.7240592 -1.3996003
0.20442969 1.7272177 -1.4273849
0.20476191 1.7300246 -1.4553306
0.20236596 1.7097814 -1.4639999
0.20371643 1.7211914 -1.4966962
0.20374203 1.7214077 -1.5268742
0.20855655 1.7620853 -1.6011431
0.20430917 1.7261995 -1.5962747
0.20438159 1.7268114 -1.6250386
0.19994247 1.6893054 -1.6213484
0.19742814 1.6680619 -1.629169
0.19637606 1.6591729 -1.6525985
0.18970312 1.6027936 -1.6245508
0.18474525 1.5609047 -1.6099521
0.17983201 1.5193931 -1.594743
0.17556548 1.4833453 -1.5878487
0.1697419 1.434142 -1.5656706
0.16339348 1.3805046 -1.5337567
0.15927199 1.3456823 -1.524917
0.15229048 1.2866958 -1.4839547
0.14561395 1.2302861 -1.4537169
0.067927204 0.57391405 -0.7413559
0.020445218 0.17274077 -0.24442303
0.040074032 0.28157482 1.5440239
0.043307662 0.30429548 1.590575
0.048354413 0.33975583 1.7058218
0.05018618 0.35262647 1.7031547
0.052019205 0.36550599 1.7003821
0.053845018 0.37833482 1.6975168
0.056894515 0.39976171 1.7233263
0.059011314 0.41463512 1.7197371
0.062776774 0.44109264 1.754308
0.065290183 0.45875275 1.7600236
0.068563633 0.48175317 1.7848566
0.072667956 0.51059169 1.8286649
0.074004516 0.51998281 1.7947259
0.076747626 0.53925693 1.8098099
0.079387836 0.55780804 1.8145379
0.080756821 0.56742698 1.7905041
0.082514063 0.57977402 1.7759373
0.084694572 0.5950951 1.7707593
0.085205846 0.59868747 1.7377898
0.087278366 0.61324978 1.7432175
0.088189639 0.61965269 1.7196375
0.091019079 0.6395334 1.7335548
0.093385734 0.65616238 1.7379097
0.093714371 0.65847152 1.7048557
0.096070081 0.67502356 1.7090095
0.097634263 0.68601412 1.6937392
0.10053851 0.70642042 1.7068574
0.1034808 0.72709405 1.7197459
0.10532593 0.74005854 1.7140944
0.10774223 0.75703633 1.7174655
0.11043419 0.77595109 1.7198268
0.11346734 0.79726309 1.7319344
0.1156645 0.81270117 1.7356666
0.11753064 0.82581329 1.7293407
0.12000746 0.84321636 1.731902
0.12250086 0.86073589 1.73428
0.12270138 0.86214489 1.6999266
0.12582858 0.88411766 1.7109655
0.12700631 0.89239287 1.6952593
0.12856695 0.90335846 1.6893235
0.13215522 0.92857099 1.7096171
0.13510056 0.94926608 1.7209131
0.13599084 0.95552152 1.7058972
0.14063281 0.98813754 1.7331493
0.14320797 1.0062317 1.7340962
0.14624491 1.0275702 1.7445951
0.15130828 1.0631474 1.7696676
0.15616617 1.0972806 1.795463
0.15884478 1.1161016 1.7954067
0.16180599 1.1369082 1.7939227
0.1652665 1.1612229 1.8018736
0.1682547 1.1822191 1.7999022
0.17046143 1.1977243 1.7894131
0.17477807 1.2280548 1.8048364
0.17618242 1.2379222 1.7857515
0.17837144 1.2533031 1.7747718
0.18083 1.2705778 1.7745514
0.18551199 1.3034751 1.7874389
0.18658321 1.3110019 1.7693391
0.18848354 1.3243544 1.7591645
0.19236463 1.3516244 1.7632377
0.19626997 1.3790647 1.7669631
0.19816314 1.3923668 1.7562876
0.20120539 1.4137427 1.7516986
0.20515114 1.441467 1.7545614
0.20794307 1.4610841 1.7510263
0.211923 1.4890486 1.7532606
0.21287544 1.4957409 1.7341982
0.21847172 1.5350623 1.7525564
0.22156112 1.5567696 1.7463903
0.22316688 1.5680522 1.7360613
0.2259836 1.5878437 1.7312666
0.23196991 1.6299055 1.7463099
0.2357928 1.6567665 1.7481208
0.23596689 1.6579897 1.7191247
0.23582576 1.6569982 1.6920825
0.23389906 1.6434604 1.6492207
0.2371804 1.6665163 1.6398076
0.23841639 1.6752009 1.6163105
0.23652911 1.6619402 1.5722623
0.23997039 1.6861198 1.5606134
0.24001944 1.6864644 1.5304667
0.23895481 1.678984 1.493825
0.23994145 1.6859165 1.4705827
0.23873968 1.6774724 1.4343952
0.23854202 1.6760837 1.4049346
0.23828951 1.6743093 1.3756113
0.23797572 1.6721045 1.3464895
0.23407546 1.6446999 1.3008732
0.23435384 1.6466559 1.2820307
0.23460226 1.6484014 1.2632635
0.23294748 1.6367744 1.2289448
0.23217349 1.631336 1.2026796
0.2302075 1.6175222 1.1707802
0.23296781 1.6369171 1.1604431
0.23322546 1.6387275 1.1402973
0.23444688 1.6473097 1.1276104
0.23447946 1.6475385 1.1093403
0.23448916 1.6476067 1.0911036
0.2381919 1.6736236 1.0873587
0.23339944 1.6399499 1.0477065
0.23811074 1.6730531 1.050855
0.2369878 1.6651632 1.0256552
0.23703057 1.6654636 1.0058069
0.24174903 1.6986172 1.0081453
0.23794688 1.6719019 0.97500002
0.24021333 1.6878269 0.96702534
0.23646684 1.6615026 0.93268037
0.23499094 1.6511323 0.91024232
0.23844612 1.6754097 0.90694308
0.23567516 1.6559399 0.88001144
0.23424295 1.6458768 0.85622424
0.23528683 1.6532115 0.8416841
0.23504908 1.6515409 0.82265699
0.24125375 1.6951371 0.82359368
0.2409822 1.6932292 0.80436468
0.24196205 1.700114 0.7894091
0.24292348 1.7068694 0.77439344
0.24644701 1.7316269 0.76735395
0.24220039 1.7017887 0.73631138
0.24309652 1.7080852 0.72128296
0.24256222 1.704331 0.70428646
0.2420039 1.7004081 0.68742019
0.24011308 1.6871225 0.66698104
0.2395069 1.6828631 0.65039068
0.24152023 1.6970096 0.64087951
0.23558439 1.6553022 0.61063468
0.23490806 1.6505501 0.59447676
0.23554009 1.6549909 0.58174384
0.23482558 1.6499705 0.56573343
0.23542671 1.6541944 0.55300581
0.23467448 1.6489089 0.5371474
0.23524491 1.6529169 0.52442878
0.23445547 1.64737 0.50872678
0.23372106 1.6422098 0.49134654
0.2355963 1.6553859 0.48144782
0.23475105 1.6494468 0.4659583
0.23531504 1.6534096 0.45140156
0.23586111 1.6572466 0.43681043
0.23775564 1.6705582 0.42462641
0.2382687 1.6741631 0.40988517
0.23876362 1.6776406 0.39511269
0.24055588 1.6902337 0.38437331
0.23826483 1.6741359 0.36523774
0.238759 1.6776081 0.3486042
0.23779601 1.6708419 0.33187419
0.23819502 1.6736455 0.31713396
0.23718883 1.6665756 0.30061164
0.24032778 1.6886309 0.28925419
0.23650074 1.6617409 0.26960111
0.23682323 1.6640068 0.25494349
0.23855928 1.6762048 0.23984781
0.2388451 1.6782131 0.22506382
0.23908053 1.6798674 0.21209891
0.24210037 1.7010858 0.20148051
0.2437686 1.7128074 0.18565439
0.24679205 1.7340513 0.17251016
0.24980152 1.755197 0.15900543
0.24858309 1.7466359 0.14272191
0.24736291 1.7380624 0.12470183
0.24610054 1.7291925 0.10875551
0.24200389 1.700408 0.091906436
0.24068828 1.691164 0.078316063
0.23933694 1.681669 0.068609454
0.23799559 1.6722442 0.055295251
0.23946312 1.6825556 0.040793154
0.2395 1.6828147 0.027829777
0.23670715 1.6631912 0.012842705
0.23671407 1.6632397 1.0287033e-16
0.2352961 1.6532766 -0.014573314
0.23526922 1.6530877 -0.029145518
0.23663296 1.6626698 -0.043977272
0.23658733 1.6623492 -0.054968059
0.23932634 1.6815945 -0.07044749
0.23924367 1.6810136 -0.083400227
0.2377401 1.670449 -0.095810808
0.24042523 1.6893158 -0.11183935
0.24166413 1.6980207 -0.12932263
0.24013539 1.6872792 -0.13972816
0.24138124 1.696033 -0.15364569
0.23837869 1.6749359 -0.16662914
0.23819268 1.673629 -0.17952779
0.23656309 1.6621789 -0.19313031
0.23494963 1.6508422 -0.20474049
0.23615316 1.6592985 -0.21693328
0.23587742 1.6573611 -0.23155086
0.23841015 1.6751571 -0.24720348
0.23952954 1.6830221 -0.26165223
0.24202326 1.700544 -0.27780354
0.24449532 1.7179136 -0.29427016
0.24694665 1.7351376 -0.31099045
0.24798988 1.7424676 -0.32620159
0.24768373 1.7403166 -0.33771387
0.2473136 1.737716 -0.35111123
0.24836433 1.7450987 -0.3646172
0.24664485 1.7330171 -0.37405634
0.24623474 1.7301354 -0.38742691
0.24587218 1.7275881 -0.39885634
0.23995179 1.6859891 -0.40294373
0.24218374 1.7016717 -0.42256421
0.2390568 1.6797006 -0.42890298
0.24131455 1.6955644 -0.44691008
0.23681425 1.6639436 -0.45034513
0.23775245 1.6705358 -0.46398699
0.23731947 1.6674936 -0.4750208
0.23672636 1.6633261 -0.48970076
0.23619322 1.65958 -0.50250059
0.23564507 1.6557286 -0.51530033
0.23508444 1.6517894 -0.52804089
0.2357658 1.6565769 -0.54568088
0.23917975 1.6805645 -0.56797534
0.23856242 1.6762269 -0.58090568
0.2380216 1.6724269 -0.59197456
0.2401239 1.6871984 -0.60975575
0.24068746 1.6911583 -0.62805516
0.24122421 1.6949297 -0.64647055
0.23789221 1.6715177 -0.65233099
0.23436065 1.6467038 -0.66146934
0.23614778 1.6592607 -0.68351156
0.23670523 1.6631776 -0.70015055
0.23475748 1.649492 -0.70722336
0.23387896 1.6433192 -0.72173584
0.23029709 1.6181517 -0.72982764
0.2268279 1.593776 -0.73574948
0.23113678 1.6240517 -0.76493907
0.23158044 1.627169 -0.7817235
0.23694588 1.6648686 -0.81790549
0.23605798 1.6586298 -0.83073688
0.24508218 1.7220372 -0.8814888
0.24398899 1.7143561 -0.8966341
0.2416317 1.6977928 -0.90703565
0.24546614 1.724735 -0.9409759
0.25170282 1.7685561 -0.98511672
0.24833024 1.7448592 -0.98701489
0.24603824 1.7287548 -0.99547577
0.24252141 1.7040442 -0.99875748
0.23916708 1.6804755 -0.99985057
0.23929419 1.6813686 -1.0179086
0.24179974 1.6989735 -1.0464807
0.23723504 1.6669003 -1.0419036
0.2359449 1.6578352 -1.0565567
0.23582183 1.6569705 -1.0765392
0.2356675 1.6558862 -1.0965865
0.23548174 1.654581 -1.1166961
0.23060568 1.62032 -1.1143538
0.23964611 1.6838413 -1.1798933
0.24163818 1.6978383 -1.2120049
0.24376193 1.7127606 -1.2425503
0.24449925 1.7179413 -1.2694085
0.24538644 1.724175 -1.2945679
0.24266188 1.7050313 -1.3036808
0.24480797 1.7201105 -1.3331876
0.24426971 1.7163284 -1.3544552
0.2439107 1.7138059 -1.3738548
0.24221215 1.7018713 -1.3889087
0.24158336 1.6974531 -1.4102093
0.23984019 1.6852051 -1.4251177
0.24129605 1.6954345 -1.459376
0.24055687 1.6902406 -1.4808171
0.24083954 1.6922269 -1.5088952
0.24453956 1.7182244 -1.5695558
0.24620339 1.7299151 -1.6011488
0.24525575 1.7232568 -1.6231561
0.23993765 1.6858898 -1.6194769
0.23667248 1.6629475 -1.629169
0.23365745 1.6417629 -1.6367403
0.22741191 1.5978794 -1.6245508
0.22146852 1.556119 -1.6099521
0.21630579 1.5198437 -1.6036479
0.2102218 1.4770954 -1.5894641
0.20443815 1.4364573 -1.5730212
0.19468966 1.3679608 -1.5278674
0.18812391 1.3218275 -1.5024917
0.17655949 1.2405716 -1.4414953
0.16499572 1.1593204 -1.380164
0.066421866 0.4667044 -0.60883099
0.04639931 0.27876556 1.5341893
0.051399302 0.30880535 1.62003
0.057299729 0.34425491 1.7250522
0.05875038 0.35297036 1.6925899
0.061526857 0.36965138 1.6991681
0.064755268 0.38904756 1.7254995
0.068744279 0.4130134 1.7609072
0.071264654 0.42815575 1.7571864
0.074909762 0.45005542 1.772213
0.076599702 0.46020851 1.7488397
0.081724674 0.49099919 1.8025373
0.084628776 0.50844693 1.7975594
0.087667376 0.52670276 1.8025811
0.090246744 0.54219955 1.797853
0.093137741 0.55956852 1.7923751
0.095193222 0.57191783 1.7778493
0.096379913 0.57904738 1.7543987
0.097508401 0.58582729 1.7309531
0.1010775 0.6072703 1.7445648
0.10189366 0.61217386 1.710924
0.10548777 0.63376713 1.7241843
0.10764875 0.64675021 1.7192224
0.10950951 0.6579296 1.7041234
0.11224864 0.67438614 1.6974992
0.11625093 0.69843185 1.7199647
0.11840139 0.71135169 1.7145145
0.12054985 0.72425961 1.7089516
0.12268639 0.73709589 1.703302
0.12549174 0.7539503 1.7066666
0.12998463 0.78094345 1.7272034
0.13214375 0.79391533 1.7211149
0.13359325 0.80262393 1.7058862
0.13644369 0.8197493 1.7086235
0.14004302 0.84137392 1.7201389
0.14071183 0.84539205 1.6957335
0.14208429 0.85363781 1.6802424
0.14571001 0.87542105 1.6913033
0.14984149 0.90024281 1.7119318
0.15120237 0.90841889 1.696117
0.15381461 0.92411321 1.6988101
0.15513368 0.93203813 1.6828959
0.16131499 0.96917528 1.7190336
0.16593969 0.99696028 1.7374218
0.16895191 1.0150576 1.73825
0.1731334 1.0401798 1.7463249
0.18165539 1.0913798 1.7966613
0.18564312 1.1153378 1.80512
0.18733872 1.125525 1.7867563
0.19168305 1.1516255 1.7934928
0.19574091 1.1760051 1.8011934
0.20015042 1.2024972 1.8073019
0.20087235 1.2068346 1.7801126
0.2034152 1.2221119 1.7693684
0.20752892 1.246827 1.7761627
0.2129567 1.2794369 1.7893548
0.21648751 1.30065 1.7860131
0.21773762 1.3081605 1.7678819
0.22225563 1.3353046 1.7721354
0.22547492 1.354646 1.7696596
0.22768946 1.3679509 1.75911
0.23091197 1.3873117 1.7562876
0.23653182 1.4210755 1.7672004
0.23874296 1.43436 1.7561359
0.24230814 1.4557794 1.7510263
0.24587679 1.4772198 1.7456708
0.25344819 1.5227084 1.7718982
0.25379875 1.5248146 1.7433951
0.25958681 1.5595891 1.7521119
0.26066911 1.5660915 1.7326018
0.26618648 1.5992397 1.7424055
0.2658006 1.5969214 1.7172047
0.27248964 1.6371089 1.7336735
0.26923484 1.6175542 1.6833096
0.27308992 1.6407154 1.6742386
0.26964194 1.62 1.6244979
0.27107117 1.6285868 1.6013199
0.27482668 1.6511497 1.5919405
0.27257857 1.6376431 1.5481362
0.27748206 1.6671032 1.5452737
0.27629402 1.6599656 1.5085675
0.27721292 1.6654862 1.4872152
0.27710935 1.6648641 1.4575109
0.27543122 1.6547818 1.4233181
0.27518949 1.6533296 1.393977
0.27487603 1.6514463 1.3648326
0.27321655 1.6414762 1.3295897
0.27252793 1.6373391 1.3026701
0.27025342 1.6236737 1.2716315
0.27184156 1.6332153 1.2590115
0.26858959 1.6136775 1.2188127
0.2676754 1.6081852 1.192682
0.26537347 1.5943551 1.1609086
0.26836851 1.6123494 1.1525223
0.26595947 1.597876 1.1211414
0.26911455 1.6168315 1.1107805
0.26815417 1.6110617 1.083593
0.26950639 1.6191857 1.0710762
0.27222165 1.6354989 1.0639262
0.27234614 1.6362468 1.0440902
0.27225247 1.635684 1.0261172
0.27371231 1.6444547 1.0116079
0.27391633 1.6456804 0.99010384
0.27515104 1.6530985 0.97732151
0.27636689 1.6604033 0.96451145
0.27361202 1.6438521 0.93326658
0.27333415 1.6421827 0.91570973
0.27190566 1.6336005 0.88984096
0.27026418 1.6237385 0.86604303
0.2716459 1.6320398 0.84985566
0.27138627 1.6304799 0.83089399
0.2710931 1.6287185 0.81202495
0.27654085 1.6614485 0.81241262
0.27635014 1.6603026 0.79159701
0.27896559 1.6760162 0.78105557
0.28007406 1.6826758 0.76619881
0.28102753 1.6884043 0.75313634
0.28209591 1.6948231 0.73817104
0.28314281 1.7011129 0.72314948
0.27960929 1.6798836 0.69671345
0.27894932 1.6759185 0.67998862
0.27826571 1.6718113 0.66333634
0.27908829 1.6767533 0.65039068
0.27231696 1.6360714 0.61807269
0.27010521 1.6227834 0.59675545
0.27094996 1.6278586 0.5823766
0.26866809 1.6141491 0.56146252
0.2695609 1.6195133 0.54535651
0.26876941 1.6147579 0.52793914
0.26628989 1.599861 0.50944513
0.27006179 1.6225225 0.50287932
0.26919776 1.6173314 0.48566625
0.26988336 1.6214505 0.47133988
0.27213058 1.6349516 0.45965001
0.27119285 1.6293179 0.44258058
0.2750726 1.6526272 0.43134475
0.27408662 1.6467035 0.41429949
0.27626669 1.6598014 0.40203992
0.27683222 1.6631989 0.38734102
0.27731028 1.6660712 0.37444052
0.27777112 1.6688398 0.36154768
0.27660859 1.6618555 0.34658915
0.27381325 1.645061 0.32984912
0.27594587 1.657874 0.31529018
0.27477083 1.6508142 0.29885367
0.27518854 1.6533239 0.28423822
0.27229488 1.6359388 0.26825306
0.2726236 1.6379138 0.25556728
0.27293572 1.639789 0.2428956
0.27815321 1.6711355 0.23245803
0.27521867 1.6535048 0.21511953
0.27718294 1.665306 0.19981357
0.28072289 1.686574 0.18725103
0.28098047 1.6881217 0.17232347
0.28614992 1.7191794 0.158242
0.28475487 1.710798 0.14030288
0.28332937 1.7022337 0.12257623
0.27855918 1.6735746 0.10748418
0.28034201 1.6842858 0.093219794
0.2771982 1.6653978 0.075573206
0.27728495 1.6659191 0.06266477
0.27407303 1.6466219 0.049193017
0.27413309 1.6469828 0.034624152
0.27253053 1.6373545 0.019932577
0.27254757 1.637457 0.0072430936
0.27254757 1.637457 -0.0072430936
0.27088508 1.6274688 -0.021597832
0.27084383 1.627221 -0.03599456
0.27242306 1.6367089 -0.050693933
0.27234003 1.6362101 -0.065171294
0.27059633 1.6257339 -0.079163909
0.27376798 1.6447891 -0.092843592
0.27528203 1.6538855 -0.10621966
0.27350324 1.6431987 -0.11829595
0.27825722 1.6717603 -0.13338046
0.27805552 1.6705486 -0.14816476
0.27459294 1.6497453 -0.15918201
0.27275187 1.6386844 -0.1709387
0.27575999 1.6567571 -0.18764967
0.27392194 1.6457142 -0.19746283
0.27362859 1.6439518 -0.21201427
0.27010092 1.6227576 -0.22204381
0.27143973 1.6308011 -0.23602644
0.27600697 1.6582409 -0.25309521
0.27887657 1.6754814 -0.27090544
0.28014776 1.6831187 -0.28553236
0.28301653 1.7003541 -0.30198914
0.28585929 1.7174332 -0.31875923
0.2854518 1.7149851 -0.33202907
0.28335524 1.702389 -0.34522668
0.2812427 1.689697 -0.35822687
0.28078488 1.6869464 -0.37131092
0.28031173 1.6841037 -0.3843435
0.27975038 1.6807312 -0.39922744
0.28250754 1.6972961 -0.41506046
0.27719903 1.6654029 -0.42094409
0.27992168 1.6817604 -0.43695036
0.27468288 1.6502857 -0.44046137
0.27245727 1.6369145 -0.45241368
0.2718828 1.6334631 -0.46505705
0.27435967 1.6483442 -0.4850654
0.27216962 1.6351863 -0.49496421
0.27320203 1.641389 -0.50872678
0.2726495 1.6380694 -0.51960647
0.2719909 1.6341125 -0.53225678
0.27277666 1.6388333 -0.54983479
0.27518806 1.6533209 -0.56894785
0.27601823 1.6583086 -0.58500123
0.27847788 1.6730862 -0.60268807
0.27793315 1.6698134 -0.61194462
0.27407923 1.6466591 -0.61789507
0.27932245 1.6781602 -0.64665097
0.27838528 1.6725298 -0.66147238
0.27578104 1.6568836 -0.67437506
0.27189064 1.6335102 -0.67957336
0.27266937 1.6381888 -0.6942541
0.27179006 1.6329058 -0.70692915
0.27390686 1.6456234 -0.72752899
0.26235965 1.5762483 -0.71351868
0.25996238 1.5618457 -0.72156626
0.26933491 1.6181554 -0.76493907
0.2697106 1.6204125 -0.78353018
0.2730048 1.640204 -0.81098664
0.27477115 1.6508162 -0.83438993
0.27926263 1.6778009 -0.86896288
0.28237358 1.6964912 -0.89765388
0.28107667 1.6886996 -0.91262788
0.28247315 1.6970894 -0.93898684
0.28846481 1.7330873 -0.97636908
0.29008895 1.7428449 -0.99961984
0.28616118 1.7192471 -1.0012
0.28329927 1.7020528 -1.0113147
0.2860671 1.7186818 -1.0417286
0.2819488 1.6939392 -1.0445931
0.27923331 1.6776246 -1.0524279
0.27910334 1.6768439 -1.0725652
0.27893683 1.6758435 -1.0927684
0.2828528 1.6993705 -1.1294841
0.28143018 1.6908234 -1.1425906
0.27862871 1.6739922 -1.1500505
0.28415242 1.7071786 -1.1894531
0.27996272 1.682007 -1.1911649
0.28247571 1.6971049 -1.2215327
0.28071478 1.6865252 -1.2364998
0.28312728 1.7010195 -1.2672694
0.28021288 1.6835098 -1.2744313
0.28014648 1.683111 -1.2916098
0.28112391 1.6889832 -1.3167783
0.27946296 1.6790044 -1.3298287
0.28164774 1.6921304 -1.3614217
0.2773743 1.6664559 -1.3619429
0.27668157 1.6622939 -1.3829774
0.27846965 1.6730367 -1.4168638
0.28018144 1.6833209 -1.4510441
0.28057468 1.6856836 -1.4789687
0.27721292 1.6654862 -1.4872152
0.27968991 1.6803679 -1.530437
0.28447041 1.709089 -1.5876369
0.28218484 1.6953574 -1.6026962
0.27987778 1.6814966 -1.6176332
0.27636835 1.6604121 -1.6255006
0.27198011 1.6340477 -1.624289
0.26848024 1.6130207 -1.6316197
0.25921974 1.5573839 -1.6030785
0.2534875 1.5229447 -1.5952377
0.24779774 1.4887608 -1.5869113
0.24074659 1.4463978 -1.5724105
0.23293835 1.3994861 -1.5482824
0.22411938 1.3465021 -1.5160154
0.22384036 1.3448256 -1.544325
0.20818385 1.2507619 -1.4682827
0.18516998 1.1124952 -1.3381205
0.071268015 0.42817593 -0.56185961
0.053632982 0.28115395 1.5538584
0.060082488 0.31496343 1.6593035
0.065376192 0.34271401 1.7148682
0.068957016 0.36148533 1.7313212
0.07097429 0.37206027 1.708518
0.074186862 0.38890114 1.7148913
0.078300506 0.41046563 1.7405422
0.082050271 0.43012258 1.7562352
0.084202364 0.44140422 1.7533318
0.088028245 0.4614602 1.7686734
0.09240745 0.48441681 1.7934328
0.095699236 0.50167298 1.7885094
0.09915036 0.51976442 1.7935758
0.1026253 0.53798068 1.7984562
0.1059317 0.55531341 1.7929878
0.10885954 0.57066166 1.7879863
0.11118452 0.58284968 1.7733653
0.11382655 0.59669971 1.7580082
0.11446498 0.60004646 1.7250339
0.116927 0.61295277 1.7203246
0.11938783 0.62585288 1.7155042
0.12215304 0.64034867 1.7206488
0.12393135 0.6496709 1.7063026
0.12706244 0.66608465 1.710493
0.13055108 0.68437272 1.7029946
0.13407855 0.70286435 1.716859
0.13544907 0.71004885 1.702934
0.14050837 0.73657066 1.7348835
0.14187834 0.7437523 1.7207856
0.14398567 0.75479937 1.7157931
0.14834739 0.77766424 1.7272034
0.15001778 0.78642076 1.7120564
0.15488589 0.81194025 1.7329638
0.1565385 0.82060355 1.7176162
0.15947221 0.83598262 1.7210758
0.16073796 0.84261787 1.706534
0.16367991 0.85804015 1.7097883
0.16577329 0.86901402 1.7040346
0.16820936 0.88178432 1.6972219
0.17151876 0.89913285 1.6991296
0.17214507 0.90241605 1.6745481
0.17727461 0.92930609 1.6936835
0.18374947 0.96324849 1.7201129
0.18620804 0.97613674 1.7125664
0.19531961 1.0239012 1.7652129
0.2010991 1.0541984 1.7817477
0.20364545 1.0675468 1.7734915
0.21050957 1.1035298 1.7978619
0.2174686 1.1400104 1.8217255
0.22210346 1.1643071 1.8296063
0.22471775 1.1780117 1.8204918
0.22731298 1.1916164 1.8112921
0.22779171 1.194126 1.7854339
0.23353589 1.2242379 1.8007783
0.23755138 1.245288 1.7980064
0.23938932 1.2549227 1.7787528
0.24413967 1.279825 1.7850894
0.2481672 1.300938 1.7816771
0.25220209 1.3220897 1.778025
0.25395596 1.3312837 1.7582918
0.25992712 1.3625858 1.7715242
0.26245713 1.3758484 1.7608683
0.26650572 1.3970718 1.7563499
0.27019837 1.4164294 1.7531744
0.27270177 1.4295528 1.7421001
0.27918154 1.463521 1.7521883
0.2820361 1.4784849 1.7391199
0.29193544 1.5303792 1.772657
0.29482296 1.5455161 1.7589939
0.29642662 1.5539229 1.7378018
0.30272308 1.58693 1.7476876
0.30813718 1.6153116 1.7480904
0.30803797 1.6147915 1.7210349
0.30692229 1.608943 1.6851116
0.30869094 1.6182146 1.6618338
0.30640173 1.606214 1.6174654
0.3107101 1.6287994 1.6082822
0.30686212 1.6086276 1.557483
0.30834454 1.6163987 1.5344963
0.31115004 1.6311055 1.5182821
0.31253526 1.6383672 1.4952173
0.31526834 1.6526946 1.4787855
0.31229776 1.6371222 1.4360714
0.31177381 1.6343755 1.4085503
0.31002176 1.625191 1.3730043
0.30789801 1.614058 1.339558
0.30595785 1.6038872 1.304621
0.30513138 1.5995547 1.277975
0.30127305 1.5793287 1.2392963
0.30179405 1.5820597 1.219183
0.30076846 1.5766835 1.1931503
0.30095258 1.5776488 1.174969
0.30262685 1.5864255 1.1626568
0.30275065 1.5870744 1.1445247
0.30330372 1.5899738 1.1228936
0.29870886 1.5658866 1.087967
0.30381364 1.592647 1.083362
0.30400655 1.5936581 1.0636889
0.30752397 1.612097 1.0531249
0.30289105 1.5878104 1.0174552
0.30953643 1.6226467 1.0172535
0.30617225 1.6050111 0.98908937
0.31583494 1.6556648 1.0003111
0.30916527 1.6207011 0.96220827
0.31053144 1.6278627 0.94959629
0.31188259 1.6349458 0.93690002
0.30702224 1.6094669 0.90125114
0.30683461 1.6084833 0.88217562
0.30808929 1.6150607 0.86963212
0.30783561 1.6137308 0.85065287
0.30603954 1.6043155 0.82547647
0.30569807 1.6025254 0.80675977
0.31021667 1.6262127 0.802993
0.30966312 1.6233108 0.78604752
0.31078002 1.6291659 0.77339143
0.31544301 1.6536102 0.76718247
0.31653026 1.6593097 0.75432068
0.31946924 1.6747165 0.74354839
0.3155008 1.653913 0.71688974
0.31824806 1.6683148 0.70784456
0.31765759 1.6652193 0.68923014
0.31703058 1.6619325 0.67072499
0.31488395 1.6506795 0.64506233
0.30727512 1.6107925 0.61108881
0.30990228 1.6245646 0.60195547
0.31075355 1.6290271 0.58932394
0.30627745 1.6055627 0.56680024
0.30541694 1.6010517 0.54932123
0.30630356 1.6056995 0.53507674
0.30359516 1.5915015 0.51473582
0.3045266 1.5963844 0.49881917
0.30183703 1.5822852 0.47714579
0.30620822 1.6051997 0.46858349
0.30876845 1.6186209 0.45697764
0.31140399 1.6324369 0.4433707
0.31039014 1.627122 0.42453697
0.31098783 1.6302553 0.41189077
0.30974671 1.6237491 0.39685711
0.31213021 1.6362438 0.38649812
0.31465617 1.6494853 0.37227613
0.31525293 1.6526136 0.35760811
0.3103171 1.6267391 0.33693179
0.30901682 1.619923 0.32055911
0.30946597 1.6222775 0.30797184
0.31174272 1.6342125 0.29709572
0.30846405 1.6170253 0.2810325
0.30891186 1.6193727 0.26665631
0.30563152 1.6021764 0.24923874
0.30973685 1.6236974 0.23784412
0.31758881 1.6648587 0.22689798
0.31608838 1.6569933 0.21085857
0.31459919 1.6491867 0.19315962
0.32235637 1.6898514 0.18272595
0.32450789 1.7011299 0.16867593
0.32480279 1.7026758 0.151651
0.32319769 1.6942617 0.13386789
0.32342857 1.695472 0.11691333
0.3198663 1.6767979 0.10066907
0.31440437 1.6481655 0.084264033
0.31450099 1.6486719 0.073280573
0.31273618 1.6394204 0.058282159
0.31281036 1.6398094 0.04555111
0.30911958 1.6204616 0.032395594
0.30728707 1.6108552 0.017889271
0.3073037 1.6109424 0.0053811893
0.30730081 1.6109272 -0.0089304568
0.30353591 1.5911909 -0.019424003
0.30724612 1.6106405 -0.032199256
0.30718178 1.6103033 -0.046506789
0.31083909 1.6294755 -0.061552376
0.30701286 1.6094178 -0.071535796
0.31062669 1.6283622 -0.086877689
0.31236395 1.6374692 -0.10011816
0.31034186 1.6268691 -0.11218274
0.31201497 1.6356398 -0.12739424
0.31366181 1.6442728 -0.14277005
0.31158286 1.6333747 -0.15460715
0.31135231 1.6321659 -0.16731407
0.30920419 1.6209052 -0.18071902
0.31079799 1.6292601 -0.1944638
0.308651 1.6180053 -0.20589718
0.3101598 1.6259147 -0.22159043
0.30793065 1.6142291 -0.23461311
0.31314519 1.6415646 -0.25160643
0.3164227 1.6587459 -0.26933038
0.31602764 1.656675 -0.28223142
0.31930652 1.6738633 -0.29853782
0.32433462 1.7002217 -0.3188315
0.3257086 1.7074243 -0.33394054
0.32515013 1.7044967 -0.34909639
0.32464176 1.7018317 -0.36232087
0.32228214 1.6894621 -0.3734327
0.31808293 1.6674491 -0.38214725
0.31562155 1.654546 -0.39466485
0.315047 1.6515342 -0.4075295
0.3163586 1.6584098 -0.42094409
0.31384411 1.6452284 -0.43315741
0.31321591 1.6419353 -0.44591928
0.31076127 1.6290677 -0.45603293
0.30839187 1.6166469 -0.46416318
0.30781603 1.6136281 -0.47492486
0.30892441 1.6194384 -0.49029067
0.30821306 1.6157094 -0.50287932
0.30927312 1.6212664 -0.51840651
0.3104147 1.6272509 -0.53225678
0.31153551 1.6331263 -0.54620892
0.31063047 1.628382 -0.5606966
0.3099362 1.6247424 -0.57153445
0.30734211 1.6111438 -0.58082396
0.31014761 1.6258508 -0.59834588
0.31104076 1.6305327 -0.61442375
0.3100242 1.6252038 -0.62888587
0.30374706 1.5922978 -0.63239664
0.3132748 1.642244 -0.66700339
0.31043792 1.6273725 -0.67778105
0.30586171 1.6033833 -0.6844784
0.30473083 1.5974549 -0.69869661
0.30715531 1.6101645 -0.7191146
0.30596772 1.6039389 -0.73339176
0.29794663 1.561891 -0.73090661
0.30198053 1.5830373 -0.75577825
0.30427241 1.5950518 -0.77667755
0.30820349 1.6156594 -0.80221921
0.30872589 1.6183978 -0.81919289
0.31590059 1.6560088 -0.85436606
0.3176412 1.6651335 -0.88007647
0.31619 1.6575261 -0.89483583
0.3132503 1.6421156 -0.90295666
0.31668442 1.6601179 -0.93199766
0.32187885 1.687348 -0.96444321
0.32191539 1.6875395 -0.98436826
0.3172586 1.6631278 -0.98739702
0.31744963 1.6641293 -1.0053852
0.31760427 1.66494 -1.0234756
0.31591862 1.6561034 -1.0382278
0.31442562 1.6482769 -1.0510565
0.31427425 1.6474833 -1.0710417
0.31273088 1.6393926 -1.0838317
0.31273648 1.6394221 -1.1020395
0.31426024 1.6474099 -1.1259135
0.31264201 1.6389267 -1.1386721
0.3158612 1.6558024 -1.1666406
0.31853575 1.6698229 -1.1985935
0.31376329 1.6448048 -1.1999041
0.31935698 1.6741279 -1.2439481
0.3158069 1.6555177 -1.2528077
0.31673434 1.6603795 -1.2795386
0.31489646 1.650745 -1.2923934
0.31598917 1.6564733 -1.3175156
0.3158356 1.6556683 -1.3347324
0.31218225 1.6365166 -1.3431141
0.31142259 1.6325344 -1.3639456
0.31349456 1.643396 -1.3976303
0.31119725 1.631353 -1.4121768
0.31342459 1.6430292 -1.4444098
0.31386572 1.6453416 -1.4721546
0.31749332 1.6643583 -1.5256178
0.32189414 1.6874282 -1.5741252
0.31826329 1.6683946 -1.5803696
0.32007629 1.6778988 -1.6139104
0.31472358 1.6498387 -1.6148936
0.31207094 1.6359332 -1.6294891
0.30508167 1.5992942 -1.6245563
0.29452455 1.5439517 -1.5959537
0.2866911 1.5028872 -1.5808662
0.27860713 1.4605098 -1.5668087
0.27060822 1.4185779 -1.5520335
0.26394877 1.3836679 -1.5439864
0.25641087 1.3441529 -1.5264359
0.24462719 1.2823806 -1.4886428
0.2318095 1.2151879 -1.4420758
0.14017527 0.73482454 -0.95104355
0.034980111 0.18337217 -0.25990584
0.058100246 0.26986423 1.5556984
0.061702859 0.28659764 1.5627395
0.071474567 0.33198532 1.726927
0.073795453 0.34276536 1.7043082
0.078249186 0.36345208 1.7305143
0.081424624 0.37820137 1.7272041
0.084593862 0.39292184 1.7237623
0.089739852 0.41682398 1.7590635
0.093367003 0.43367139 1.7547967
0.096719071 0.44924107 1.7610303
0.10255544 0.47634983 1.7950413
0.10641754 0.49428856 1.8003483
0.11089365 0.5150792 1.8150747
0.11543187 0.53615832 1.8295654
0.11754397 0.54596859 1.8056029
0.11917108 0.55352628 1.7822196
0.12243994 0.56870943 1.7772107
0.12569946 0.58384925 1.7720665
0.12825984 0.59574169 1.7573392
0.13006884 0.60414422 1.7331163
0.13284719 0.61704904 1.7283524
0.13562413 0.62994736 1.7234769
0.13838683 0.64277959 1.7185119
0.14114778 0.65560365 1.7134355
0.14585781 0.67748088 1.726078
0.14584155 0.67740536 1.6937392
0.149368 0.69378501 1.6976311
0.15413775 0.71593946 1.7097579
0.1577276 0.73261368 1.7132715
0.16179644 0.75151259 1.7266009
0.16583431 0.77026778 1.7289264
0.16860488 0.78313655 1.7228667
0.1727743 0.80250263 1.7356666
0.17464745 0.81120306 1.7203337
0.17926161 0.83263493 1.731902
0.18109968 0.8411724 1.7164009
0.18441571 0.85657471 1.7196426
0.1829095 0.84957868 1.6783504
0.19011749 0.88305837 1.716876
0.1914863 0.88941622 1.702108
0.19220051 0.89273357 1.6775535
0.19795515 0.91946274 1.6967622
0.19925582 0.92550409 1.6818559
0.20653079 0.95929497 1.7082149
0.21351601 0.99173993 1.7352127
0.21953002 1.0196738 1.7531891
0.22342788 1.0377785 1.7537377
0.23286475 1.081611 1.7966613
0.23868071 1.1086249 1.8148229
0.24200489 1.124065 1.8048577
0.2494726 1.1587512 1.8296063
0.25125122 1.1670125 1.8121409
0.25339687 1.1769786 1.793352
0.25786936 1.1977526 1.791031
0.26314008 1.2222339 1.7980549
0.26521593 1.2318759 1.7789161
0.26601011 1.2355646 1.7516332
0.27544904 1.2794067 1.7808274
0.27704695 1.2868286 1.7627584
0.283685 1.3176609 1.7765676
0.28653508 1.3308991 1.7662121
0.2919572 1.3560838 1.7715242
0.29388782 1.365051 1.7515323
0.29709363 1.3799416 1.7392805
0.30389965 1.4115542 1.7515877
0.30710521 1.4264433 1.7389209
0.31165427 1.4475728 1.7337255
0.32132366 1.4924853 1.7601531
0.32593718 1.5139141 1.7542602
0.33015507 1.5335054 1.7498168
0.34003854 1.5794122 1.7747763
0.33859807 1.5727215 1.7403444
0.34282237 1.5923426 1.735315
0.34124804 1.5850301 1.7010965
0.3450461 1.6026713 1.697642
0.34410363 1.5982938 1.6601053
0.34006277 1.5795248 1.6086824
0.34487343 1.6018693 1.5997428
0.34968558 1.6242208 1.59048
0.34527934 1.6037546 1.5398874
0.34689867 1.611276 1.5169215
0.34688842 1.6112286 1.4872831
0.34994754 1.6254375 1.4710165
0.3481977 1.6173098 1.4349799
0.3463383 1.6086733 1.3992211
0.34759355 1.6145036 1.3766106
0.34716398 1.6125084 1.3476623
0.34470168 1.6010716 1.3144393
0.33883843 1.5738379 1.2691426
0.33283564 1.5459561 1.2244346
0.33646548 1.562816 1.2183994
0.33363542 1.5496708 1.1864264
0.33553454 1.5584921 1.1742738
0.33570573 1.5592871 1.1562116
0.33584273 1.5599234 1.1381778
0.33300009 1.5467199 1.1052911
0.33848917 1.5722157 1.1027526
0.33551106 1.558383 1.0701752
0.34073195 1.5826329 1.0690066
0.34067678 1.5823767 1.0511533
0.3405804 1.581929 1.0333952
0.33913133 1.5751984 1.0068465
0.34432444 1.5993193 1.0049967
0.34615719 1.6078321 0.99068213
0.34592989 1.6067764 0.97298634
0.34930101 1.6224345 0.9654507
0.34536222 1.6041396 0.93784916
0.34523526 1.6035498 0.91860795
0.34116739 1.5846554 0.89161211
0.34093907 1.5835949 0.87268984
0.34252894 1.5909796 0.85852069
0.34241679 1.5904586 0.83790928
0.34018379 1.5800868 0.81467819
0.3397795 1.5782089 0.79611963
0.3470968 1.6121963 0.79325074
0.34663594 1.6100558 0.77457339
0.3501344 1.6263055 0.76251978
0.3496007 1.6238265 0.74388629
0.352882 1.6390675 0.73337036
0.35227993 1.636271 0.71478397
0.35357934 1.6423066 0.70015055
0.354693 1.6474792 0.68731731
0.35383362 1.6434876 0.67070895
0.35097843 1.6302258 0.65059811
0.34218213 1.5893687 0.62001479
0.34316748 1.5939455 0.60759687
0.34017947 1.5800667 0.58827466
0.33939281 1.5764128 0.56906515
0.33830842 1.5713761 0.55346584
0.33918706 1.5754572 0.54119027
0.3400479 1.5794556 0.52885497
0.33888173 1.574039 0.51347864
0.34170803 1.5871667 0.50412065
0.33646309 1.5628049 0.48304582
0.33924982 1.5757487 0.4736304
0.34223634 1.5896205 0.46052256
0.34306914 1.5934887 0.44631529
0.34601095 1.6071529 0.4328233
0.34261692 1.5913882 0.4153277
0.34550372 1.6047969 0.40168917
0.34827703 1.6176784 0.38964066
0.34701136 1.6117995 0.37119478
0.34767991 1.6149048 0.35679293
0.34832197 1.6178871 0.34236392
0.34694806 1.6115055 0.32415619
0.34546158 1.6046011 0.30791497
0.34394202 1.5975431 0.29182184
0.34238982 1.5903335 0.27587828
0.34294289 1.5929023 0.25990865
0.34132594 1.5853919 0.24419075
0.34598294 1.6070228 0.23102735
0.35056752 1.6283172 0.219284
0.35100335 1.6303415 0.20293599
0.34931439 1.6224967 0.18542896
0.35801631 1.6629155 0.17503305
0.35832417 1.6643454 0.16018239
