# .PCD v0.7 - Point Cloud Data file format
VERSION 0.7
FIELDS x y z
SIZE 4 4 4
TYPE F F F
COUNT 1 1 1
WIDTH 1502
HEIGHT 1
VIEWPOINT 0 0 0 1 0 0 0
POINTS 1502
DATA ascii
0.12482536 1.7629756 -0.54665887
0.12515657 1.7676533 -0.56509942
0.12408762 1.752556 -0.57935303
0.12640098 1.7852287 -0.60752058
0.125403 1.7711339 -0.61786646
0.1244005 1.7569751 -0.62806302
0.12467182 1.760807 -0.64685053
0.12559041 1.7737807 -0.6692751
0.12649074 1.7864966 -0.69197541
0.12474632 1.7618592 -0.70020741
0.12502007 1.7657255 -0.7174145
0.12332406 1.7417718 -0.72327167
0.1235813 1.745405 -0.74046564
0.12441622 1.757197 -0.76366168
0.12129941 1.7131766 -0.76466489
0.12006105 1.6956866 -0.7791869
0.12027761 1.6987451 -0.79636562
0.1197822 1.6917483 -0.81119657
0.11940467 1.6864161 -0.82227927
0.11952574 1.6881261 -0.84145355
0.1208915 1.7074155 -0.86978018
0.119724 1.6909262 -0.88007647
0.12167288 1.7184513 -0.91357583
0.12110518 1.7104335 -0.92857474
0.12183723 1.7207725 -0.95131367
0.12124626 1.7124261 -0.96633142
0.12125849 1.7125987 -0.98625666
0.12491128 1.7641889 -1.0365976
0.12608619 1.7807828 -1.067387
0.12611094 1.7811326 -1.0861689
0.12552083 1.7727981 -1.0997871
0.1213384 1.7137272 -1.081349
0.11964545 1.6898168 -1.0818059
0.11965021 1.6898839 -1.1001709
0.11964347 1.6897888 -1.1185701
0.11953546 1.6882634 -1.1388932
0.11891708 1.6795297 -1.1517981
0.11762324 1.6612561 -1.1607295
0.11872355 1.6767963 -1.1907388
0.11913063 1.6825457 -1.2170652
0.12406713 1.7522666 -1.2909566
0.12722486 1.7968649 -1.3481804
0.12751254 1.8009281 -1.3759718
0.12610167 1.7810016 -1.3855439
0.1274596 1.8001804 -1.4258698
0.12723686 1.7970344 -1.4458833
0.12634087 1.7843798 -1.4615493
0.12597828 1.7792587 -1.4834985
0.12667631 1.7891173 -1.5183914
0.12639025 1.7850773 -1.5385462
0.12661992 1.788321 -1.5653355
0.12565035 1.7746271 -1.5809208
0.1267665 1.7903913 -1.6232157
0.12549274 1.7724012 -1.6281724
0.12448447 1.7581609 -1.6436161
0.12256979 1.7311189 -1.6432602
0.12116989 1.7113472 -1.6495479
0.11876169 1.677335 -1.6416281
0.11737031 1.6576838 -1.6473944
0.11473338 1.6204411 -1.642287
0.1128577 1.5939498 -1.6403315
0.10976455 1.5502636 -1.6270016
0.10730751 1.5155615 -1.6186286
0.10582696 1.4946508 -1.6244751
0.10374703 1.4652749 -1.6242863
0.10227284 1.4444542 -1.6295681
0.099406533 1.4039718 -1.6120117
0.097489506 1.3768965 -1.609053
0.092397638 1.3049815 -1.5522197
0.090536579 1.2786967 -1.5481725
0.086671658 1.2241102 -1.5154346
0.023595208 0.33324778 -0.44943205
0.027129326 0.28699827 1.6246217
0.030539012 0.32306901 1.7298248
0.032684777 0.34576884 1.7661754
0.033565085 0.35508153 1.7336928
0.035580594 0.37640339 1.759845
0.036842719 0.38975525 1.7569102
0.03828416 0.40500408 1.7534269
0.040568788 0.42917296 1.7785007
0.041386843 0.43782705 1.7557604
0.042413112 0.44868386 1.7426658
0.043968741 0.4651407 1.7590085
0.044732984 0.47322556 1.7361039
0.04615704 0.48829046 1.7318897
0.048106216 0.5089106 1.7467386
0.049811069 0.52694607 1.7517838
0.051069859 0.5402627 1.7476865
0.052608721 0.55654216 1.753024
0.053979117 0.57103944 1.758835
0.054944251 0.58124948 1.7449155
0.056500502 0.59771287 1.7498705
0.057445519 0.60771012 1.7357962
0.059149437 0.6257357 1.7505873
0.060079474 0.63557446 1.736357
0.061326869 0.64877051 1.731426
0.062906049 0.66547644 1.7357373
0.063629851 0.67313349 1.7220169
0.064866826 0.68621933 1.7167979
0.066454478 0.70301497 1.7207422
0.068594821 0.7256574 1.7329501
0.070582487 0.74668473 1.7457033
0.072190501 0.76369572 1.7382628
0.074182801 0.78477204 1.7397499
0.076796301 0.81241995 1.7600216
0.076977879 0.81434089 1.7149121
0.079208389 0.83793724 1.7256845
0.079955868 0.84584469 1.6994569
0.083239801 0.88058507 1.7266271
0.085266858 0.90202916 1.7267232
0.086681664 0.91699624 1.7187507
0.088541612 0.93667245 1.71942
0.090587139 0.95831186 1.7188171
0.093572967 0.98989862 1.7353227
0.093569599 0.98986298 1.7006811
0.098639704 1.0434991 1.7617831
0.099106379 1.0484359 1.7354711
0.10169572 1.0758284 1.7420537
0.10078216 1.0661639 1.6891233
0.10471964 1.107818 1.7217064
0.10941519 1.1574918 1.7607785
0.11033165 1.167187 1.742269
0.11157972 1.1803902 1.7211417
0.11587322 1.2258106 1.7503033
0.11858127 1.2544588 1.7543863
0.12057316 1.2755308 1.7513946
0.12274995 1.2985588 1.7467333
0.12321553 1.3034841 1.7179486
0.12692949 1.3427737 1.7380586
0.12969902 1.3720723 1.740401
0.13189073 1.3952582 1.7345775
0.13306412 1.4076713 1.7114775
0.13645978 1.4435937 1.7204406
0.13926834 1.4733051 1.7213007
0.14289084 1.5116271 1.7275895
0.14510964 1.5350996 1.7200327
0.14715095 1.5566944 1.7138988
0.15129015 1.6004827 1.7277634
0.15417613 1.6310132 1.726391
0.15493432 1.6390338 1.7048353
0.15865842 1.6784307 1.708127
0.16223034 1.7162178 1.7126523
0.16363066 1.7310317 1.6975437
0.16756064 1.7726064 1.7119257
0.16896017 1.7874118 1.6963229
0.16948386 1.7929518 1.6757681
0.17015907 1.800095 1.6532404
0.16854602 1.7830306 1.6126047
0.17040274 1.8026726 1.6055324
0.16958608 1.7940333 1.5699635
0.16785347 1.7757044 1.5300978
0.167509 1.7720602 1.5035436
0.16858578 1.7834512 1.4898928
0.16907415 1.7886176 1.4678763
0.16807137 1.7780094 1.4333647
0.16909531 1.7888415 1.4197017
0.16936886 1.7917354 1.3997852
0.16737974 1.7706926 1.3617017
0.16999604 1.7983701 1.3581481
0.16883361 1.7860731 1.3245143
0.1674975 1.7719384 1.2931275
0.16702078 1.7668953 1.2659324
0.16728316 1.7696711 1.2446609
0.16829896 1.7804171 1.2291015
0.16930194 1.7910274 1.2134486
0.16938381 1.7918935 1.1941637
0.16720328 1.7688259 1.156589
0.16814674 1.7788067 1.1410404
0.16736871 1.770576 1.1167132
0.1673646 1.7705325 1.0978633
0.16825983 1.7800031 1.082302
0.16752367 1.7722152 1.0564511
0.1682788 1.7802037 1.0428121
0.16575626 1.7535181 1.0092568
0.16411704 1.7361768 0.97916061
0.16491491 1.7446175 0.96390498
0.16477552 1.7431428 0.9457283
0.16544953 1.7502732 0.93234652
0.16611543 1.7573178 0.91887975
0.16677015 1.7642438 0.9053902
0.16816506 1.7790005 0.89826375
0.1645862 1.7411401 0.86246294
0.16596064 1.7556801 0.85536212
0.16478512 1.7432444 0.83519155
0.16273987 1.721608 0.81097549
0.16417231 1.7367616 0.80193943
0.16380511 1.732877 0.78638738
0.16702758 1.7669673 0.78328061
0.16680023 1.7645621 0.76380497
0.16742115 1.7711308 0.74830878
0.16628808 1.7591441 0.72516221
0.16593158 1.7553728 0.7079075
0.16387758 1.7336437 0.68155986
0.16341528 1.7287531 0.6665644
0.16565122 1.7524068 0.66032577
0.16612142 1.7573811 0.64685053
0.16474482 1.7428182 0.62852508
0.16430305 1.7381446 0.61184776
0.16651937 1.7615908 0.60495359
0.16510351 1.7466127 0.5870136
0.16552004 1.7510191 0.57361573
0.16497321 1.7452344 0.55905372
0.16632511 1.7595358 0.54668975
0.16401008 1.7350453 0.52451718
0.16533807 1.7490941 0.51208711
0.16575232 1.7534764 0.49673602
0.16615395 1.7577252 0.48134711
0.1655848 1.7517042 0.46531051
0.16504876 1.7460335 0.44746616
0.16536584 1.749388 0.43404609
0.16388489 1.733721 0.41406894
0.16417733 1.7368147 0.40077484
0.16625777 1.7588234 0.39369848
0.16469596 1.7423012 0.37598088
0.1658826 1.7548547 0.36464795
0.16702645 1.7669553 0.35506523
0.16542864 1.7500522 0.33771387
0.16566622 1.7525656 0.32429686
0.16589469 1.7549825 0.31083024
0.16335911 1.7281588 0.29048377
0.16635086 1.7598083 0.2819615
0.1647149 1.7425016 0.26354733
0.16396804 1.7346008 0.24874642
0.1632092 1.7265729 0.23411261
0.16526261 1.7482959 0.22147204
0.16356884 1.7303777 0.20380977
0.16653679 1.7617753 0.19186823
0.16384268 1.7332745 0.17724355
0.16491903 1.7446612 0.16296986
0.16692212 1.7658516 0.149349
0.16422316 1.7372996 0.13160871
0.16337411 1.7283176 0.11758913
0.16438237 1.7389839 0.10683494
0.16445427 1.7397444 0.093509458
0.16451673 1.7404053 0.080148019
0.16362908 1.7310148 0.066430628
0.16368261 1.7315812 0.049342569
0.16277936 1.7220258 0.03209459
0.16467975 1.7421298 0.01908916
0.16468915 1.7422293 0.0038179047
0.16656686 1.7620934 -0.013499816
0.16654944 1.761909 -0.02894482
0.16558294 1.7516845 -0.042232912
0.16366079 1.7313503 -0.056931205
0.1673689 1.770578 -0.073762663
0.16353337 1.7300024 -0.089153901
0.1672115 1.7689129 -0.10671277
0.16428837 1.7379894 -0.12207383
0.16416779 1.7367138 -0.13919118
0.16404723 1.7354383 -0.15440893
0.16393135 1.7342125 -0.16773006
0.16380619 1.7328885 -0.18101102
0.16458645 1.7411427 -0.19731475
0.16724265 1.7692423 -0.21426955
0.16708398 1.7675639 -0.22781751
0.16686524 1.76525 -0.24525209
0.16386434 1.7335037 -0.2563464
0.16550721 1.7508835 -0.27461714
0.16527538 1.748431 -0.28995395
0.16506246 1.7461784 -0.30334026
0.16576548 1.7536155 -0.31851894
0.16549759 1.7507815 -0.33387801
0.16617632 1.7579619 -0.3492212
0.16499846 1.7455014 -0.36069453
0.16469596 1.7423012 -0.37598088
0.16442131 1.7393957 -0.38931772
0.16413642 1.7363819 -0.4026624
0.16471457 1.7424982 -0.42020166
0.16623493 1.7585819 -0.43835583
0.16591471 1.7551943 -0.45184636
0.16462778 1.74158 -0.46464711
0.16701251 1.7668078 -0.48589811
0.16660711 1.7625191 -0.50136644
0.16443458 1.7395362 -0.50928879
0.1649657 1.7451549 -0.52547204
0.16542694 1.7500342 -0.54370397
0.16587073 1.754729 -0.56206125
0.16534297 1.749146 -0.57935303
0.16396976 1.7346188 -0.59144861
0.16265166 1.7206748 -0.60143381
0.16310064 1.7254246 -0.61798716
0.1652378 1.7480333 -0.64340979
0.16300891 1.7244542 -0.6497584
0.16415589 1.7365878 -0.6739552
0.16016646 1.6943841 -0.67253929
0.16484109 1.7438366 -0.70990229
0.16338275 1.7284091 -0.72132391
0.16285905 1.7228689 -0.7345745
0.16311263 1.7255514 -0.75363576
0.16334723 1.7280331 -0.77279961
0.15741122 1.6652367 -0.76668656
0.15941378 1.6864216 -0.79212964
0.15867358 1.6785913 -0.80873615
0.15808849 1.6724015 -0.8215723
0.15917724 1.6839193 -0.84331387
0.15847862 1.6765287 -0.85804206
0.1595286 1.6876363 -0.88007647
0.1588908 1.680889 -0.89300931
0.15815137 1.6730667 -0.90770906
0.16152032 1.7087065 -0.94648468
0.1590967 1.6830673 -0.95161575
0.15830915 1.6747358 -0.96633232
0.15913333 1.6834549 -0.99108845
0.16488336 1.7442837 -1.0449344
0.16643098 1.7606559 -1.075775
0.16245118 1.718554 -1.0682143
0.15997593 1.6923686 -1.0725652
0.15682529 1.6590383 -1.0692978
0.15447517 1.6341766 -1.0710762
0.15762286 1.6674757 -1.1112064
0.15681885 1.6589701 -1.1239778
0.15600753 1.6503873 -1.1366545
0.15506813 1.6404494 -1.1510775
0.15411691 1.6303867 -1.1654129
0.15620181 1.6524425 -1.2031355
0.15760484 1.6672851 -1.2335807
0.16561957 1.752072 -1.3201567
0.16677268 1.7642707 -1.353675
0.16565463 1.752443 -1.3690881
0.16747507 1.7717013 -1.409229
0.16704404 1.7671413 -1.4309814
0.16658996 1.7623378 -1.4527606
0.16539055 1.7496494 -1.468153
0.16417855 1.7368277 -1.4834335
0.16667035 1.7631881 -1.5293752
0.1661149 1.7573121 -1.5513736
0.16483453 1.7437671 -1.5667182
0.16648902 1.7612699 -1.6069567
0.16602252 1.7563349 -1.627183
0.16416021 1.7366335 -1.6337856
0.16230081 1.7169633 -1.640151
0.15976222 1.6901077 -1.6393938
0.15656501 1.6562848 -1.6312903
0.15521938 1.6420494 -1.6457462
0.1512205 1.5997459 -1.6315776
0.1479114 1.5647392 -1.6239808
0.14332935 1.5162661 -1.6014037
0.1432939 1.5158912 -1.6292455
0.14067735 1.4882109 -1.6277403
0.13870475 1.467343 -1.633299
0.13406982 1.4183105 -1.6102548
0.12965527 1.3716096 -1.5848901
0.12773758 1.3513224 -1.5892484
0.12324377 1.3037829 -1.5641487
0.11896545 1.258523 -1.5369017
0.10956256 1.1590508 -1.4505851
0.019476503 0.20603989 -0.28225562
0.035526238 0.30015969 1.7033913
0.041019492 0.34657192 1.7250522
0.043030415 0.36356214 1.7317249
0.045340814 0.3830826 1.7581786
0.046654988 0.39418599 1.7454343
0.048714127 0.41158357 1.7516352
0.049782459 0.42060986 1.7391691
0.05207799 0.44000474 1.7446157
0.053566199 0.45257851 1.7310122
0.055424336 0.46827784 1.7371367
0.057521798 0.4859992 1.7425832
0.059412286 0.5019719 1.7483977
0.060756013 0.51332498 1.7450519
0.061633795 0.52074128 1.7219262
0.063530155 0.53676361 1.727411
0.065574311 0.55403453 1.7428843
0.067727566 0.5722273 1.7474464
0.068915524 0.5822643 1.7335279
0.070856191 0.59866095 1.7384431
0.072192013 0.60994726 1.7344604
0.074370295 0.62835139 1.7384313
0.076150559 0.6433928 1.7328435
0.077925026 0.65838522 1.7271237
0.079693563 0.67332751 1.7212725
0.08211562 0.69379139 1.723807
0.085459024 0.72203964 1.7445502
0.086783528 0.73323035 1.7289424
0.089244805 0.75402558 1.7307746
0.091979794 0.77713335 1.742327
0.094479695 0.79825491 1.7436349
0.095763162 0.80909884 1.7275094
0.097818486 0.82646424 1.7302568
0.097514696 0.82389748 1.687034
0.10104549 0.85372907 1.7055898
0.10332923 0.87302428 1.7069129
0.10562334 0.89240712 1.7080262
0.10792756 0.91187531 1.708928
0.11272483 0.9524073 1.7436495
0.11415663 0.96450448 1.7254273
0.11709297 0.98931354 1.7342284
0.11686457 0.98738378 1.7006811
0.12221682 1.0326047 1.7434709
0.12438953 1.0509619 1.7440202
0.12599747 1.0645473 1.7238804
0.12964894 1.0953984 1.739797
0.13228755 1.1176919 1.7372867
0.13471209 1.1381767 1.7357438
0.1373675 1.1606122 1.7326885
0.14047097 1.1868331 1.7389063
0.14314416 1.2094189 1.7352855
0.14491858 1.2244109 1.7245917
0.14828925 1.2528895 1.728548
0.15238157 1.2874653 1.7401474
0.15317865 1.2941998 1.709995
0.15803261 1.3352108 1.728681
0.16001797 1.351985 1.7154099
0.16442981 1.3892604 1.7237512
0.16491346 1.3933468 1.6945171
0.16989291 1.4354179 1.7112311
0.17361318 1.4668503 1.7104995
0.17768882 1.5012852 1.7200782
0.17866272 1.5095137 1.6993669
0.18299328 1.5461024 1.7065114
0.18655318 1.5761799 1.7058003
0.19255963 1.6269281 1.726391
0.19476159 1.6455324 1.7084178
0.19920149 1.683045 1.7134113
0.20367496 1.7208409 1.717796
0.20374529 1.7214352 1.6886529
0.20694947 1.7485073 1.6892289
0.20760687 1.7540616 1.6688521
0.20737593 1.7521104 1.6417078
0.20797838 1.7572005 1.6214164
0.20942587 1.7694302 1.6078736
0.21086444 1.7815846 1.5942059
0.20806468 1.7579296 1.5456043
0.2094442 1.769585 1.5320581
0.20741601 1.7524492 1.4906377
0.20603828 1.7408086 1.4579209
0.20752582 1.7533768 1.4425682
0.20624758 1.7425771 1.4083278
0.20399208 1.7235204 1.3681977
0.20817573 1.7588679 1.3713667
0.20846424 1.7613055 1.3517566
0.20591177 1.7397398 1.3141561
0.20613828 1.7416534 1.2948166
0.20634477 1.7433981 1.275494
0.20573139 1.7382158 1.2485113
0.20604134 1.7408345 1.2274536
0.20632383 1.7432213 1.2064453
0.20447823 1.7276279 1.1762187
0.20650782 1.7447758 1.1684229
0.20656562 1.7452641 1.1495147
0.20363829 1.7205312 1.1144074
0.20647655 1.7445116 1.1137533
0.20533538 1.7348698 1.0916337
0.20644724 1.7442639 1.076347
0.20452091 1.7279884 1.0455273
0.20329796 1.7176558 1.023928
0.20217802 1.7081934 1.0006495
0.20294346 1.7146606 0.98936999
0.20370021 1.7210543 0.97804809
0.2013661 1.7013335 0.95211118
0.2022157 1.7085118 0.93898684
0.20086296 1.6970825 0.91824013
0.20260403 1.7117928 0.9117111
0.20225847 1.7088732 0.89579231
0.20410231 1.7244517 0.88719136
0.20268013 1.7124357 0.86682451
0.20439619 1.7269347 0.85995269
0.19976848 1.6878353 0.82668281
0.20262717 1.7119883 0.82227618
0.20112707 1.699314 0.80248362
0.20184061 1.7053427 0.7894091
0.202544 1.7112856 0.77625865
0.20323399 1.7171153 0.76309294
0.20175588 1.7046269 0.74191767
0.20241512 1.7101967 0.72880411
0.20188603 1.7057264 0.71368027
0.20252137 1.7110945 0.70052904
0.20095915 1.6978952 0.67997599
0.20257291 1.7115299 0.67240584
0.20317116 1.7165844 0.65921116
0.20155343 1.7029164 0.63902426
0.2042488 1.7256894 0.63464838
0.20149177 1.7023954 0.61126989
0.20314397 1.7163547 0.60146397
0.20248973 1.7108271 0.58691448
0.20301116 1.7152326 0.57372767
0.20233032 1.7094803 0.55932075
0.20289631 1.7142622 0.54427749
0.20344685 1.7189137 0.52919281
0.20166212 1.7038347 0.51027429
0.20437297 1.7267386 0.50269824
0.20475532 1.7299689 0.49130723
0.20298348 1.7149987 0.47082588
0.20226334 1.7089143 0.45508391
0.20374735 1.7214526 0.44630468
0.20300195 1.7151548 0.43062097
0.20109688 1.699059 0.41274536
0.20141008 1.7017052 0.40153864
0.2006676 1.6954319 0.38437331
0.19990534 1.6889915 0.36734894
0.2013803 1.7014536 0.35637307
0.20169392 1.7041034 0.3432951
0.2031077 1.7160484 0.33395413
0.20224614 1.708769 0.31891218
0.20599803 1.7404685 0.31102106
0.2039538 1.723197 0.29427016
0.20192687 1.7060715 0.27594468
0.20333026 1.7179286 0.26434413
0.20239863 1.7100574 0.24967717
0.20381165 1.7219959 0.23598912
0.20168565 1.7040335 0.2202111
0.20304453 1.7155147 0.20828436
0.2020326 1.7069649 0.19584157
0.20337109 1.7182736 0.18378216
0.20353028 1.7196186 0.17054982
0.20367725 1.7208604 0.15733775
0.20265943 1.7122608 0.1413925
0.2039527 1.7231876 0.12894878
0.20173147 1.7044206 0.11249338
0.20418614 1.72516 0.098645449
0.20545357 1.7358685 0.083961725
0.20436597 1.7266793 0.066430628
0.20442632 1.7271893 0.051254999
0.20211622 1.7076713 0.037521601
0.20331922 1.7178354 0.024547057
0.20333776 1.7179921 0.007548525
0.20333669 1.717983 -0.009420543
0.20214701 1.7079314 -0.022514105
0.20328639 1.717558 -0.039611325
0.2055876 1.7370008 -0.055335164
0.2043394 1.7264549 -0.07210508
0.20777933 1.7555188 -0.088778175
0.20766699 1.7545695 -0.10611326
0.20285985 1.7139542 -0.11878102
0.2027472 1.7130023 -0.13197127
0.20258529 1.7116345 -0.14888434
0.20242487 1.7102791 -0.16391957
0.20107996 1.698916 -0.17790797
0.20322575 1.7170457 -0.19507255
0.20187762 1.7056553 -0.20708732
0.20518355 1.733587 -0.22399934
0.20378152 1.7217413 -0.23786537
0.20356183 1.7198852 -0.25111207
0.2033308 1.7179333 -0.26431394
0.20305195 1.7155772 -0.27940011
0.20163615 1.7036152 -0.29092619
0.20252678 1.71114 -0.30574906
0.20336092 1.7181877 -0.32260695
0.20537268 1.7351849 -0.33964002
0.20160612 1.7033615 -0.34700808
0.20469239 1.7294372 -0.36816815
0.20550367 1.7362918 -0.38361338
0.20390598 1.722793 -0.3985056
0.20348948 1.7192739 -0.41362935
0.20425296 1.7257246 -0.42925
0.20386222 1.7224232 -0.4424915
0.20340058 1.7185229 -0.45761037
0.20298348 1.7149987 -0.47082588
0.20255549 1.7113827 -0.48398381
0.20318015 1.7166604 -0.50179178
0.20384958 1.7223164 -0.51785272
0.20324275 1.7171894 -0.53483927
0.20268643 1.712489 -0.54990858
0.20323133 1.7170929 -0.56805724
0.20256546 1.7114669 -0.58501983
0.20195769 1.706332 -0.60003698
0.20346782 1.7190909 -0.62364036
0.20392269 1.7229341 -0.64219433
0.20215754 1.7080204 -0.65375704
0.20476429 1.7300447 -0.6796447
0.2051506 1.7333087 -0.69853711
0.20116419 1.6996276 -0.70235234
0.20151956 1.7026303 -0.72113812
0.19861339 1.678076 -0.72815764
0.20118083 1.6997682 -0.75313634
0.19825736 1.6750679 -0.75982988
0.19680735 1.662817 -0.80988055
0.19712809 1.6655267 -0.82707983
0.19627225 1.6582959 -0.8416841
0.19738114 1.6676648 -0.86719936
0.19763637 1.6698213 -0.88466758
0.1987922 1.6795869 -0.90877378
0.19373058 1.6368214 -0.90425891
0.19894877 1.6809096 -0.94792521
0.19694845 1.6640091 -0.95769787
0.19392799 1.6384892 -0.96220827
0.19899441 1.6812953 -1.0072473
0.20525849 1.7342201 -1.0544901
0.20631021 1.7431062 -1.0782471
0.20121202 1.7000318 -1.0722899
0.19812328 1.6739352 -1.0764239
0.19307142 1.6312522 -1.0692706
0.19014478 1.6065251 -1.0707577
0.19405511 1.6395633 -1.1109792
0.1931963 1.6323073 -1.1217611
0.19218275 1.6237438 -1.1342936
0.19116031 1.6151053 -1.1467314
0.19188614 1.6212379 -1.1725475
0.19272576 1.6283318 -1.1967841
0.19243421 1.6258683 -1.2170132
0.20165482 1.703773 -1.2957596
0.20590836 1.7397109 -1.3472593
0.20729491 1.751426 -1.380991
0.20512816 1.7331191 -1.3882077
0.20735022 1.7518933 -1.4285573
0.20497012 1.7317839 -1.4375368
0.20348784 1.7192601 -1.4527
0.20467135 1.7292596 -1.487236
0.20668638 1.7462844 -1.5286175
0.20599091 1.7404084 -1.5505309
0.2037206 1.7212267 -1.5571694
0.20492044 1.731364 -1.5905931
0.20693754 1.7484064 -1.6310279
0.20589817 1.7396249 -1.6551167
0.19952624 1.6857886 -1.6250557
0.19785182 1.6716416 -1.6398076
0.19699709 1.66442 -1.6614747
0.19032054 1.6080101 -1.6334263
0.1888507 1.5955915 -1.6457288
0.18612809 1.5725883 -1.6542134
0.18200825 1.5377799 -1.6461184
0.17871723 1.5099741 -1.6448824
0.17523359 1.4805411 -1.6448985
0.17119463 1.4464161 -1.6354427
0.16486652 1.3929502 -1.6029376
0.16168357 1.3660576 -1.5999516
0.15548556 1.3136908 -1.566059
0.15162154 1.2810439 -1.5544573
0.15036023 1.2703871 -1.5762006
0.080757104 0.68231332 -0.9221859
0.049662512 0.34894699 1.7039278
0.052648075 0.36992466 1.730111
0.055701744 0.39138085 1.7560519
0.057858828 0.40653732 1.7525352
0.061011698 0.42869052 1.7780331
0.062237356 0.43730247 1.7552757
0.064121865 0.4505437 1.7518559
0.066273466 0.46566164 1.7478178
0.067883871 0.47697693 1.744702
0.070413418 0.49475047 1.7500468
0.073758647 0.51825529 1.7743932
0.075667717 0.53166908 1.7703396
0.076729447 0.5391292 1.7470982
0.079736739 0.56025958 1.7613209
0.081013992 0.56923395 1.7373283
0.084055804 0.59060687 1.7511762
0.086671792 0.60898775 1.7553409
0.08882682 0.62412977 1.7499062
0.090485975 0.63578761 1.7349601
0.092851281 0.65240711 1.7393515
0.094986416 0.66740936 1.7335347
0.096325926 0.67682123 1.7190504
0.10056432 0.70660168 1.7500573
0.10108197 0.71023887 1.7160836
0.1045654 0.73471481 1.7273275
0.10892488 0.76534611 1.7465625
0.11048677 0.77632046 1.7306412
0.11287327 0.79308891 1.7228667
0.11464654 0.80554855 1.7058862
0.11797503 0.8289358 1.7166966
0.12133875 0.85257053 1.7272233
0.12217854 0.85847116 1.7018225
0.12713251 0.89327949 1.7286958
0.12925322 0.90818048 1.7207562
0.13162938 0.92487621 1.7116593
0.1355183 0.95220119 1.7307073
0.13930093 0.97877938 1.7385587
0.14240548 1.0005931 1.7374218
0.14552449 1.0225084 1.7360009
0.14791672 1.039317 1.725787
0.15151855 1.0646248 1.7335559
0.15262949 1.0724307 1.7168275
0.15804897 1.1105099 1.739738
0.16226627 1.1401422 1.7440886
0.16597784 1.166221 1.7505655
0.16892077 1.1868992 1.7484668
0.17133337 1.203851 1.7366023
0.17536411 1.2321724 1.7408614
0.17776586 1.249048 1.728548
0.18098804 1.2716882 1.7241092
0.1867778 1.3123692 1.7432444
0.18917806 1.3292344 1.7301583
0.19357783 1.3601487 1.7310758
0.19507845 1.3706926 1.7097211
0.20012422 1.406146 1.7191869
0.20275465 1.4246284 1.7035917
0.20667876 1.4522007 1.7061352
0.21114908 1.4836107 1.7050557
0.21444006 1.5067345 1.6976945
0.22057913 1.5498698 1.7122058
0.22512172 1.5817876 1.7096398
0.23331061 1.6393259 1.7372901
0.23543787 1.6542727 1.7227741
0.23780748 1.6709225 1.7063017
0.24416102 1.7155648 1.717796
0.24573994 1.7266587 1.7064177
0.24681306 1.7341989 1.6842023
0.24785034 1.7414873 1.6619844
0.24988446 1.7557796 1.6465708
0.24877681 1.7479969 1.6108124
0.2476005 1.7397317 1.5753182
0.24506103 1.7218885 1.5353974
0.2437464 1.7126515 1.5005041
0.2453555 1.7239575 1.487236
0.24586825 1.7275604 1.4674753
0.24440454 1.7172759 1.4330841
0.24506329 1.7219045 1.4115909
0.25009486 1.7572579 1.4150608
0.24960653 1.7538269 1.387187
0.24774548 1.7407506 1.3552896
0.24603218 1.7287122 1.3217875
0.24538644 1.724175 1.2945679
0.24583076 1.7272969 1.2734256
0.24738717 1.7382329 1.2581518
0.24739148 1.7382631 1.2408621
0.24659237 1.7326483 1.2140931
0.24788994 1.7417654 1.2007097
0.24449663 1.7179228 1.1649302
0.24356639 1.7113867 1.138741
0.24241801 1.7033178 1.1146489
0.24361153 1.7117039 1.1014642
0.2434288 1.7104199 1.084807
0.24442399 1.7174124 1.0734764
0.24420571 1.7158787 1.0568935
0.23929168 1.6813509 1.0179383
0.24022529 1.6879109 1.0068012
0.24236652 1.702956 1.0006495
0.24083906 1.6922234 0.97942656
0.23820342 1.6737045 0.95161575
0.23537883 1.6538579 0.92598635
0.23870133 1.6772029 0.92461455
0.24079007 1.6918792 0.91824013
0.24052362 1.690007 0.90051353
0.23634686 1.6606596 0.87089026
0.2434186 1.7103482 0.88264167
0.23932379 1.6815766 0.85148346
0.24149626 1.6968412 0.8429172
0.24125375 1.6951371 0.82359368
0.23958503 1.6834122 0.8019492
0.24043988 1.6894187 0.78895712
0.24152058 1.6970121 0.77215147
0.24222748 1.701979 0.76091617
0.24045265 1.6895083 0.73982704
0.2412425 1.6950581 0.72675991
0.24060696 1.6905926 0.7116915
0.24006012 1.6867503 0.69487023
0.24080156 1.6919599 0.6818257
0.24283993 1.7062823 0.67240584
0.24102332 1.6935182 0.65023386
0.23907495 1.6798282 0.63017511
0.23842065 1.6752309 0.61380559
0.24040301 1.6891596 0.60419041
0.24095505 1.6930385 0.5930106
0.24301025 1.707479 0.58125854
0.2423766 1.7030268 0.56307495
0.24163227 1.6977968 0.54690033
0.24237779 1.7030351 0.53002322
0.23889132 1.6785378 0.50827307
0.24356663 1.7113883 0.50182194
0.24274392 1.7056077 0.48587841
0.24190003 1.6996782 0.47008356
0.2396757 1.6840492 0.45181155
0.24015427 1.6874119 0.43882471
0.24205223 1.7007476 0.42634308
0.23839413 1.6750444 0.40619493
0.2416303 1.697783 0.39591387
0.23935668 1.6818076 0.37660491
0.23843241 1.6753135 0.35968724
0.24019243 1.68768 0.34877482
0.24056108 1.6902703 0.33573321
0.24373445 1.7125674 0.32450917
0.23996297 1.6860677 0.30412757
0.24167174 1.6980741 0.29281229
0.24054615 1.6901653 0.27996197
0.24088122 1.6925197 0.26505339
0.24259217 1.7045414 0.25157043
0.24010038 1.6870333 0.23381743
0.24170803 1.6983291 0.22395416
0.24057549 1.6903715 0.2077678
0.24502218 1.7216156 0.196224
0.24385267 1.7133982 0.18000688
0.24123439 1.6950011 0.16485469
0.24138124 1.696033 0.15364569
0.2429654 1.7071639 0.13949655
0.24172232 1.6984295 0.12372416
0.24327143 1.7093141 0.10938095
0.24480358 1.7200795 0.094855234
0.24208346 1.7009671 0.080663256
0.24075535 1.6916353 0.067134283
0.24364544 1.7119421 0.052831627
0.2451098 1.7222313 0.037957899
0.24232936 1.7026948 0.022514105
0.24234882 1.7028315 0.0056436867
0.24657349 1.7325157 -0.0095294509
0.24373071 1.7125412 -0.026418895
0.24509755 1.7221451 -0.041752994
0.24080344 1.6919731 -0.057799004
0.24072319 1.6914093 -0.072710656
0.24063784 1.6908096 -0.085768744
0.24613364 1.7294251 -0.10491424
0.2431839 1.7086991 -0.11878102
0.24162379 1.6977373 -0.13306415
0.2414279 1.6963608 -0.14990787
0.24123439 1.6950011 -0.16485469
0.24099495 1.6933187 -0.18163988
0.24073184 1.69147 -0.19843739
0.24327493 1.7093388 -0.21581994
0.24024241 1.6880312 -0.22635022
0.24414021 1.7154185 -0.24542804
0.24104252 1.693653 -0.25756159
0.24075805 1.6916542 -0.27063161
0.24041612 1.6892517 -0.28553236
0.24010228 1.6870465 -0.29853782
0.24115968 1.6944762 -0.31335655
0.24486527 1.720513 -0.33582127
0.23891889 1.6787316 -0.34304228
0.24124508 1.6950762 -0.36196306
0.23947188 1.6826171 -0.37289792
0.24318597 1.7087137 -0.39250234
0.23995179 1.6859891 -0.40294373
0.24361667 1.7117399 -0.42308089
0.2390568 1.6797006 -0.42890298
0.24260925 1.7046614 -0.45129848
0.23939565 1.6820815 -0.45922932
0.24160989 1.6976396 -0.47754014
0.24101351 1.6934493 -0.49248573
0.2430999 1.7081089 -0.5130949
0.24237779 1.7030351 -0.53002322
0.24180114 1.6989833 -0.54312778
0.2410375 1.6936178 -0.55996406
0.24167503 1.6980972 -0.5780648
0.2396238 1.6836846 -0.58973432
0.24021672 1.6878506 -0.60791129
0.23936501 1.6818662 -0.62460428
0.24122421 1.6949297 -0.64647055
0.24173392 1.698511 -0.66499996
0.24221632 1.7019006 -0.68364149
0.23614778 1.6592607 -0.68351156
0.23670523 1.6631776 -0.70015055
0.23594593 1.6578425 -0.71294308
0.23646326 1.6614774 -0.72971082
0.23696002 1.6649679 -0.74654669
0.23346747 1.6404281 -0.75292021
0.23102002 1.6232313 -0.76671368
0.23006849 1.6165454 -0.78099245
0.23163092 1.6275237 -0.80399859
0.22836119 1.6045494 -0.80583644
0.22987394 1.6151785 -0.82900923
0.23509848 1.651888 -0.86625326
0.23277959 1.6355946 -0.87609577
0.23417149 1.6453748 -0.90000319
0.23072758 1.6211765 -0.90302366
0.23466487 1.6488414 -0.93506932
0.23120423 1.6245257 -0.93784916
0.23354612 1.6409806 -0.96904022
0.23249553 1.6335987 -0.98168272
0.23625533 1.6600165 -1.0149525
0.23875453 1.6775768 -1.0434715
0.24256678 1.704363 -1.0757362
0.23664695 1.6627681 -1.0673802
0.23075686 1.6213822 -1.0584757
0.22709331 1.5956408 -1.0617247
0.22594571 1.5875773 -1.0739864
0.22827633 1.6039531 -1.1030977
0.22691129 1.5943618 -1.1171937
0.22667962 1.5927341 -1.136976
0.22641651 1.5908853 -1.1568143
0.22630395 1.5900944 -1.1749409
0.22598056 1.5878222 -1.1948864
0.24134046 1.6957464 -1.2994995
0.24307854 1.7079588 -1.3327376
0.2403231 1.6885982 -1.3415593
0.24306373 1.7078549 -1.3813949
0.24354017 1.7112024 -1.4090332
0.24288267 1.7065825 -1.4304489
0.24219097 1.7017225 -1.4518899
0.24360183 1.7116356 -1.4863921
0.24282528 1.7061794 -1.5080079
0.24517076 1.7226596 -1.549592
0.24116805 1.694535 -1.5512862
0.24443004 1.7174549 -1.6000632
0.24068113 1.6911137 -1.6139104
0.23893972 1.6788779 -1.6268916
0.23667575 1.6629705 -1.6434761
0.23264897 1.6346768 -1.6439605
0.22691198 1.5943667 -1.6280681
0.2219552 1.5595385 -1.6205479
0.21995415 1.5454785 -1.6342328
0.21479136 1.5092028 -1.6275969
0.2104165 1.4784634 -1.6155095
0.20911992 1.4693531 -1.6374891
0.20453534 1.4371401 -1.6264051
0.19949409 1.4017186 -1.6179886
0.19382268 1.3618692 -1.5999516
0.18730187 1.3160516 -1.5736983
0.1815196 1.2754232 -1.5558748
0.16759011 1.1775495 -1.4688059
0.08057832 0.56617284 -0.77107424
0.051151648 0.30731747 1.6508602
0.063920848 0.3840344 1.7471496
0.066421703 0.39905944 1.7436857
0.068917498 0.41405407 1.7400889
0.072122142 0.4333075 1.7455782
0.073893145 0.44394764 1.7324983
0.077652611 0.46653438 1.7574743
0.079286769 0.47635236 1.7340133
0.081148431 0.48753715 1.7308155
0.083781324 0.5033555 1.7365811
0.085953526 0.516406 1.7326387
0.088298731 0.53049588 1.7387286
0.092100665 0.55333781 1.7524083
0.094607972 0.56840163 1.7474464
0.096580319 0.58025146 1.7328821
0.09928713 0.59651387 1.7377898
0.10177322 0.6114502 1.7324464
0.10481815 0.62974405 1.736357
0.10725844 0.64440525 1.7415044
0.10826432 0.6504485 1.717788
0.11252666 0.6760565 1.7398808
0.1143939 0.68727487 1.735358
0.11750095 0.70594186 1.738459
0.11901525 0.71503973 1.7129371
0.12277105 0.7376045 1.7248962
0.12688354 0.76231217 1.7357364
0.1283742 0.77126801 1.7206875
0.13391954 0.80458421 1.749174
0.1343001 0.80687058 1.7149121
0.13633406 0.8190906 1.6978232
0.14053819 0.84434891 1.7074612
0.14372784 0.86351222 1.7088268
0.14830869 0.89103383 1.716876
0.15309434 0.91978586 1.7353548
0.15447485 0.92807996 1.71942
0.15964811 0.95916069 1.7362671
0.16243659 0.97591376 1.7266461
0.16573298 0.99571836 1.7265798
0.17219166 1.0345219 1.7497755
0.17267318 1.0374149 1.7246317
0.17544229 1.0540516 1.7142332
0.18172811 1.0918165 1.7373863
0.18421048 1.1067306 1.7276614
0.189707 1.1397535 1.7415721
0.19342861 1.1621128 1.7384129
0.19840226 1.1919943 1.7418915
0.20214698 1.2144924 1.7381152
0.20397916 1.2255002 1.7178305
0.20997347 1.2615138 1.7282922
0.21670476 1.3019552 1.7475846
0.21819951 1.3109355 1.7280732
0.22300419 1.3398019 1.7306646
0.22855003 1.3731211 1.7421834
0.23341955 1.4023771 1.7439477
0.23307219 1.4002901 1.7068288
0.23899634 1.4358823 1.715699
0.24528228 1.473648 1.7223816
0.25022504 1.5033439 1.7225982
0.25958681 1.5595891 1.7521119
0.26270935 1.5783492 1.7347615
0.26887029 1.6153641 1.7408066
0.27135426 1.6302876 1.7264498
0.27641547 1.6606951 1.7244669
0.2823472 1.6963328 1.7309924
0.28278908 1.6989877 1.699962
0.28639257 1.7206373 1.6918293
0.28731558 1.7261828 1.671569
0.28969964 1.7405061 1.6562345
0.28844103 1.7329444 1.6204337
0.29046646 1.745113 1.6069567
0.28540823 1.7147235 1.5515043
0.2861096 1.7189372 1.5315993
0.28456521 1.7096586 1.4967265
0.28419495 1.7074341 1.4686055
0.28502715 1.7124338 1.4470419
0.28327864 1.701929 1.4128308
0.28273347 1.6986536 1.3851851
0.28703812 1.7245157 1.3843969
0.28253067 1.6974351 1.3383911
0.28289479 1.6996228 1.3191487
0.28214943 1.6951447 1.2920434
0.28134814 1.6903305 1.265119
0.28159949 1.6918406 1.2461047
0.28715861 1.7252396 1.2504352
0.28200525 1.6942785 1.2082605
0.28237462 1.6964976 1.187544
0.27977905 1.6809036 1.1575348
0.28122374 1.6895831 1.1444746
0.28381866 1.7051733 1.138741
0.28090531 1.68767 1.1110636
0.27952093 1.6793526 1.0872178
0.27828518 1.6719284 1.0617028
0.27942011 1.6787471 1.0505869
0.27773765 1.6686388 1.0290316
0.28183949 1.6932826 1.0263336
0.2774542 1.6669358 0.99294716
0.28153616 1.6914601 0.99000001
0.27562711 1.6559588 0.9522239
0.27824849 1.6717079 0.9442302
0.27510184 1.6528029 0.91687596
0.27479827 1.6509792 0.89930737
0.27752936 1.6673874 0.88932371
0.27556306 1.655574 0.86904538
0.27810705 1.670858 0.86074954
0.27755749 1.6675563 0.84517318
0.27551308 1.6552737 0.82526451
0.27506202 1.6525637 0.80806816
0.27740794 1.6666579 0.80137157
0.27677509 1.6628559 0.78606999
0.27910644 1.6768624 0.7791869
0.2770786 1.6646793 0.75800419
0.27488303 1.6514883 0.73886776
0.27894685 1.6759036 0.73214465
0.27683213 1.6631985 0.71136123
0.27632257 1.6601371 0.69281381
0.27882835 1.6751916 0.68182671
0.2766175 1.661909 0.6615445
0.27590692 1.6576399 0.64506233
0.27824396 1.6716806 0.63573915
0.27605975 1.6585581 0.61406517
0.27682242 1.6631402 0.60119402
0.27922451 1.6775718 0.58973432
0.27684426 1.6632714 0.57033801
0.27765089 1.6681176 0.55560201
0.27843639 1.6728368 0.5408237
0.27753904 1.6674455 0.52487856
0.27661654 1.6619033 0.50907826
0.27873245 1.6746155 0.50087041
0.27619642 1.6593791 0.48236537
0.27679244 1.6629599 0.46952111
0.27578866 1.6569294 0.45401081
0.27642867 1.6607745 0.43933535
0.275379 1.6544681 0.42403051
0.2806876 1.686362 0.41832718
0.27641004 1.6606627 0.39836803
0.27523202 1.6535851 0.38510206
0.27410439 1.6468103 0.37011173
0.27623022 1.6595823 0.35760811
0.27506146 1.6525604 0.34276146
0.27715346 1.6651289 0.33004776
0.27750218 1.6672242 0.31899258
0.28112578 1.6889945 0.30962178
0.2783224 1.6721519 0.29128113
0.27700949 1.6642641 0.27855125
0.27577585 1.6568524 0.2622748
0.27776548 1.6688061 0.24906383
0.27811176 1.6708864 0.23429111
0.2799854 1.6821432 0.22450505
0.27866676 1.6742209 0.20839658
0.28058606 1.6857519 0.19470952
0.28088614 1.6875547 0.17793784
0.27946696 1.6790284 0.16389623
0.28132674 1.690202 0.14990787
0.27823296 1.6716146 0.13524386
0.27839458 1.6725856 0.12228551
0.28019777 1.6834191 0.10811643
0.27868569 1.6743345 0.094541065
0.2787962 1.6749985 0.081562817
0.27891415 1.6757071 0.06490349
0.28228781 1.695976 0.048775412
0.28070539 1.6864688 0.033573613
0.27910417 1.6768488 0.016704278
0.28075933 1.686793 0.0018802428
0.28239062 1.6965938 -0.015009641
0.28071675 1.6865371 -0.029843615
0.27736419 1.6663951 -0.047924679
0.28383633 1.7052796 -0.066018671
0.28207615 1.6947044 -0.082522377
0.28030795 1.6840811 -0.096944667
0.28179672 1.6930256 -0.11249338
0.27669036 1.6623467 -0.127067
0.27813384 1.6710191 -0.14260712
0.2762557 1.6597352 -0.15830891
0.27765161 1.6681218 -0.17400946
0.27905753 1.6765686 -0.18800165
0.28200087 1.6942521 -0.20708732
0.28006515 1.6826223 -0.22078416
0.2781539 1.6711396 -0.23242845
0.27781028 1.6690751 -0.24720348
0.27906799 1.6766315 -0.26349163
0.27710861 1.6648595 -0.2748698
0.27988833 1.68156 -0.29481947
0.27778417 1.6689183 -0.30975473
0.28055453 1.6855625 -0.32828051
0.2784031 1.6726367 -0.34304228
0.27790099 1.6696202 -0.35782635
0.27744374 1.6668731 -0.37075484
0.27857238 1.673654 -0.38584974
0.27641121 1.6606694 -0.39833865
0.27590317 1.6576172 -0.41119659
0.2785638 1.6736022 -0.42890298
0.27785838 1.6693642 -0.44555342
0.27712747 1.664973 -0.46213135
0.27645481 1.6609315 -0.47684309
0.2804884 1.6851652 -0.49994454
0.27495477 1.6519194 -0.50799817
0.27891731 1.6757262 -0.53155142
0.27960992 1.6798874 -0.55126822
0.27880943 1.675078 -0.56610847
0.27643469 1.6608107 -0.57766038
0.27714482 1.6650771 -0.5956586
0.27638909 1.6605366 -0.60854495
0.27715877 1.6651609 -0.62483776
0.27778769 1.6689395 -0.64309794
0.27555978 1.6555543 -0.65054345
0.27931416 1.6781104 -0.67441028
0.27529529 1.6539652 -0.68169761
0.27430809 1.6480341 -0.69630361
0.27644947 1.6608994 -0.71686035
0.27554163 1.6554452 -0.72971082
0.27311918 1.6408912 -0.73843205
0.27653512 1.6614141 -0.76533103
0.28584966 1.7173754 -0.80951321
0.26526481 1.5937024 -0.77061486
0.26562628 1.5958742 -0.78906804
0.26742435 1.6066768 -0.81208003
0.26771355 1.6084143 -0.83080262
0.26942569 1.6187009 -0.85423493
0.26979867 1.6209416 -0.87141079
0.26869705 1.6143233 -0.88394701
0.2702958 1.6239285 -0.90785265
0.26771945 1.6084497 -0.91548669
0.2694135 1.6186275 -0.93784916
0.26947781 1.619014 -0.95717055
0.2666851 1.6022354 -0.96634394
0.2680977 1.6107223 -0.99085695
0.27802601 1.6703713 -1.0453044
0.27809638 1.6707941 -1.0635363
0.27537268 1.6544303 -1.0710417
0.27283791 1.6392013 -1.0765587
0.27284983 1.6392729 -1.0947317
0.27147099 1.630989 -1.1073745
0.27143034 1.6307446 -1.1256099
0.27021495 1.6234426 -1.1364057
0.2741597 1.6471425 -1.1719035
0.26733413 1.6061348 -1.1614059
0.27097309 1.6279976 -1.1990819
0.27320424 1.6414022 -1.2312832
0.27798596 1.6701306 -1.2758478
0.27898753 1.6761481 -1.3008819
0.27993864 1.6818622 -1.3261123
0.28036168 1.6844039 -1.3552052
0.2822406 1.6956924 -1.3889087
0.27693108 1.6637928 -1.3811235
0.28124768 1.6897269 -1.4278034
0.27919123 1.6773719 -1.4426974
0.27959886 1.6798209 -1.470553
0.27748123 1.6670983 -1.4853578
0.27996165 1.6820005 -1.5285927
0.28139964 1.69064 -1.5636338
0.28184229 1.6932994 -1.5902522
0.27716374 1.6651908 -1.5914521
0.27871627 1.6745182 -1.6250557
0.27373612 1.6445978 -1.6276568
0.26702109 1.6042541 -1.6121937
0.2670128 1.6042043 -1.6405282
0.26265672 1.5780331 -1.6385734
0.25659442 1.5416108 -1.6325426
0.25199559 1.5139813 -1.631551
0.24964835 1.4998791 -1.6448824
0.24257685 1.4573939 -1.6300796
0.23615067 1.4187856 -1.6114839
0.22813798 1.3706456 -1.5878865
0.222643 1.3376319 -1.5772035
0.22037475 1.3240043 -1.5889769
0.21570636 1.2959569 -1.5866842
0.20637599 1.2399002 -1.555653
0.061618499 0.37020195 -0.50601745
0.0698741 0.36629286 1.6995727
0.074320696 0.38960272 1.7352482
0.078022242 0.40900689 1.7511784
0.080075338 0.41976961 1.7382408
0.084304273 0.44193846 1.7635144
0.087184742 0.45703843 1.7595211
0.090058573 0.47210357 1.7553939
0.092414968 0.48445621 1.7415113
0.095785439 0.50212485 1.7467386
0.098638043 0.51707876 1.7422112
0.10298736 0.53987867 1.7769425
0.10361189 0.54315257 1.7339694
0.10761302 0.56412721 1.7480789
0.10866626 0.5696485 1.7145822
0.11173303 0.58572507 1.719547
0.11669689 0.61174655 1.7526402
0.11792226 0.61817014 1.7290344
0.12004022 0.62927288 1.7248785
0.12250186 0.64217722 1.7199423
0.12667169 0.66403621 1.7328042
0.13019656 0.68251431 1.736123
0.13445328 0.7048288 1.7484962
0.13550471 0.71034056 1.7245158
0.14089237 0.73858368 1.7448907
0.14333987 0.75141394 1.7282739
0.14925382 0.78241593 1.7579672
0.14975815 0.78505969 1.7237325
0.15291907 0.80162984 1.7158104
0.15771371 0.82676429 1.7256845
0.15885735 0.83275938 1.7003753
0.16232342 0.8509292 1.6910264
0.16855781 0.88361096 1.7188426
0.17436413 0.91404879 1.736379
0.1771968 0.92889816 1.7281926
0.18184355 0.95325726 1.7373352
0.18710564 0.98084217 1.7559443
0.19091026 1.0007867 1.755813
0.19377409 1.0157993 1.7468553
0.19794571 1.0376678 1.7451829
0.20114942 1.0544622 1.7347186
0.20297846 1.0640503 1.7168275
0.21054402 1.1037104 1.7385036
0.21579418 1.1312327 1.7440886
0.22109066 1.1589978 1.7492692
0.22394262 1.1739484 1.7389063
0.22928074 1.2019317 1.7434708
0.23103313 1.2111181 1.7245917
0.23972085 1.2566607 1.75278
0.24181134 1.2676195 1.7321283
0.24725731 1.2961682 1.7352843
0.25043479 1.3128251 1.7222581
0.25626984 1.3434136 1.7232428
0.2579003 1.3519607 1.703464
0.26459998 1.3870816 1.7130066
0.26859546 1.4080266 1.7082791
0.27415922 1.4371929 1.7093312
0.27729324 1.4536221 1.6948721
0.28254348 1.4811448 1.6968439
0.28599498 1.4992381 1.6802951
0.3005304 1.5754356 1.7312666
0.30112979 1.5785776 1.7008861
0.30979508 1.6240027 1.7120287
0.31424162 1.6473122 1.7028549
0.32099339 1.6827062 1.7093457
0.32377627 1.6972947 1.6943316
0.32349801 1.6958359 1.6671801
0.32451347 1.7011592 1.6470727
0.32308733 1.6936831 1.611413
0.32985041 1.7291363 1.6165972
0.3265973 1.7120831 1.5762632
0.32744122 1.7165071 1.5562731
0.32402569 1.6986021 1.5164953
0.32649311 1.7115368 1.5013474
0.32148516 1.6852843 1.4556663
0.32212284 1.6886271 1.4360973
0.32301041 1.6932799 1.4146971
0.31919283 1.6732674 1.3763691
0.31996357 1.6773078 1.355235
0.32364529 1.6966081 1.3464304
0.32285899 1.692486 1.3191487
0.32350603 1.695878 1.298053
0.31933084 1.6739908 1.2610244
0.32112375 1.6833897 1.2479899
0.32290202 1.6927117 1.2348527
0.32159463 1.6858581 1.2101485
0.32177907 1.686825 1.1912932
0.31882912 1.6713609 1.1612498
0.31892747 1.6718764 1.142635
0.32078376 1.6816074 1.1277386
0.31924093 1.6735195 1.1037743
0.31923231 1.6734744 1.0853453
0.32214347 1.6887351 1.0794894
0.31708685 1.6622274 1.0471658
0.31356484 1.6437644 1.0204488
0.31822851 1.6682123 1.0179383
0.31624314 1.6578045 0.9966315
0.31907833 1.672667 0.99059266
0.31053144 1.6278627 0.94959629
0.31514838 1.6520656 0.94671047
0.31302491 1.6409341 0.92598635
0.31250906 1.6382298 0.91024232
0.31196806 1.6353939 0.89457417
0.31323749 1.6420484 0.88185006
0.31597528 1.6564004 0.87549818
0.31370494 1.6444989 0.85534346
0.31642142 1.6587391 0.84885925
0.31762809 1.6650648 0.83592564
0.31696051 1.6615652 0.82044935
0.31626865 1.6579382 0.80505574
0.31385615 1.6452916 0.78549987
0.31683204 1.6608918 0.77502012
0.31451184 1.6487288 0.75390685
0.31573266 1.6551285 0.73923105
0.31333902 1.6425807 0.7184338
0.31795794 1.6667939 0.71154815
0.31910935 1.6728299 0.69671345
0.31661648 1.6597618 0.67627287
0.31583104 1.6556442 0.65969163
0.31838265 1.6690203 0.65222967
0.3157967 1.6554642 0.63222677
0.31669307 1.6601633 0.61932498
0.31568226 1.6548643 0.60487092
0.31123242 1.6315376 0.58208221
0.3174935 1.6643593 0.57724005
0.3183111 1.6686451 0.56427062
0.31910828 1.6728241 0.5512979
0.31999758 1.6774861 0.53641576
0.31907001 1.6726236 0.51857936
0.31980354 1.6764688 0.50554729
0.31871608 1.6707681 0.48974866
0.31589454 1.6559772 0.46952111
0.31474897 1.6499718 0.45401081
0.3191056 1.6728101 0.44438517
0.31428143 1.6475209 0.42403051
0.31851986 1.6697396 0.4159503
0.31736398 1.6636802 0.39880869
0.31792471 1.6666197 0.38587937
0.31488216 1.6506701 0.36679354
0.31356466 1.6437634 0.35187903
0.31773162 1.6656075 0.34307188
0.31644073 1.6588404 0.32636425
0.31696236 1.6615748 0.31161487
0.3192448 1.6735399 0.30041134
0.31787577 1.6663631 0.28388187
0.31827223 1.6684415 0.27093506
0.31679842 1.6607155 0.25644314
0.31901041 1.6723111 0.24496521
0.32120869 1.6838348 0.2332921
0.32157791 1.6857705 0.21832421
0.31629884 1.6580966 0.20166975
0.3184014 1.6691185 0.19173887
0.32056656 1.6804688 0.17793784
0.31711456 1.6623727 0.16110657
0.31736591 1.6636904 0.1463321
0.31756625 1.6647406 0.13338046
0.32340428 1.6953447 0.11881115
0.3198244 1.6765782 0.10439301
0.31998292 1.6774092 0.089494482
0.32387626 1.6978188 0.07359124
0.32211152 1.6885676 0.058167014
0.32407632 1.6988677 0.041513033
0.31850556 1.6696645 0.027829777
0.3185361 1.6698247 0.01483511
0.31854805 1.6698873 -0.0018395766
0.31853291 1.669808 -0.016674608
0.32036701 1.6794226 -0.031693712
0.32216623 1.6888546 -0.048775412
0.32018864 1.6784877 -0.065255448
0.32192469 1.6875883 -0.082522377
0.31990671 1.6770097 -0.096944667
0.31788892 1.666432 -0.10932001
0.31954095 1.6750923 -0.12672552
0.31748301 1.6643041 -0.13891104
0.31727475 1.6632124 -0.15185912
0.31701434 1.6618474 -0.16662914
0.31676698 1.6605506 -0.17952779
0.32022411 1.6786735 -0.19470952
0.31989351 1.6769406 -0.20961528
0.32139635 1.6848187 -0.22581032
0.31911057 1.6728362 -0.2412207
0.32055691 1.6804181 -0.25756159
0.3219173 1.6875496 -0.27594468
0.31775895 1.6657507 -0.28758219
0.31733871 1.6635478 -0.30050763
0.32420352 1.6995343 -0.32260695
0.31821376 1.6681349 -0.33009955
0.31759176 1.6648743 -0.34674078
0.31884512 1.6714447 -0.36360785
0.31816024 1.6678544 -0.38031015
0.31752625 1.6645309 -0.39511269
0.31686807 1.6610806 -0.40988517
0.31800294 1.6670297 -0.4270668
0.31738332 1.6637816 -0.43999812
0.31674379 1.6604291 -0.45293334
0.31779677 1.665949 -0.47033954
0.31891713 1.6718221 -0.486007
0.31441358 1.6482137 -0.49702686
0.31358889 1.6438905 -0.5116505
0.3126334 1.6388817 -0.52804089
0.31353953 1.6436317 -0.54568088
0.31607103 1.6569024 -0.56848365
0.31501099 1.6513454 -0.58500123
0.31920943 1.6733544 -0.61162925
0.31468114 1.6496164 -0.61954951
0.31904554 1.6724954 -0.6429379
0.31825021 1.6683261 -0.65406793
0.31730402 1.663366 -0.66703224
0.31446385 1.6484772 -0.67803794
0.31694961 1.661508 -0.69845122
0.31579542 1.6554576 -0.71318531
0.31289798 1.6402687 -0.72388762
0.3135654 1.6437675 -0.74067903
0.31420538 1.6471223 -0.7575376
0.31295469 1.640566 -0.77214164
0.30628136 1.6055831 -0.77742827
0.30299079 1.5883334 -0.79081827
0.30872589 1.6183978 -0.81919289
0.30420056 1.5946752 -0.82272291
0.30617163 1.6050079 -0.84605473
0.3064329 1.6063775 -0.86495668
0.30830425 1.6161875 -0.88869947
0.310121 1.6257113 -0.91268164
0.30535102 1.6007061 -0.91727906
0.30365041 1.5917912 -0.93321872
0.31019074 1.6260768 -0.97265404
0.305374 1.6008265 -0.97678101
0.30696267 1.6091547 -1.0013965
0.31687433 1.6611134 -1.0489962
0.31514695 1.6520581 -1.0637134
0.31497043 1.6511328 -1.0837685
0.31340879 1.6429465 -1.0965865
0.31316176 1.6416514 -1.1166961
0.31287271 1.6401361 -1.136866
0.31408101 1.6464703 -1.1627934
0.31216767 1.6364403 -1.1773762
0.31047595 1.6275718 -1.1900482
0.31003049 1.6252367 -1.2103662
0.31855795 1.6699392 -1.2665796
0.32095313 1.6824952 -1.2994995
0.31759819 1.6649081 -1.3064504
0.321073 1.6831236 -1.3477416
0.32031959 1.6791741 -1.3688936
0.31923476 1.6734873 -1.3919517
0.31838718 1.669044 -1.4131602
0.31892458 1.6718612 -1.4408565
0.31909743 1.6727673 -1.470553
0.31808811 1.6674763 -1.4919593
0.32090673 1.6822519 -1.5352677
0.31976834 1.6762843 -1.5568941
0.32512242 1.7043513 -1.6144292
0.32007629 1.6778988 -1.6139104
0.31673658 1.6603912 -1.6181406
0.31676298 1.6605296 -1.6467855
0.31006584 1.6254221 -1.6403543
0.30737174 1.6112992 -1.6547319
0.29976192 1.571407 -1.6385734
0.29284316 1.5351377 -1.6325426
0.28887859 1.5143547 -1.6388347
0.28237197 1.4802456 -1.630196
0.2768454 1.4512743 -1.6300796
0.27325457 1.4324507 -1.6338656
0.26439503 1.3860073 -1.6089371
0.25596437 1.3418123 -1.5818098
0.24973121 1.3091369 -1.5707945
0.24595338 1.2893327 -1.5746834
0.23206413 1.2165228 -1.5191506
0.15831462 0.82991427 -1.1288396
0.067089818 0.31161901 1.7410607
0.082344674 0.38247481 1.7467204
0.08554972 0.39736164 1.7432398
0.08834561 0.41034797 1.7400889
0.090740733 0.42147285 1.7373044
0.093533307 0.4344438 1.7339579
0.096852124 0.44985908 1.7401857
0.10004462 0.46468759 1.7361039
0.10283499 0.47764829 1.7324194
0.10601299 0.4924095 1.7280897
0.1083912 0.50345582 1.7247561
0.11341417 0.52678651 1.7488663
0.11765858 0.54650092 1.753024
0.12113041 0.56262696 1.7582031
0.12193929 0.56638408 1.7253231
0.12716568 0.59065956 1.7485566
0.1299753 0.6037097 1.7438867
0.13133557 0.61002785 1.7203246
0.13443315 0.62441558 1.7255819
0.14099525 0.65489525 1.7565969
0.14421621 0.66985589 1.750684
0.146642 0.68112326 1.735358
0.15262738 0.70892411 1.7561696
0.15707433 0.72957939 1.7581643
0.15777978 0.73285609 1.7240729
0.16390586 0.76131052 1.7440301
0.1653531 0.76803261 1.7189777
0.17108119 0.79463851 1.7284042
0.17242461 0.80087847 1.7032214
0.17593874 0.81720084 1.6950895
0.18188739 0.84483111 1.7145196
0.18792059 0.87285417 1.7335835
0.1891375 0.87850654 1.7080262
0.19326362 0.89767152 1.708928
0.20044442 0.93102491 1.735919
0.20322521 0.94394112 1.7286048
0.20326522 0.94412696 1.6940507
0.20993979 0.97512901 1.7103943
0.21522552 0.99968016 1.7188128
0.21876353 1.0161135 1.7087001
0.22482894 1.0442863 1.726215
0.23175688 1.0764651 1.7410088
0.23877364 1.1090566 1.7553006
0.24278934 1.1277088 1.7428213
0.24873325 1.1553171 1.7479914
0.25233629 1.1720524 1.7362947
0.25712144 1.1942785 1.7326244
0.26315165 1.2222877 1.7367684
0.27086806 1.2581289 1.7471813
0.27572677 1.2806966 1.7424669
0.27931705 1.2973728 1.7295103
0.28716934 1.3338451 1.7385312
0.2907446 1.3504516 1.7250646
0.29562986 1.3731426 1.7191516
0.30320749 1.4083391 1.7283362
0.30676723 1.4248735 1.7140973
0.3134459 1.4558946 1.7131908
0.31936982 1.48341 1.7151086
0.3228952 1.4997847 1.7001425
0.33637282 1.5623857 1.7364919
0.34138197 1.585652 1.7280238
0.34348378 1.5954145 1.7047789
0.34698665 1.6116847 1.6886896
0.3597627 1.6710271 1.713079
0.36439496 1.692543 1.7051142
0.36600047 1.7000002 1.6829864
0.36412698 1.6912981 1.6489457
0.3640694 1.6910307 1.6201137
0.35928789 1.6688217 1.5710973
0.36215985 1.6821612 1.5561407
0.36185759 1.6807574 1.5277807
0.36147901 1.6789989 1.4995651
0.36227977 1.6827183 1.4799029
0.3601605 1.6728748 1.4454669
0.36118203 1.6776195 1.4240929
0.36052126 1.6745503 1.3964261
0.36142945 1.6787688 1.3751742
0.36197862 1.6813195 1.3558158
0.36248177 1.6836566 1.3365282
