# .PCD v0.7 - Point Cloud Data file format
VERSION 0.7
FIELDS x y z
SIZE 4 4 4
TYPE F F F
COUNT 1 1 1
WIDTH 1489
HEIGHT 1
VIEWPOINT 0 0 0 1 0 0 0
POINTS 1489
DATA ascii
0.66937065 0.53626698 -0.5333485
0.65866899 0.52769339 -0.53637195
0.64844108 0.51949924 -0.53827935
0.63823783 0.51132494 -0.53999937
0.62759596 0.50279915 -0.54241711
0.61101449 0.48951492 -0.53808594
0.60686606 0.48619142 -0.54573941
0.59677756 0.47810897 -0.54668856
0.57994884 0.46462664 -0.54238492
0.57623285 0.4616496 -0.54884911
0.55956888 0.44829923 -0.54397655
0.55584288 0.44531411 -0.55021274
0.53321016 0.42718187 -0.53861171
0.53560811 0.42910299 -0.55081266
0.51928943 0.41602927 -0.54484689
0.51555896 0.41304064 -0.55063272
0.50536603 0.40487456 -0.55061942
0.48979455 0.39239943 -0.54316109
0.4914639 0.39373684 -0.55590874
0.46977797 0.37636313 -0.54199576
0.48333067 0.38722089 -0.56749576
0.45661652 0.36581883 -0.54559869
0.4585444 0.36736336 -0.55756718
0.44864616 0.35943335 -0.5563491
0.42815858 0.34301969 -0.54029411
0.42950106 0.34409523 -0.55274528
0.43117821 0.34543887 -0.56467456
0.40522304 0.32464486 -0.54120237
0.4068754 0.32596865 -0.55298901
0.38672242 0.3098231 -0.53605545
0.40404633 0.32370216 -0.56996799
0.37416551 0.29976308 -0.53716129
0.37517494 0.3005718 -0.54936355
0.37047589 0.29680717 -0.55457473
0.24091074 0.1930059 -0.39333287
0.054633666 0.043769822 -0.097464688
0.25482747 0.19447818 1.7508973
0.26846373 0.20488504 1.7578536
0.2822158 0.2153803 1.7646432
0.29596165 0.22587079 1.7610761
0.30816716 0.23518574 1.7577602
0.31706861 0.24197911 1.7449968
0.33467844 0.25541851 1.770636
0.34504247 0.26332811 1.7571864
0.35919273 0.27412722 1.7630187
0.3714093 0.28345063 1.7590085
0.38359758 0.29275244 1.7548643
0.3935822 0.30037242 1.740968
0.41163686 0.31415132 1.7552105
0.41767591 0.31876016 1.732062
0.43526199 0.33218145 1.7566452
0.44350079 0.33846909 1.7428843
0.46397978 0.35409817 1.7765802
0.46864548 0.35765892 1.7430007
0.48182836 0.36771977 1.7478912
0.49393532 0.37695953 1.7425354
0.50993997 0.38917387 1.7565321
0.51931375 0.39632773 1.7415044
0.53423184 0.40771288 1.7450691
0.54923874 0.41916576 1.7484384
0.56436735 0.43071154 1.7407979
0.58104581 0.44344017 1.7537806
0.5931899 0.45270818 1.7473354
0.60210299 0.45951051 1.7315953
0.62383986 0.47609952 1.7522994
0.63597196 0.48535848 1.7453845
0.63980108 0.48828077 1.7211149
0.65708613 0.50147229 1.7329638
0.66559809 0.50796837 1.7166966
0.68306553 0.52129912 1.7281692
0.70223039 0.53592527 1.738435
0.71426338 0.54510856 1.7306601
0.73369056 0.55993497 1.7404226
0.74952161 0.57201684 1.7410957
0.77850127 0.59413338 1.7667319
0.79072762 0.60346425 1.7581185
0.80686849 0.61578256 1.7580316
0.82306808 0.62814569 1.7577235
0.84596163 0.64561754 1.7755075
0.85824633 0.65499288 1.7661533
0.8746708 0.66752768 1.7651509
0.89967412 0.68660957 1.7808014
0.90334898 0.68941414 1.7540721
0.92862368 0.70870316 1.7691234
0.94239777 0.71921521 1.7575597
0.96507603 0.73652273 1.7623174
0.99096465 0.7562803 1.7762121
1.0140518 0.77389985 1.7801342
1.0216756 0.77971816 1.7608573
1.033852 0.78901088 1.7495748
1.0555454 0.80556685 1.7541054
1.0773798 0.82223028 1.7582918
1.1122482 0.84884101 1.7748163
1.1329145 0.86461306 1.7797047
1.1401945 0.87016892 1.7594495
1.1320508 0.86395383 1.7160841
1.133653 0.86517662 1.6883129
1.1090447 0.84639615 1.6227241
1.0888504 0.83098429 1.5653338
1.1049546 0.84327471 1.5607892
1.1144072 0.85048866 1.550118
1.1412681 0.87098825 1.5598996
1.1248749 0.85847741 1.5108186
1.1353128 0.86644334 1.4984127
1.1179912 0.85322392 1.4500016
1.143484 0.87267941 1.4606078
1.1366913 0.86749542 1.4268092
1.1396588 0.8697601 1.4088277
1.141258 0.87098056 1.3924521
1.1381706 0.86862439 1.3676473
1.1348681 0.86610401 1.3429587
1.125483 0.8589415 1.311643
1.1334209 0.86499953 1.3007816
1.1342568 0.86563748 1.2847308
1.1360652 0.86701763 1.2671765
1.1317563 0.86372918 1.2430606
1.1272045 0.8602553 1.2191271
1.1224456 0.85662341 1.1953293
1.1286407 0.86135131 1.1860625
1.1306806 0.86290812 1.1672837
1.1263576 0.85960889 1.1422746
1.1342387 0.86562359 1.1298665
1.128517 0.86125702 1.1066551
1.1361511 0.86708313 1.0942247
1.1309909 0.86314493 1.0696918
1.131973 0.86389446 1.0512961
1.1383286 0.86874491 1.0403799
1.1390307 0.86928076 1.0220371
1.1330537 0.86471927 0.99802297
1.1268313 0.85997045 0.97421873
1.1335466 0.86509544 0.96181178
1.1327211 0.86446542 0.94537956
1.138433 0.8688246 0.93445933
1.1440655 0.87312323 0.92350954
1.129475 0.86198807 0.89647239
1.1273644 0.86037725 0.88187331
1.1394609 0.86960906 0.87624705
1.1311245 0.86324692 0.85496318
1.1294303 0.86195391 0.839001
1.1200286 0.85477883 0.81962746
1.1394837 0.86962646 0.81720662
1.1249791 0.85855693 0.78848088
1.1227534 0.85685825 0.77286404
1.1210654 0.85557008 0.75578588
1.1333048 0.8649109 0.74809712
1.1390936 0.8693288 0.7340526
1.137036 0.86775839 0.71703869
1.1419668 0.87152153 0.70452952
1.1402341 0.87019914 0.68609023
1.1377492 0.8683027 0.66931099
1.1351188 0.86629534 0.65263885
1.1407106 0.87056279 0.6370241
1.1450863 0.8739022 0.62447768
1.1425846 0.87199301 0.60640627
1.1393969 0.86956018 0.59003377
1.1355673 0.86663759 0.57534873
1.1469148 0.87529773 0.56651604
1.1433766 0.8725974 0.55033058
1.1392415 0.86944163 0.53581727
1.1354451 0.86654431 0.51987064
1.1390083 0.86926359 0.50738645
1.150001 0.877653 0.49811926
1.1458741 0.87450343 0.48230308
1.148765 0.8767097 0.47129509
1.1444118 0.87338746 0.45564896
1.1399295 0.86996675 0.44013456
1.1505591 0.87807888 0.43045488
1.1455046 0.87422144 0.41660076
1.148351 0.87639374 0.40401009
1.1357617 0.86678594 0.38617012
1.1460893 0.8746677 0.37621245
1.14063 0.87050128 0.36275443
1.143103 0.87238866 0.35021931
1.1300094 0.86239594 0.33309457
1.1400324 0.87004524 0.32287356
1.1422288 0.87172151 0.31034651
1.1365536 0.86739033 0.29577002
1.1383178 0.86873668 0.28483188
1.1400117 0.87002939 0.27390212
1.1494622 0.87724185 0.26473224
1.1432037 0.87246555 0.25197032
1.1444902 0.87344736 0.2425527
1.1461293 0.87469822 0.22997977
1.1398202 0.8698833 0.21590036
1.1487875 0.87672693 0.20793559
1.1500175 0.87766564 0.19688235
1.1511778 0.87855113 0.1858429
1.1443813 0.87336415 0.17357031
1.137501 0.86811334 0.16146432
1.1305431 0.86280322 0.14947571
1.1551524 0.88158453 0.14153267
1.1402534 0.87021393 0.12708153
1.1330689 0.86473083 0.1153064
1.1338257 0.86530834 0.10286369
1.134496 0.86581999 0.090413161
1.1350112 0.86621314 0.079525717
1.1434016 0.87261653 0.069088504
1.1278514 0.86074895 0.058844373
1.1281753 0.86099619 0.048021603
1.1363809 0.86725849 0.037433036
1.1524471 0.87951982 0.028468855
1.1367028 0.86750412 0.015598571
1.1367677 0.86755371 0.0031197735
1.1447029 0.87360966 -0.0078413766
1.1366563 0.86746866 -0.020265387
1.1364725 0.86732835 -0.032742307
1.1282566 0.86105818 -0.044900533
1.1120641 0.84870046 -0.054963741
1.1037577 0.84236133 -0.065162934
1.1033295 0.84203446 -0.075775154
1.0949039 0.83560425 -0.085737452
1.0944344 0.83524591 -0.094750181
1.0859003 0.82873297 -0.10450905
1.0931566 0.83427072 -0.11576343
1.1003373 0.83975083 -0.12718725
1.0916238 0.83310091 -0.13674968
1.0908889 0.83254009 -0.14573433
1.0978698 0.83786768 -0.15735246
1.104775 0.84313762 -0.16908908
1.0956774 0.83619452 -0.17991599
1.094552 0.83533567 -0.19044715
1.0933656 0.83443016 -0.20094319
1.0921124 0.83347386 -0.2114515
1.1064936 0.84444922 -0.22511667
1.1050932 0.84338051 -0.23575053
1.1116717 0.84840101 -0.24658041
1.1023264 0.8412689 -0.25542751
1.0927074 0.83392793 -0.26562133
1.0908232 0.83248991 -0.27760646
1.1124423 0.84898907 -0.29426143
1.1023314 0.84127271 -0.30581972
1.1081903 0.84574413 -0.31863943
1.1062262 0.84424514 -0.32926258
1.0961803 0.83657837 -0.33900633
1.1172028 0.85262215 -0.35692227
1.0996268 0.83920866 -0.36256
1.1047416 0.84311217 -0.37723711
1.1173893 0.85276455 -0.39475775
1.1146083 0.85064214 -0.40700889
1.1265996 0.85979366 -0.42653048
1.1167593 0.85228372 -0.4328523
1.1141024 0.85025609 -0.44355434
1.103814 0.84240425 -0.45116481
1.1161293 0.85180295 -0.46806735
1.1128398 0.84929246 -0.48030189
1.1019691 0.84099627 -0.48917216
1.1068794 0.84474361 -0.50162375
1.1108124 0.8477453 -0.51722682
1.1146129 0.85064566 -0.5329541
1.1034675 0.84213972 -0.54153508
1.1070491 0.84487313 -0.55734342
1.0957863 0.83627766 -0.56567842
1.0551821 0.80528957 -0.55830044
1.0011035 0.76401806 -0.5394147
0.95409715 0.72814393 -0.52498096
0.93636906 0.71461427 -0.52596521
0.94037914 0.71767467 -0.53910124
0.90104151 0.68765318 -0.52702683
0.88299358 0.67387938 -0.52830762
0.86545229 0.6604923 -0.52805519
0.86175615 0.65767151 -0.53753561
0.82963097 0.63315433 -0.52889329
0.82593036 0.63033015 -0.53798044
0.81513983 0.62209505 -0.54235125
0.79783076 0.60888517 -0.54067075
0.77315366 0.59005219 -0.53495032
0.76248157 0.58190751 -0.53852159
0.75871676 0.57903433 -0.54687124
0.72058076 0.54992986 -0.52994388
0.72370446 0.5523138 -0.54295611
0.69953555 0.53386867 -0.53528899
0.68856984 0.52549988 -0.53862923
0.67137951 0.51238066 -0.53545833
0.6738438 0.51426136 -0.54915369
0.64347363 0.49108353 -0.53448915
0.62608677 0.47781435 -0.53123325
0.62892908 0.47998351 -0.54374999
0.60559767 0.46217754 -0.53342611
0.59494251 0.45404577 -0.53505689
0.58478194 0.44629145 -0.53568089
0.58056939 0.44307655 -0.54288334
0.5577665 0.42567393 -0.53112924
0.56618005 0.43209496 -0.55021274
0.55609339 0.42439705 -0.55022478
0.53936934 0.41163367 -0.5445534
0.5047912 0.38524449 -0.51881838
0.53784412 0.41046965 -0.56270635
0.50918376 0.38859677 -0.5434376
0.48734471 0.37192973 -0.5293991
0.48915124 0.37330842 -0.54200727
0.48537263 0.37042469 -0.54735631
0.457614 0.34923998 -0.52632773
0.46558502 0.35532326 -0.54495502
0.46707213 0.35645819 -0.55756718
0.44603139 0.3404004 -0.54183352
0.447449 0.34148228 -0.55432773
0.43235651 0.32996404 -0.54506105
0.45031589 0.34367022 -0.57897007
0.42424372 0.32377258 -0.55505729
0.40353581 0.3079688 -0.53843665
0.37817526 0.28861421 -0.51350296
0.39018077 0.29777655 -0.54035926
0.37053722 0.28278506 -0.52224016
0.36121237 0.27566856 -0.51926148
0.37736577 0.28799644 -0.55457473
0.3261764 0.24892995 -0.49116477
0.1782921 0.13606822 -0.2942743
0.24876964 0.18074173 1.7329299
0.25653106 0.18638071 1.7108636
0.27631822 0.20075694 1.7571126
0.28709984 0.20859024 1.744266
0.30108532 0.2187513 1.7508842
0.31013784 0.22532834 1.7382295
0.32268158 0.23444188 1.7449968
0.33686024 0.2447433 1.7511784
0.34572446 0.25118354 1.7382408
0.36598277 0.26590204 1.7732041
0.37435102 0.27198195 1.7498535
0.38669059 0.28094715 1.7457489
0.39527988 0.28718764 1.7324194
0.41202331 0.29935244 1.7472907
0.42511579 0.30886471 1.7529345
0.43269405 0.31437063 1.7291752
0.45135194 0.32792637 1.7428843
0.46870646 0.34053516 1.7569433
0.48369297 0.35142353 1.7612901
0.49344188 0.3585065 1.7465647
0.50692993 0.36830616 1.7512774
0.5220663 0.37930337 1.7551284
0.52872157 0.3841387 1.7307198
0.54969186 0.39937451 1.752923
0.55301535 0.40178916 1.729838
0.57283384 0.41618815 1.741565
0.58510733 0.42510536 1.7353199
0.6132229 0.4455325 1.7749249
0.6144551 0.44642776 1.7415932
0.62342864 0.45294741 1.7257681
0.64567739 0.46911207 1.746263
0.64770031 0.47058183 1.7120564
0.67372584 0.48949048 1.7410895
0.68293041 0.496178 1.7356018
0.70083231 0.50918448 1.7470161
0.71679658 0.52078319 1.74831
0.72539222 0.52702832 1.7316314
0.74893731 0.5441348 1.75026
0.76279014 0.55419946 1.7410957
0.79462516 0.57732898 1.7765591
0.79368383 0.57664502 1.7428559
0.80998778 0.58849061 1.7428995
0.83044338 0.60335243 1.7513508
0.84277612 0.61231273 1.7423265
0.87610495 0.63652748 1.7758584
0.88703722 0.64447027 1.7675472
0.90380657 0.65665394 1.7663633
0.92062646 0.66887432 1.7649516
0.94193804 0.68435806 1.7716678
0.96499497 0.70110989 1.7767469
0.97750193 0.71019673 1.7662703
0.99918616 0.72595125 1.7720671
1.0116588 0.73501313 1.7612219
1.0350821 0.75203115 1.765065
1.0667242 0.77502048 1.7860131
1.066264 0.77468622 1.7490118
1.0966969 0.79679692 1.7706696
1.1240772 0.81668991 1.7824332
1.1466769 0.8331095 1.7859062
1.1659098 0.84708303 1.7796643
1.1835756 0.859918 1.7747365
1.1700587 0.85009742 1.7236
1.1664202 0.84745389 1.6881013
1.1184925 0.81263238 1.5939584
1.129703 0.82077736 1.5818329
1.1340528 0.82393754 1.563666
1.1505015 0.83588827 1.5587615
1.1559578 0.83985251 1.5389637
1.1556666 0.83964092 1.5118988
1.1636473 0.84543926 1.502517
1.1672457 0.84805363 1.4843323
1.1523733 0.83724821 1.4463578
1.1784465 0.85619152 1.45664
1.164344 0.84594536 1.41742
1.1743065 0.85318357 1.4048067
1.1653914 0.84670645 1.3729715
1.1632307 0.84513658 1.3466768
1.1655596 0.84682864 1.3288913
1.1497902 0.83537143 1.2909442
1.1577224 0.84113455 1.2800671
1.1402155 0.8284151 1.2442013
1.1539828 0.83841753 1.2399516
1.1493081 0.8350212 1.2160306
1.156795 0.84046078 1.2051352
1.1641976 0.84583902 1.1941944
1.1454585 0.83222431 1.1594083
1.159904 0.84271961 1.1532763
1.1553062 0.83937907 1.1283219
1.1558646 0.8397848 1.1112329
1.1626877 0.84474206 1.1003036
1.1500753 0.83557862 1.0712308
1.1622156 0.84439903 1.0678694
1.1687709 0.8491618 1.0568815
1.1687074 0.84911555 1.0399644
1.161887 0.84416032 1.0173553
1.1681449 0.84870696 1.0063468
1.1601138 0.84287202 0.98554683
1.1527572 0.8375271 0.96337914
1.166256 0.84733456 0.95643663
1.1653616 0.84668481 0.939924
1.1651393 0.84652328 0.92192656
1.1579008 0.84126413 0.8986882
1.1642014 0.84584177 0.88616419
1.1634877 0.84532332 0.86840361
1.1626126 0.84468746 0.85072631
1.146849 0.83323461 0.82465583
1.1455992 0.83232653 0.80730104
1.151255 0.83643574 0.79491323
1.1568233 0.84048128 0.78246486
1.1629876 0.84495991 0.76837671
1.1540321 0.83845341 0.7465291
1.1592586 0.8422507 0.7340526
1.1650277 0.84644222 0.71996236
1.1555313 0.83954263 0.69858104
1.1604192 0.84309393 0.68609023
1.1652188 0.84658104 0.67354715
1.1625715 0.84465766 0.6567958
1.1682985 0.84881854 0.64108163
1.1802027 0.85746741 0.63243282
1.1691854 0.84946293 0.61344784
1.1814747 0.85839164 0.60305989
1.1776688 0.85562646 0.58813238
1.181776 0.85861057 0.57540691
1.1706878 0.85055447 0.55547035
1.1745647 0.85337126 0.54282147
1.1698176 0.84992224 0.52986693
1.1654358 0.8467387 0.51545405
1.1762275 0.85457927 0.50772357
1.1716682 0.85126674 0.49339512
1.1746854 0.85345882 0.48230952
1.1772139 0.85529602 0.47279599
1.1800971 0.8573907 0.46168405
1.1751864 0.85382289 0.44757515
1.1783015 0.85608613 0.43488187
1.1813269 0.85828418 0.42215544
1.1761085 0.85449284 0.40830222
1.1789464 0.85655463 0.39560047
1.1816944 0.8585512 0.38286859
1.1843524 0.86048234 0.37010756
1.1787484 0.8564108 0.35652885
1.1733457 0.8524856 0.3415086
1.1675302 0.84826028 0.32821923
1.1771433 0.8552447 0.32092071
1.1711802 0.85091227 0.30770931
1.1651189 0.84650844 0.29465458
1.1750946 0.85375625 0.28399459
1.1768167 0.85500735 0.27288273
1.1784662 0.85620582 0.26178035
1.1802695 0.85751599 0.24905874
1.1739966 0.85295838 0.23472142
1.1834098 0.8597976 0.22514261
1.1847646 0.86078191 0.21397945
1.1860534 0.86171824 0.20277826
1.1874398 0.86272556 0.18997706
1.1725156 0.85188252 0.17636104
1.1655339 0.84680998 0.16414467
1.1826028 0.85921115 0.15526424
1.1754771 0.85403419 0.14310503
1.184383 0.86050463 0.13292328
1.1691501 0.8494373 0.11850817
1.1859847 0.86166835 0.10893948
1.1867087 0.86219436 0.096142597
1.1873423 0.86265463 0.083338395
1.1717237 0.85130709 0.069568284
1.1721703 0.85163152 0.056926731
1.1805325 0.85770702 0.047769859
1.164649 0.84616703 0.034554202
1.1810271 0.85806638 0.022295715
1.1811395 0.8581481 0.0095556099
1.173074 0.85228813 -0.0015690507
1.1892097 0.86401141 -0.012828007
1.1648287 0.84629756 -0.023548329
1.1727672 0.85206521 -0.033200242
1.1887003 0.86364132 -0.044891614
1.1640863 0.8457582 -0.056534134
1.1394002 0.8278228 -0.067649163
1.1308022 0.82157588 -0.079369903
1.138353 0.82706183 -0.090671301
1.1376694 0.82656527 -0.1029468
1.177108 0.85521913 -0.12089998
1.1681535 0.84871322 -0.13267735
1.1673008 0.84809375 -0.14368626
1.1823281 0.85901165 -0.15842746
1.1811646 0.85816634 -0.17117472
1.1880991 0.86320454 -0.18357098
1.1867579 0.86223012 -0.19637954
1.1773174 0.85537112 -0.2077598
1.1920011 0.86603951 -0.22183052
1.1828091 0.85936111 -0.22991556
1.1811409 0.85814905 -0.24266528
1.1793827 0.85687166 -0.25539652
1.1857266 0.86148083 -0.26833406
1.1840364 0.8602528 -0.27950469
1.1822733 0.85897177 -0.29068458
1.180176 0.85744804 -0.30342621
1.1782694 0.85606283 -0.31454352
1.1838965 0.86015117 -0.32943729
1.1739457 0.85292149 -0.33834362
1.1718239 0.85137987 -0.34940118
1.1778007 0.85572231 -0.36128229
1.167695 0.84838009 -0.3699182
1.172858 0.85213125 -0.38506666
1.162645 0.84471101 -0.39347184
1.1676068 0.84831601 -0.40872264
1.1724414 0.85182852 -0.42411026
1.1694025 0.84962064 -0.43674076
1.1739984 0.85295969 -0.45231375
1.1715782 0.85120136 -0.46180168
1.1686879 0.84910148 -0.47285855
1.1734055 0.85252905 -0.48704591
1.1622758 0.84444278 -0.49641851
1.1815965 0.8584801 -0.5189814
1.1702882 0.85026419 -0.52827668
1.1665142 0.84752208 -0.54087996
1.1626511 0.84471548 -0.55344206
1.1591944 0.84220403 -0.56441188
1.1701677 0.85017657 -0.58438629
1.1585231 0.84171629 -0.59315932
1.1542913 0.8386417 -0.60563326
1.1505208 0.83590227 -0.6164977
1.175702 0.85419744 -0.64511371
1.1637373 0.84550464 -0.65363407
1.1590784 0.84211975 -0.66616189
1.1324135 0.82274657 -0.66575348
0.95982432 0.69735318 -0.57864994
0.8833009 0.64175564 -0.54436135
0.85106653 0.61833602 -0.5345524
0.84677607 0.61521882 -0.54486334
0.82861072 0.60202092 -0.54458702
0.80340511 0.58370799 -0.5391894
0.80664372 0.58606094 -0.552683
0.78158712 0.56785631 -0.54659015
0.74967331 0.54466957 -0.53500003
0.74586773 0.54190463 -0.54306602
0.71426678 0.51894522 -0.53048921
0.70312941 0.51085341 -0.53388929
0.68562102 0.49813282 -0.53083664
0.6677407 0.48514202 -0.52835554
0.65043443 0.47256824 -0.52460873
0.64624017 0.46952099 -0.53246945
0.62907189 0.45704746 -0.52818197
0.62484276 0.45397484 -0.53579694
0.63424981 0.46080947 -0.55405939
0.61014074 0.44329318 -0.54416859
0.60627568 0.44048509 -0.55072922
0.60834014 0.44198498 -0.56406695
0.57861835 0.42039084 -0.54632622
0.56787461 0.41258505 -0.54716724
0.55131608 0.4005546 -0.54083878
0.54070288 0.39284363 -0.54121554
0.51813364 0.37644613 -0.52794492
0.51391929 0.37338424 -0.53420144
0.51627445 0.37509534 -0.54622722
0.49971905 0.36306715 -0.53931725
0.48984501 0.35589325 -0.53804445
0.47907925 0.34807143 -0.53789347
0.49308589 0.35824788 -0.56340462
0.45962632 0.33393806 -0.53444272
0.46120122 0.33508229 -0.54691249
0.45732251 0.33226424 -0.55186647
0.4476696 0.32525101 -0.5497306
0.47790778 0.34722033 -0.59719527
0.4398396 0.31956217 -0.55930418
0.42420882 0.30820575 -0.55014187
0.41477835 0.30135411 -0.54739803
0.3999407 0.29057392 -0.53713524
0.38481912 0.27958748 -0.5271101
0.37571576 0.27297348 -0.52375865
0.37684166 0.27379149 -0.53584379
0.36684981 0.26653197 -0.53327471
0.33537322 0.24366289 -0.50065279
0.10726952 0.077935867 -0.17555413
0.25897822 0.17899086 1.7519397
0.27001965 0.18662205 1.7392992
0.28094959 0.19417621 1.7367392
0.29513583 0.20398094 1.7536781
0.30943298 0.2138623 1.7602596
0.32205775 0.22258781 1.7569102
0.33651721 0.23258136 1.7631682
0.34723276 0.23998733 1.7498101
0.3562364 0.24621013 1.7368294
0.37075093 0.25624174 1.7426658
0.38324705 0.26487833 1.7386665
0.39791241 0.27501419 1.7441711
0.40432668 0.27944735 1.7211999
0.42597842 0.29441181 1.7552105
0.43616599 0.30145288 1.7410587
0.45850852 0.31689474 1.7745274
0.47123003 0.32568711 1.7695961
0.47611058 0.32906026 1.7360697
0.48967546 0.33843556 1.7410569
0.50761372 0.35083345 1.7546636
0.5245527 0.36254069 1.7579274
0.53559238 0.37017065 1.7530016
0.54072988 0.37372142 1.7292899
0.5575521 0.38534799 1.7428547
0.57151103 0.3949956 1.7469269
0.57781702 0.39935392 1.7222787
0.59179562 0.40901515 1.7260894
0.61062598 0.42202961 1.7381389
0.62967396 0.43519446 1.7499191
0.63884991 0.44153637 1.7340462
0.66311866 0.45830953 1.7536037
0.66517937 0.45973375 1.7193549
0.69176006 0.47810477 1.7482803
0.69548947 0.48068234 1.7238442
0.7136423 0.49322852 1.735235
0.72981465 0.50440592 1.7365037
0.73844647 0.51037174 1.7198306
0.77558011 0.53603643 1.7638426
0.78821284 0.54476744 1.755548
0.80234039 0.55453157 1.7460655
0.83114135 0.57443714 1.7722375
0.83555937 0.57749063 1.7460656
0.86327803 0.59664816 1.7726709
0.88872766 0.61423749 1.789127
0.90585119 0.62607229 1.7881463
0.91865349 0.63492048 1.778469
0.93138576 0.64372033 1.7686561
0.94854259 0.65557814 1.7670835
0.96574742 0.66746914 1.765281
0.98456728 0.68047637 1.7619532
1.0018601 0.69242817 1.7596647
1.035027 0.71535116 1.7802786
1.0429616 0.72083509 1.7611156
1.0766078 0.74408948 1.7808274
1.0893511 0.75289685 1.7693391
1.1085943 0.76619661 1.7641886
1.1398046 0.78776741 1.7854602
1.1627785 0.80364561 1.7889941
1.1807331 0.81605482 1.7843834
1.2055373 0.83319813 1.7856542
1.1919399 0.82380038 1.7344257
1.195206 0.82605773 1.7049079
1.1696686 0.80840766 1.6392841
1.1596153 0.80145943 1.5968267
1.1655366 0.80555189 1.5770259
1.1865088 0.82004666 1.5809239
1.1908028 0.8230145 1.5625415
1.1893212 0.82199037 1.5368627
1.1932471 0.82470381 1.5185602
1.2041031 0.83220685 1.5058445
1.2064127 0.83380312 1.4891074
1.2157419 0.84025091 1.4778532
1.2132567 0.83853334 1.4525048
1.2236378 0.84570813 1.4395792
1.2028807 0.83136207 1.3936696
1.1995941 0.82909054 1.3687888
1.1840036 0.81831521 1.3304495
1.1935095 0.82488519 1.3178389
1.1894807 0.82210064 1.2934011
1.1902518 0.82263368 1.2772918
1.1807328 0.8160547 1.2449597
1.1896251 0.82220054 1.2323872
1.1795044 0.81520569 1.200462
1.1796007 0.81527221 1.1846828
1.1870162 0.82039744 1.1736867
1.1750821 0.81214923 1.1438949
1.1822413 0.81709731 1.132942
1.1893153 0.82198644 1.121948
1.182267 0.81711495 1.1003036
1.1891518 0.82187337 1.0892851
1.1893442 0.82200634 1.0722713
1.1827631 0.81745791 1.049397
1.1902515 0.82263345 1.0368103
1.1765527 0.81316561 1.0084571
1.1896193 0.82219648 1.0031943
1.1763761 0.81304359 0.97365254
1.1892859 0.82196605 0.9682824
1.1893171 0.82198763 0.9501375
1.1814394 0.81654298 0.92820174
1.1888722 0.82168013 0.91407043
1.1875998 0.82080072 0.89771533
1.186179 0.81981874 0.88146281
1.1838528 0.81821096 0.86684686
1.1751115 0.81216955 0.84563214
1.1889981 0.82176715 0.83658975
1.1806476 0.81599581 0.81407744
1.1785463 0.81454349 0.79821521
1.1770108 0.81348217 0.78089207
1.1753167 0.81231141 0.7636627
1.1807542 0.81606942 0.75116593
1.2014098 0.83034545 0.74615067
1.1920044 0.82384497 0.72443414
1.1978028 0.82785243 0.71016127
1.1805801 0.81594914 0.68451262
1.1860466 0.8197273 0.6704033
1.1914084 0.82343304 0.65620416
1.1885513 0.8214584 0.63949335
1.1936542 0.82498521 0.62529111
1.1905147 0.82281536 0.60872787
1.1872289 0.82054436 0.59227908
1.1914356 0.82345176 0.57966244
1.1873854 0.8206526 0.56492925
1.1990821 0.82873672 0.55587536
1.203027 0.83146316 0.54313433
1.2068803 0.83412629 0.530352
1.2033381 0.83167815 0.51262921
1.1987427 0.82850206 0.49819705
1.1940296 0.82524461 0.48390579
1.1970378 0.82732373 0.47279599
1.1999694 0.82934988 0.46168405
1.1945704 0.82561845 0.44917211
1.2052376 0.83299094 0.44094029
1.200074 0.82942212 0.4269444
1.1868985 0.82031602 0.41030934
1.1977308 0.82780266 0.4003545
1.2005593 0.82975757 0.38763377
1.1953274 0.8261416 0.37240085
1.1979553 0.82795787 0.3597067
1.1924887 0.82417965 0.34467191
1.1946166 0.82565033 0.33360586
1.1886482 0.82152528 0.32033062
1.1986682 0.82845056 0.31139076
1.1922632 0.82402384 0.29982167
1.1943703 0.82548004 0.28716278
1.1963862 0.82687342 0.27448201
1.1983111 0.8282038 0.26178035
1.2001448 0.82947111 0.24905874
1.2016759 0.83052933 0.23789899
1.2031336 0.83153683 0.22675088
1.2047156 0.83263022 0.21397945
1.1980559 0.82802737 0.19983234
1.1994448 0.8289873 0.1871158
1.2004266 0.82966584 0.17756899
1.2015082 0.83041334 0.16640872
1.2025173 0.83111084 0.15526424
1.2035861 0.83184952 0.14250208
1.2045633 0.8325249 0.12972906
1.1972483 0.82746929 0.11615062
1.1980366 0.82801408 0.10344584
1.1987336 0.8284958 0.090733171
1.1992692 0.82886595 0.07959117
1.1997336 0.82918698 0.068469971
1.2083492 0.83514154 0.057711929
1.2004122 0.82965589 0.047769859
1.2006769 0.82983887 0.03663899
1.2090734 0.8356421 0.027271125
1.2009971 0.83006024 0.014346027
1.2010545 0.83009982 0.0016053536
1.2010202 0.83007616 -0.011135442
1.2009151 0.8300035 -0.022295715
1.2007403 0.82988268 -0.033429209
1.2087176 0.83539611 -0.044891614
1.1919091 0.82377911 -0.056926731
1.1586479 0.80079079 -0.06610053
1.1581292 0.80043232 -0.0783889
1.1576024 0.80006826 -0.089148641
1.1570094 0.79965842 -0.099878617
1.1892538 0.82194394 -0.11217618
1.1967103 0.82709742 -0.12407398
1.195897 0.82653528 -0.13516553
1.1950121 0.82592368 -0.14627457
1.1940595 0.82526535 -0.15734974
1.2095318 0.8359589 -0.16913188
1.2084328 0.83519936 -0.18036664
1.1909516 0.82311732 -0.18897651
1.2141749 0.83916789 -0.20414838
1.2047187 0.8326323 -0.2139539
1.1954089 0.82619792 -0.22202371
1.2021 0.83082247 -0.23471156
1.2003694 0.82962632 -0.24745445
1.1985472 0.82836694 -0.26017851
1.2049669 0.83280391 -0.27311611
1.1948868 0.82583714 -0.28396922
1.2089218 0.83553725 -0.30064231
1.1986727 0.82845366 -0.31136534
1.2044213 0.83242679 -0.32624391
1.2023344 0.83098447 -0.33742657
1.2001823 0.8294971 -0.34856406
1.1979553 0.82795787 -0.3597067
1.2039663 0.83211225 -0.37169147
1.2095567 0.83597606 -0.38537848
1.198805 0.82854509 -0.39557502
1.1959196 0.8265509 -0.40827683
1.201601 0.8304776 -0.42054963
1.1989212 0.82862544 -0.43170333
1.2115104 0.83732635 -0.45025241
1.1925406 0.82421553 -0.45707282
1.1970378 0.82732373 -0.47279599
1.2013993 0.83033818 -0.48864916
1.1982985 0.82819504 -0.49977359
1.2101803 0.83640701 -0.51912147
1.1981953 0.82812375 -0.53013122
1.1866385 0.82013637 -0.5393194
1.1980817 0.82804519 -0.55905402
1.1863687 0.81994992 -0.56807691
1.1822455 0.81710011 -0.5806402
1.1861717 0.81981367 -0.59540105
1.188874 0.82168138 -0.61344784
1.1849905 0.81899732 -0.62445253
1.1955003 0.8262611 -0.64511371
1.1908236 0.82302886 -0.65777099
1.1860563 0.81973392 -0.67037815
1.1886275 0.82151103 -0.68722945
1.1904088 0.82274222 -0.70577753
1.1852969 0.8192091 -0.71837848
1.1807551 0.81607008 -0.72934693
1.14627 0.79223597 -0.72341365
1.0677322 0.73795515 -0.6901232
0.87477016 0.60459089 -0.57736212
0.79864234 0.55197567 -0.53813869
0.78042895 0.53938764 -0.53674167
0.77654606 0.536704 -0.54500002
0.76502752 0.52874309 -0.54914808
0.72582209 0.50164652 -0.53144425
0.71448648 0.49381199 -0.53484464
0.70365286 0.48632443 -0.53708583
0.67851442 0.46895018 -0.52924836
0.68845844 0.4758229 -0.54737335
0.65664059 0.45383224 -0.53334743
0.65278679 0.45116872 -0.54029274
0.64164168 0.44346583 -0.54234123
0.62381148 0.43114263 -0.53840065
0.61992264 0.42845491 -0.54499751
0.60936308 0.42115676 -0.54562223
0.59226161 0.40933719 -0.5400641
0.58182472 0.40212378 -0.54025596
0.57143062 0.39493999 -0.54026794
0.56060004 0.38745454 -0.54083878
0.55669612 0.38475639 -0.54676497
0.53955418 0.37290886 -0.54066646
0.53565234 0.37021211 -0.54636949
0.51871866 0.35850853 -0.53972453
0.50241894 0.3472431 -0.53206903
0.52269107 0.36125401 -0.56461459
0.50591922 0.3496623 -0.55738854
0.47166371 0.32598686 -0.52883446
0.48584357 0.33578715 -0.55434918
0.48184553 0.33302394 -0.55948186
0.47191185 0.32615834 -0.55760193
0.46839151 0.32372528 -0.56197095
0.46383446 0.32057571 -0.56752867
0.44250229 0.30583215 -0.55096138
0.43802732 0.30273932 -0.55622023
0.43401766 0.29996806 -0.56084567
0.41831625 0.28911614 -0.55129248
0.43039337 0.29746318 -0.57851291
0.38250867 0.26436803 -0.52325583
0.383672 0.26517203 -0.53533131
0.36911535 0.25511131 -0.52418709
0.33754051 0.2332886 -0.49116477
0.19447704 0.13441135 -0.31018102
0.26799583 0.17604035 1.7407148
0.28226766 0.18541519 1.7476687
0.29500389 0.19378133 1.7446551
0.30944639 0.20326829 1.7512923
0.32381427 0.21270621 1.7475698
0.33842835 0.22230586 1.7538661
0.35120764 0.2307003 1.7502658
0.36638102 0.24066736 1.7664213
0.37508324 0.24638364 1.7431602
0.3937076 0.25861755 1.757985
0.40490282 0.26597142 1.7543411
0.41997799 0.27587399 1.7596625
0.42885241 0.28170338 1.7461755
0.4399713 0.28900713 1.7422112
0.45196205 0.29688358 1.7482822
0.46311915 0.30421242 1.7440974
0.47940657 0.31491128 1.758835
0.48267412 0.31705764 1.725949
0.49480915 0.32502887 1.7315947
0.51412553 0.33771735 1.7553409
0.52815026 0.34692985 1.7599992
0.53807414 0.35344866 1.7450359
0.55670381 0.36568606 1.7580541
0.56487399 0.37105286 1.7435989
0.57756978 0.37939245 1.7376348
0.59337759 0.3897762 1.7299935
0.60764581 0.3991487 1.7337378
0.62526196 0.41072032 1.746527
0.64133453 0.42127806 1.7490897
0.65590745 0.43085068 1.7522994
0.67214584 0.44151732 1.754475
0.67781931 0.44524407 1.7292827
0.69763577 0.45826104 1.7401727
0.71030152 0.46658087 1.7328225
0.72880197 0.47873342 1.7441795
0.74529833 0.48956949 1.7454089
0.75800043 0.49791321 1.7375609
0.78244036 0.51396728 1.7560537
0.79921478 0.52498597 1.7566005
0.82011646 0.53871584 1.765671
0.84697247 0.55635691 1.7820226
0.86574358 0.5686872 1.7806412
0.87016702 0.57159287 1.7543349
0.88453281 0.58102947 1.7440202
0.91481203 0.60091919 1.7687327
0.93659776 0.61522973 1.7760284
0.95240599 0.62561381 1.7758464
0.96989721 0.63710338 1.7742037
0.99370831 0.65274435 1.7793449
1.0129592 0.66538984 1.7758576
1.0401877 0.68327564 1.7898446
1.0451596 0.6865415 1.7612219
1.0677615 0.70138824 1.7664484
1.0970843 0.72064966 1.777968
1.1200558 0.73573911 1.7824317
1.1279329 0.74091339 1.7627294
1.1664393 0.7662074 1.79032
1.1846488 0.77816874 1.7859062
1.2133877 0.79704678 1.7968045
1.2280858 0.80670154 1.7824528
1.2249223 0.80462354 1.7465813
1.2174419 0.79970992 1.7017342
1.1968663 0.78619421 1.6437182
1.1755395 0.77218515 1.5862651
1.1926639 0.78343374 1.5813553
1.1984991 0.78726673 1.5614772
1.2084408 0.79379725 1.5504699
1.2139502 0.79741621 1.5305399
1.2165037 0.7990936 1.5137925
1.2144411 0.79773867 1.4883366
1.2252504 0.80483902 1.4756001
1.2287068 0.80710953 1.4573104
1.2306782 0.80840451 1.4406642
1.2290893 0.80736077 1.4138982
1.2332797 0.81011337 1.3941439
1.2115368 0.79583091 1.348789
1.213957 0.79742068 1.3309127
1.2162008 0.79889458 1.3130968
1.2046329 0.79129589 1.2835927
1.2065151 0.79253227 1.265944
1.2082242 0.79365498 1.2483613
1.2161651 0.7988711 1.2372743
1.1983831 0.78719056 1.200462
1.2070932 0.79291207 1.1879041
1.2146479 0.79787451 1.1768291
1.2101029 0.79488903 1.1516521
1.2118703 0.79605001 1.1328171
1.2068248 0.79273576 1.1079458
1.207183 0.79297101 1.090874
1.2131246 0.79687393 1.0813975
1.2132581 0.79696167 1.0643574
1.21323 0.79694319 1.0474036
1.2130718 0.79683924 1.0304873
1.2136847 0.79724181 1.0120647
1.2072233 0.79299754 0.98806214
1.2195317 0.80108255 0.9841795
1.2127242 0.79661089 0.96037036
1.2126729 0.79657727 0.94222552
1.21245 0.79643077 0.92415535
1.2191443 0.80082816 0.91146111
1.2249192 0.80462152 0.90030956
1.2234808 0.80367672 0.88391078
1.2075171 0.79319054 0.85740954
1.1985201 0.78728056 0.83626479
1.2038162 0.79075944 0.82530361
1.2017707 0.78941578 0.8093639
1.2083482 0.79373634 0.79522163
1.2141023 0.79751611 0.78257513
1.196902 0.78621769 0.75742155
1.2172251 0.7995674 0.75409228
1.2152234 0.79825264 0.73683423
1.2049173 0.79148275 0.71681893
1.2176158 0.79982412 0.70858526
1.2227377 0.80318856 0.69584531
1.2201877 0.80151343 0.67883605
1.2180907 0.80013603 0.66033125
1.2222646 0.80287784 0.64919657
1.2192848 0.80092037 0.63243282
1.216154 0.79886383 0.61578101
1.2205989 0.80178362 0.60305989
1.224951 0.80464244 0.59029287
1.2214299 0.80232954 0.5738259
1.2172577 0.79958886 0.55905402
1.2291178 0.80737942 0.54982561
1.2173731 0.79966468 0.53013122
1.2290721 0.80734944 0.52073872
1.2170179 0.79943138 0.50137496
1.2122555 0.79630297 0.48707122
1.215332 0.79832393 0.47596943
1.2183309 0.8002938 0.4648653
1.2212654 0.80222142 0.45370862
1.2161213 0.79884243 0.43965846
1.2265168 0.80567098 0.43295577
1.2453159 0.81801963 0.4272379
1.2318999 0.80920702 0.41049561
1.2344867 0.81090617 0.39921641
1.2369957 0.8125543 0.38793969
1.231675 0.80905926 0.37255859
1.2421379 0.8159321 0.36365941
1.2284719 0.80695522 0.34609258
1.2227974 0.80322778 0.33104616
1.2169976 0.79941803 0.31614473
1.2274401 0.80627745 0.30546263
1.2129602 0.79676598 0.29032958
1.2229879 0.80335283 0.28111377
1.2247443 0.8045066 0.26994544
1.2266666 0.80576932 0.25714779
1.2284954 0.80697066 0.24433057
1.2298057 0.80783135 0.23470539
1.2232058 0.803496 0.22036727
1.224578 0.8043974 0.20917313
1.2258759 0.80524993 0.19799237
1.227105 0.80605733 0.18677448
1.2198025 0.80126047 0.17596437
1.2208887 0.801974 0.16482817
1.2302185 0.80810249 0.15470213
1.2311689 0.80872679 0.14347148
1.223725 0.80383706 0.13131347
1.2163053 0.79896325 0.11772541
1.225454 0.80497283 0.105741
1.2260925 0.80539221 0.094555259
1.2350054 0.81124693 0.083905324
1.2271564 0.80609107 0.072142296
1.2275248 0.80633301 0.062531285
1.2362874 0.81208897 0.050050687
1.2449608 0.8177864 0.037391849
1.236782 0.81241393 0.027456643
1.2118486 0.79603571 0.015816733
1.2286302 0.80705917 0.0048233834
1.2369831 0.81254601 -0.0064576976
1.2285485 0.80700552 -0.017625483
1.2284 0.80690795 -0.028861528
1.2365352 0.81225187 -0.040342826
1.2445465 0.8175143 -0.053611573
1.2107093 0.79528737 -0.064815633
1.2185366 0.80042893 -0.077988155
1.2095795 0.79454517 -0.090086453
1.2090607 0.79420447 -0.099556349
1.2166215 0.79917097 -0.1129498
1.2240785 0.80406928 -0.12650867
1.2231091 0.80343252 -0.13928427
1.2220467 0.80273461 -0.15204926
1.237502 0.81288683 -0.16704488
1.2365617 0.81226915 -0.17673178
1.2353963 0.81150371 -0.18803646
1.2424446 0.81613362 -0.200642
1.2411264 0.81526768 -0.2119998
1.2395328 0.81422091 -0.22495013
1.2463166 0.81867695 -0.23782976
1.2362925 0.81209236 -0.24917217
1.2261986 0.80546188 -0.26032346
1.2242532 0.80418396 -0.27311611
1.23862 0.81362128 -0.28972536
1.2367327 0.81238157 -0.30104557
1.2344899 0.81090826 -0.31394666
1.2403129 0.81473333 -0.32898822
1.2297224 0.80777663 -0.33967608
1.2275213 0.80633074 -0.35088784
1.2252434 0.80483454 -0.36210474
1.2309982 0.80861467 -0.37574697
1.2282107 0.80678368 -0.38858533
1.2253298 0.80489117 -0.4013941
1.2303972 0.80821991 -0.41689712
1.219288 0.80092251 -0.42691895
1.2245282 0.80436462 -0.44094029
1.2212654 0.80222142 -0.45370862
1.2258699 0.805246 -0.46949103
1.2223989 0.802966 -0.48227227
1.2267493 0.80582368 -0.49823117
1.2230687 0.80340594 -0.51102048
1.227645 0.80641204 -0.52553535
1.2232697 0.80353796 -0.53994262
1.2271008 0.80605459 -0.55623692
1.2229971 0.80335891 -0.56902772
1.2182733 0.80025601 -0.5833528
1.2139721 0.79743063 -0.59605038
1.2167192 0.79923505 -0.61418068
1.2121931 0.79626203 -0.62686092
1.2152177 0.79824883 -0.6435408
1.2174928 0.79974329 -0.66190791
1.2277764 0.80649835 -0.68302679
1.2076522 0.79327923 -0.68722945
1.2107462 0.79531157 -0.7026189
1.2205515 0.80175245 -0.72411823
1.2152234 0.79825264 -0.73683423
1.209803 0.79469198 -0.74949414
1.2116786 0.79592407 -0.76677239
1.1986859 0.78738946 -0.77464175
1.2149471 0.79807109 -0.80161458
1.208317 0.79371589 -0.81583399
1.1081629 0.72792697 -0.76354259
0.87915885 0.57749939 -0.61804056
0.75941235 0.49884066 -0.54594034
0.74114865 0.48684368 -0.5433985
0.71540838 0.46993548 -0.53614497
0.71851492 0.4719761 -0.54897618
0.69997227 0.45979583 -0.54646742
0.67508101 0.44344535 -0.53714228
0.65681726 0.43144831 -0.5338009
0.64602625 0.42435995 -0.5349474
0.63477618 0.41697001 -0.53674501
0.63083714 0.41438255 -0.54335219
0.62635237 0.41143659 -0.55072922
0.62900317 0.41317785 -0.56323981
0.60442114 0.39703047 -0.55239654
0.59377164 0.39003506 -0.55254674
0.5826664 0.38274029 -0.55327183
0.56560636 0.37153396 -0.54676497
0.56108868 0.36856636 -0.55338806
0.55703104 0.36590102 -0.5592252
0.52067143 0.3420172 -0.53322184
0.52936637 0.34772873 -0.55177528
0.5248093 0.34473526 -0.55797207
0.49592346 0.32576081 -0.53660023
0.48535675 0.31881979 -0.53561437
0.48752573 0.32024455 -0.54750538
0.4835138 0.31760922 -0.55257469
0.46099165 0.3028149 -0.53729868
0.46892676 0.3080273 -0.55617166
0.46434465 0.30501741 -0.56164795
0.45440477 0.29848814 -0.55930418
0.43248984 0.28409272 -0.54290318
0.43422711 0.28523391 -0.55469668
0.41884467 0.27512953 -0.54449326
0.4143607 0.2721841 -0.54938239
0.4103379 0.26954162 -0.55368775
0.3728705 0.24493013 -0.51320249
0.38539755 0.25315887 -0.53988826
0.3590185 0.23583107 -0.51418811
0.24388294 0.16020115 -0.38112557
0.26573697 0.16572861 1.7319117
0.27851099 0.17369522 1.7392992
0.29631776 0.18480052 1.7657986
0.30938143 0.19294776 1.7626839
0.32063028 0.1999632 1.7496603
0.3352026 0.20905133 1.7458627
0.35036281 0.21850607 1.7622715
0.36139056 0.22538361 1.7488852
0.37224692 0.23215425 1.7354068
0.38669792 0.24116671 1.7310122
0.40842795 0.25471878 1.7655607
0.41687918 0.25998947 1.742044
0.42501363 0.26506254 1.7184893
0.44099551 0.27502978 1.7337767
0.45472711 0.28359357 1.7393097
0.46692806 0.29120275 1.745302
0.47721142 0.29761606 1.7309228
0.49539468 0.30895618 1.7449155
0.5071221 0.31627005 1.7296532
0.5284332 0.32956085 1.7526402
0.54430133 0.33945709 1.7565321
0.55270743 0.34469965 1.7422103
0.56396627 0.35172129 1.7371914
0.57976931 0.36157697 1.7514365
0.59586859 0.37161741 1.7546911
0.6153124 0.38374364 1.7561696
0.62338734 0.38877961 1.7413611
0.63799644 0.39789072 1.7448907
0.65089232 0.40593329 1.7382628
0.66373861 0.41394496 1.7315024
0.68365574 0.42636642 1.742764
0.70178926 0.43767548 1.7437981
0.71467453 0.44571152 1.7365142
0.74042571 0.46177137 1.7550319
0.74954891 0.46746111 1.738435
0.7623927 0.47547123 1.7306601
0.78710425 0.49088275 1.7492573
0.79842764 0.49794468 1.7421149
0.81785727 0.5100621 1.7524115
0.83495599 0.52072579 1.7526532
0.83946496 0.52353787 1.7266461
0.88814479 0.55389738 1.7858602
0.90133446 0.56212318 1.7766581
0.91607767 0.57131791 1.7661533
0.93525517 0.58327806 1.7639401
0.95739883 0.5970881 1.771122
0.98135132 0.61202621 1.7767311
0.99446982 0.62020767 1.7665707
1.0075127 0.62834191 1.7562758
1.0301058 0.64243233 1.7623174
1.0561074 0.65864837 1.77756
1.0708507 0.66784316 1.7652661
1.1005241 0.68634909 1.777012
1.1035162 0.68821514 1.7495748
1.1266714 0.70265609 1.7541054
1.1619655 0.72466749 1.7726514
1.1645554 0.72628272 1.7449137
1.2162247 0.75850654 1.7859355
1.2294024 0.76672494 1.7733592
1.2424865 0.77488494 1.7606478
1.2445111 0.7761476 1.7325377
1.246215 0.77721018 1.7045212
1.2084372 0.75364983 1.623974
1.1936103 0.74440295 1.5726597
1.2094815 0.75430107 1.5692624
1.2268147 0.76511115 1.5641069
1.2383496 0.77230489 1.5514302
1.2352304 0.77035964 1.5273676
1.2346778 0.770015 1.5002491
1.2383971 0.77233452 1.4819825
1.2493234 0.77914876 1.4691898
1.2662129 0.78968203 1.4632864
1.2586695 0.78497756 1.4293919
1.2568833 0.78386354 1.4026413
1.2361619 0.7709406 1.3556011
1.238663 0.77250034 1.3376687
1.2296036 0.76685041 1.3048047
1.2316632 0.76813495 1.2870797
1.2387847 0.77257621 1.2775518
1.2417631 0.77443379 1.2582434
1.2369361 0.7714234 1.2340968
1.238369 0.77231699 1.2165396
1.2331057 0.7690345 1.1926594
1.2331084 0.76903623 1.1768291
1.2284944 0.76615864 1.1516521
1.2369751 0.77144766 1.1389737
1.2241321 0.76343805 1.1095328
1.2302676 0.76726449 1.1000668
1.2305684 0.76745212 1.0829675
1.2307039 0.76753664 1.0659529
1.2375821 0.77182627 1.0548339
1.2374594 0.77174973 1.0378808
1.2372048 0.77159095 1.0209661
1.2307318 0.7675541 0.99687499
1.2371475 0.77155519 0.98578328
1.2425954 0.77495289 0.97621948
1.2346994 0.77002841 0.95403022
1.2337064 0.76940912 0.9374851
1.2469174 0.77764827 0.93169749
1.2313088 0.76791388 0.90459216
1.23796 0.77206194 0.89189428
1.243709 0.77564734 0.88071513
1.2274537 0.76550961 0.85425556
1.2248371 0.76387775 0.83974099
1.2228814 0.76265806 0.82371938
1.2281766 0.76596045 0.81270331
1.2334123 0.76922572 0.80161458
1.2318352 0.76824218 0.78414655
1.2300941 0.76715624 0.76677239
1.2281899 0.76596874 0.74949414
1.2336928 0.76940066 0.73683423
1.2314999 0.76803303 0.71967578
1.2367818 0.7713272 0.70698297
1.2343032 0.76978135 0.68995088
1.231667 0.76813728 0.673024
1.2384257 0.7723524 0.65557116
1.2432327 0.77535033 0.64280957
1.2395699 0.77306598 0.62764275
1.2363452 0.77105486 0.61100334
1.2413709 0.77418917 0.59668207
1.2378573 0.77199793 0.58019686
1.2505498 0.77991366 0.5694381
1.2467774 0.77756095 0.55303258
1.2433499 0.77542341 0.53516299
1.2472652 0.77786523 0.52235532
1.2426002 0.77495587 0.50782681
1.2458506 0.7769829 0.49664262
1.2494805 0.77924681 0.48381072
1.244501 0.77614129 0.46949103
1.24793 0.77827978 0.45667404
1.251264 0.78035903 0.44382226
1.245561 0.77680236 0.43134195
1.2401574 0.77343231 0.41738746
1.2428285 0.77509815 0.40620235
1.2454211 0.7767151 0.39501908
1.2397368 0.77316999 0.38126227
1.2507411 0.78003299 0.37093803
1.2534401 0.78171623 0.3580606
1.2395169 0.77303284 0.34061441
1.2416852 0.77438515 0.32946283
1.2440773 0.77587706 0.31668013
1.2377878 0.77195454 0.30342621
1.2477648 0.77817678 0.29584441
1.2496431 0.77934819 0.28461999
1.2431097 0.77527362 0.27153093
1.2534292 0.78170937 0.26047227
1.2467111 0.77751964 0.24753666
1.2566581 0.78372312 0.23788334
1.2497733 0.77942938 0.22507015
1.2511966 0.78031707 0.21380401
1.2441376 0.77591461 0.20119174
1.253642 0.78184211 0.19288537
1.2548565 0.78259951 0.18158533
1.2477227 0.7781505 0.16754076
1.2489158 0.77889454 0.15470213
1.2497481 0.7794137 0.14506537
1.2506505 0.77997649 0.13382752
1.2514821 0.78049505 0.12255615
1.2522389 0.780967 0.11130337
1.2529242 0.78139448 0.10001834
1.2534528 0.7817241 0.090351835
1.2540741 0.78211159 0.077457212
1.2461228 0.77715278 0.064120501
1.2549316 0.78264636 0.054878023
1.25529 0.78286994 0.041969541
1.255553 0.78303397 0.029057864
1.2472358 0.77784687 0.016034894
1.2557883 0.78318071 0.0048561953
1.2473034 0.77788901 -0.0047977269
1.2472358 0.77784687 -0.016034894
1.2470957 0.77775949 -0.027245473
1.2553285 0.7828939 -0.040342826
1.2465502 0.77741927 -0.051302262
1.2122147 0.75600576 -0.062375724
1.2117068 0.75568891 -0.074840419
1.2026372 0.7500326 -0.086688928
1.2019495 0.74960375 -0.099054195
1.2435719 0.77556181 -0.11372343
1.2427979 0.77507907 -0.1249238
1.2419533 0.77455235 -0.13609132
1.2494766 0.77924436 -0.14827833
1.2569164 0.78388417 -0.16058294
1.2559977 0.78331125 -0.17027466
1.2632784 0.78785187 -0.18280402
1.2618766 0.78697771 -0.19578929
1.2519764 0.78080332 -0.20736793
1.2424033 0.77483302 -0.21556401
1.2491434 0.77903652 -0.22987615
1.2473936 0.77794528 -0.24271426
1.245549 0.77679485 -0.25553387
1.2524529 0.78110051 -0.26691532
1.250689 0.78000051 -0.27816549
1.2488482 0.77885246 -0.28942516
1.2466576 0.77748626 -0.30225798
1.2526679 0.78123462 -0.31716824
1.2419918 0.77457637 -0.32785356
1.2477803 0.77818644 -0.34288517
1.2451938 0.77657336 -0.35570493
1.2428557 0.77511513 -0.3668873
1.2486544 0.77873158 -0.38057759
1.2543535 0.78228587 -0.3943679
1.2439526 0.77579927 -0.4013941
1.2494793 0.77924597 -0.41530389
1.2467552 0.77754712 -0.42652303
1.2516773 0.78061682 -0.44220051
1.2325547 0.76869082 -0.44757515
1.2530223 0.78145564 -0.47091618
1.2575489 0.78427869 -0.4869062
1.245858 0.77698749 -0.49661699
1.2341195 0.76966679 -0.50612462
1.2463031 0.77726519 -0.52553535
1.2503282 0.77977544 -0.54178387
1.2462689 0.77724385 -0.55462229
1.242635 0.77497751 -0.56583405
1.2378659 0.77200329 -0.58017141
1.2262062 0.76473165 -0.58754045
1.2296412 0.76687384 -0.60397601
1.2251222 0.76405555 -0.61659932
1.2360578 0.77087563 -0.63719064
1.2461756 0.77718568 -0.65964288
1.2489535 0.77891803 -0.67661071
1.2355775 0.77057606 -0.68677568
1.2387435 0.77255058 -0.70219648
1.2411112 0.77402717 -0.71932268
1.2281564 0.76594788 -0.72756839
1.2234012 0.76298225 -0.73861194
1.2261077 0.76467019 -0.75421435
1.2436554 0.77561396 -0.7793228
1.2311145 0.7677927 -0.78571707
1.2334123 0.76922572 -0.80161458
1.2363373 0.77104998 -0.81599748
1.2310206 0.76773411 -0.82708681
1.2402979 0.77351999 -0.84819102
1.242079 0.77463078 -0.86439973
1.2218895 0.76203948 -0.86526394
1.1575582 0.72191882 -0.8359977
0.92105919 0.57442462 -0.67829669
0.73658645 0.45937702 -0.5543583
0.69689763 0.43462482 -0.53463531
0.69947183 0.43623024 -0.54821736
0.6672895 0.41615951 -0.53295022
0.66282183 0.41337323 -0.54063833
0.6379894 0.39788631 -0.53014714
0.64042479 0.39940515 -0.54335219
0.62953436 0.39261326 -0.54400486
0.62497652 0.38977072 -0.551256
0.60737371 0.37879261 -0.5455395
0.60279596 0.37593767 -0.55254674
0.57872558 0.36092603 -0.54010099
0.56100255 0.34987298 -0.53419566
0.54391927 0.33921883 -0.5272404
0.54599708 0.34051469 -0.53994161
0.52907401 0.32996053 -0.53254741
0.53151441 0.33148247 -0.54452902
0.53381711 0.33291858 -0.55660087
0.51656002 0.32215607 -0.54934621
0.48795813 0.30431831 -0.52696037
0.51454568 0.32089978 -0.56671518
0.49188414 0.30676678 -0.55131125
0.47508225 0.29628816 -0.54305631
0.47104305 0.29376912 -0.54792166
0.49091509 0.30616245 -0.58109117
0.46827272 0.29204136 -0.56527203
0.44644642 0.27842927 -0.5484184
0.43654799 0.27225605 -0.54571283
0.43773672 0.27299741 -0.55808508
0.41647238 0.25973576 -0.54035926
0.40631187 0.25339907 -0.53767979
0.37996429 0.23696724 -0.51173592
0.37567934 0.23429491 -0.51611137
0.33815536 0.21089281 -0.47494754
0.25827014 0.16107188 -0.39667666
0.27755022 0.16414274 1.7505493
0.28578931 0.16901532 1.7182137
0.30380476 0.17966962 1.7446551
0.31689778 0.18741283 1.7415086
0.33367419 0.19733438 1.7577602
0.34686455 0.20513512 1.7543103
0.36002851 0.21292026 1.7507268
0.37731129 0.22314127 1.7664213
0.39056504 0.23097952 1.7625287
0.40099758 0.2371493 1.7386665
0.42094263 0.24894479 1.7634437
0.43417236 0.25676882 1.7591089
0.44083697 0.26071027 1.736028
0.45636752 0.26989499 1.7410587
0.47200701 0.27914417 1.745906
0.48675057 0.28786349 1.7404335
0.49543998 0.29300237 1.726583
0.50793165 0.30038995 1.7322446
0.53231001 0.31480727 1.7647783
0.54721028 0.32361925 1.7586163
0.54977572 0.32513648 1.7255819
0.56721294 0.3354488 1.7393515
0.57239342 0.33851251 1.7156267
0.59469932 0.35170421 1.7484384
0.62250489 0.36814836 1.7677823
0.62582785 0.37011355 1.7445502
0.64400589 0.38086405 1.7573557
0.65211815 0.3856616 1.7424141
0.66703027 0.39448059 1.745725
0.67655671 0.40011451 1.7297918
0.70404017 0.41636822 1.7591375
0.70243859 0.41542104 1.7158104
0.73248976 0.43319324 1.7545092
0.74564052 0.44097057 1.7470161
0.7626254 0.45101541 1.74831
0.77968627 0.46110517 1.7493917
0.80651599 0.47697225 1.7669265
0.80909985 0.47850034 1.7312697
0.8246066 0.48767099 1.7328014
0.84605134 0.50035334 1.7417933
0.86769325 0.51315236 1.7504808
0.88245636 0.52188325 1.7404909
0.922095 0.54532546 1.782908
0.92809254 0.54887241 1.755273
0.95951813 0.56745744 1.7796957
0.96988332 0.57358742 1.760234
0.98777175 0.58416659 1.7587087
1.0121207 0.59856653 1.7640096
1.0350051 0.6121003 1.7702253
1.0482624 0.61994064 1.7596647
1.0663998 0.63066709 1.7571427
1.0946213 0.64735723 1.7706307
1.1027973 0.65219247 1.7513946
1.1381569 0.67310411 1.7707709
1.1566244 0.68402576 1.7671244
1.171488 0.69281608 1.7538592
1.2059616 0.71320367 1.7733012
1.2371081 0.73162365 1.7828041
1.2504522 0.7395153 1.7701939
1.2708626 0.75158608 1.7635268
1.265702 0.74853408 1.7293338
1.2786434 0.75618756 1.7164357
1.2361096 0.73103315 1.626814
1.2367771 0.73142791 1.5993422
1.2502441 0.73939228 1.5851463
1.2503625 0.73946232 1.5577834
1.2693859 0.75071275 1.5507063
1.2601774 0.74526685 1.5194178
1.2715422 0.75198799 1.5065837
1.2767305 0.75505632 1.4865561
1.2619704 0.74632722 1.4470751
1.2714336 0.75192374 1.4358507
1.2746265 0.75381202 1.4176018
1.2651072 0.74818224 1.3856866
1.2741878 0.75355256 1.3744104
1.2755573 0.75436246 1.3579363
1.2716544 0.75205433 1.3331952
1.2687393 0.75033039 1.306983
1.2655284 0.74843144 1.2809325
1.2673869 0.74953055 1.2631446
1.270245 0.75122076 1.2438027
1.2530203 0.74103409 1.2053666
1.2542255 0.7417469 1.18791
1.2552924 0.74237788 1.1704769
1.2696936 0.75089473 1.1655194
1.2694439 0.75074703 1.1496917
1.2564855 0.74308348 1.120121
1.2717254 0.7520963 1.1133578
1.2662015 0.74882948 1.0885257
1.2593948 0.74480397 1.0655007
1.2663689 0.74892843 1.0542846
1.2591842 0.74467945 1.0315075
1.2598066 0.74504757 1.013011
1.2664354 0.74896777 1.0017928
1.2658236 0.74860603 0.98497695
1.2641627 0.74762368 0.96982038
1.2705071 0.75137579 0.9585647
