# .PCD v0.7 - Point Cloud Data file format
VERSION 0.7
FIELDS x y z
SIZE 4 4 4
TYPE F F F
COUNT 1 1 1
WIDTH 1489
HEIGHT 1
VIEWPOINT 0 0 0 1 0 0 0
POINTS 1489
DATA ascii
0.41895232 1.2236595 0.94187915
0.41929287 1.2246542 0.92331767
0.41625908 1.2157933 0.90192854
0.41879269 1.2231933 0.89067996
0.41592759 1.214825 0.86816144
0.41836578 1.2219464 0.85692298
0.41805741 1.2210459 0.84016377
0.41710347 1.2182596 0.826298
0.41913733 1.2242 0.81643021
0.41563702 1.2139764 0.7959944
0.41759589 1.2196978 0.78616208
0.41952598 1.2253351 0.77630645
0.41837364 1.2219694 0.76272821
0.42025006 1.22745 0.75283229
0.41646975 1.2164086 0.73300958
0.41852587 1.222414 0.7217617
0.41770858 1.220027 0.7056585
0.41683233 1.2174675 0.68965459
0.41876587 1.2231151 0.67839861
0.41755381 1.2195748 0.66391718
0.4220728 1.2327738 0.65857685
0.42078921 1.2290248 0.64415425
0.42528126 1.2421449 0.63860154
0.42078179 1.2290031 0.62136471
0.41351002 1.2077639 0.59867823
0.41518655 1.2126607 0.58751523
0.41387522 1.2088306 0.57222021
0.40934432 1.1955969 0.55442327
0.41089591 1.2001288 0.54337418
0.41241622 1.2045692 0.53228366
0.41072419 1.1996273 0.51874858
0.4089866 1.1945521 0.50534678
0.41022596 1.198172 0.49567989
0.40841332 1.1928778 0.48243263
0.40672618 1.18795 0.46791941
0.41396061 1.20908 0.46514741
0.41220629 1.2039561 0.45063925
0.41346443 1.2076308 0.43951702
0.41161925 1.2022414 0.42518824
0.41280547 1.2057061 0.41408277
0.41381645 1.2086589 0.40435073
0.41494367 1.2119513 0.39318687
0.40672496 1.1879464 0.37344098
0.41087779 1.2000757 0.36523628
0.41501495 1.2121595 0.35683605
0.40963247 1.1964386 0.34181273
0.41359836 1.2080219 0.33469307
0.41127551 1.2012374 0.3224608
0.4120602 1.2035294 0.31276748
0.40967131 1.1965519 0.30072045
0.4072454 1.1894665 0.28882656
0.41101059 1.2004638 0.28276688
0.40862659 1.1935006 0.26959336
0.4093731 1.195681 0.25857443
0.4100014 1.1975161 0.24890566
0.41052032 1.1990317 0.24061601
0.41755977 1.2195923 0.23310605
0.41493174 1.2119164 0.221563
0.41227233 1.204149 0.21013516
0.40957966 1.1962843 0.19886796
0.41646731 1.2164015 0.19215223
0.4136591 1.2081994 0.18231982
0.4141587 1.2096586 0.17116866
0.41462678 1.2110257 0.16000444
0.41184571 1.2029029 0.14767434
0.41546816 1.2134831 0.13764033
0.4126178 1.205158 0.12546194
0.41614166 1.2154504 0.11664696
0.41319031 1.2068301 0.10599451
0.41021013 1.1981258 0.095510326
0.41366643 1.2082207 0.086502351
0.4138681 1.2088099 0.076759577
0.41404608 1.2093296 0.066990025
0.41421968 1.2098367 0.055832814
0.41432917 1.2101564 0.047462072
0.41120967 1.2010452 0.036014404
0.40805727 1.1918378 0.024738453
0.41135064 1.2014569 0.013853276
0.41137415 1.2015256 0.0027707079
0.41136903 1.2015105 -0.0069156582
0.4113338 1.2014078 -0.017997932
0.41126728 1.2012134 -0.029078832
0.41764453 1.2198398 -0.040789921
0.41427678 1.2100035 -0.051636562
0.41409242 1.209465 -0.064201169
0.41389519 1.2088889 -0.075354628
0.40723297 1.1894302 -0.083768427
0.4102107 1.1981274 -0.09548822
0.40992516 1.1972934 -0.10653591
0.41283366 1.2057885 -0.11850128
0.4093053 1.195483 -0.12723884
0.40897903 1.19453 -0.13687271
0.41506326 1.2123005 -0.14882804
0.41146889 1.2018024 -0.15736744
0.41112646 1.2008022 -0.16567804
0.4106425 1.1993886 -0.17674772
0.4165355 1.2166007 -0.19073839
0.41598049 1.2149795 -0.20195286
0.41539377 1.2132659 -0.21315193
0.41477546 1.21146 -0.22433479
0.41429096 1.2100449 -0.23271076
0.4136174 1.2080775 -0.24386315
0.40973607 1.1967411 -0.25303546
0.4121758 1.2038671 -0.26611137
0.41140792 1.2016242 -0.27720553
0.41386878 1.2088118 -0.28911364
0.41314247 1.2066904 -0.29885027
0.41239041 1.2044938 -0.30859169
0.41475815 1.2114093 -0.32072267
0.41081583 1.1998949 -0.3279978
0.41300187 1.2062798 -0.34164113
0.41214582 1.2037795 -0.35135582
0.41425163 1.2099299 -0.3651917
0.41320357 1.2068689 -0.37633801
0.41225964 1.2041118 -0.38607863
0.4112938 1.201291 -0.39577451
0.41015944 1.1979777 -0.40683997
0.40899381 1.1945732 -0.41787443
0.40487987 1.1825573 -0.4243001
0.40060702 1.1700773 -0.43189475
0.38717639 1.1308497 -0.42915422
0.3769843 1.101081 -0.42790571
0.36985061 1.0802453 -0.42974505
0.35970983 1.0506264 -0.42765978
0.35578039 1.0391495 -0.43126398
0.35439059 1.0350902 -0.44203579
0.33517197 0.97895718 -0.42860544
0.33112025 0.96712315 -0.4325878
0.33301276 0.97265065 -0.4443571
0.3348687 0.97807145 -0.45622271
0.33372924 0.97474331 -0.46411231
0.33551607 0.97996217 -0.47613347
0.33432725 0.97649002 -0.48403776
0.3329463 0.97245657 -0.49302629
0.33154002 0.9683491 -0.50197732
0.33608478 0.98162329 -0.51871252
0.33479053 0.97784317 -0.52662897
0.33654335 0.98296267 -0.53798044
0.33520445 0.97905213 -0.54588914
0.33079696 0.96617883 -0.55015624
0.33490559 0.97817922 -0.56868589
0.33066148 0.96578318 -0.57168686
0.3346574 0.9774543 -0.59049761
0.33297554 0.97254193 -0.59949106
0.33405206 0.97568619 -0.61355168
0.33230501 0.9705835 -0.6225279
0.33373627 0.97476393 -0.63447255
0.3321591 0.97015733 -0.64231235
0.33329079 0.97346276 -0.65550554
0.33166167 0.96870446 -0.66333419
0.33541942 0.97968 -0.68214434
0.33396608 0.97543514 -0.68890709
0.33225441 0.97043574 -0.6967507
0.33051944 0.96536827 -0.70457155
0.33407187 0.97574413 -0.72382277
0.33226982 0.97048068 -0.7316857
0.3333362 0.97359538 -0.74424392
0.33643582 0.98264861 -0.76505727
0.33166927 0.96872669 -0.7680912
0.32691139 0.95483005 -0.77092701
0.33011538 0.9641881 -0.79086357
0.32532567 0.95019853 -0.79352754
0.33064219 0.96572685 -0.82106477
0.32580256 0.95159137 -0.82360584
0.32595024 0.95202279 -0.83875448
0.32663962 0.9540363 -0.85177535
0.32943794 0.96220946 -0.87248129
0.33215752 0.97015274 -0.89335042
0.33721372 0.98492068 -0.92104185
0.33766577 0.98624104 -0.93451083
0.33022547 0.96450973 -0.93009257
0.33470523 0.97759396 -0.95936567
0.33433515 0.97651303 -0.975214
0.33425355 0.97627479 -0.98998088
0.33144248 0.96806425 -0.99894816
0.34009588 0.99333876 -1.0430785
0.33978352 0.99242646 -1.0581762
0.3394222 0.99137115 -1.0733013
0.33637542 0.98247218 -1.0824047
0.33590993 0.9811126 -1.0975803
0.33720249 0.9848879 -1.121245
0.33402026 0.97559333 -1.1302867
0.33297476 0.97253972 -1.1466885
0.32972077 0.96303558 -1.1556153
0.33068117 0.96584064 -1.179577
0.30765748 0.89859402 -1.1219517
0.19434169 0.56762558 -0.77487576
0.056084216 0.16380858 -0.24499246
0.1076391 0.29176855 1.7526222
0.11227319 0.30432978 1.7501937
0.1175552 0.31864733 1.7472963
0.1248984 0.33855194 1.7736638
0.12946728 0.35093641 1.7504804
0.13550229 0.36729506 1.7569102
0.14002147 0.37954482 1.7436857
0.14543895 0.39422956 1.7502658
0.15023075 0.40721828 1.7571864
0.15467314 0.41925991 1.7436448
0.16082229 0.4359279 1.7493436
0.16701756 0.45272091 1.7548643
0.17201678 0.46627191 1.7404312
0.17887212 0.4848541 1.7659335
0.18254185 0.49480134 1.7523556
0.18716247 0.50732607 1.7482822
0.18968678 0.5141685 1.7250361
0.19745444 0.53522366 1.7493277
0.20031835 0.54298663 1.7360697
0.20780085 0.56326884 1.7498705
0.21307825 0.5775739 1.7445648
0.22069985 0.5982331 1.7579274
0.2260011 0.61260277 1.752296
0.23443042 0.63545144 1.764467
0.23975089 0.64987326 1.7584893
0.24505311 0.66424555 1.7523775
0.25297022 0.68570578 1.7754475
0.25563228 0.69292164 1.7505747
0.25953677 0.70350522 1.7348835
0.26616782 0.72147948 1.7374182
0.27283385 0.7395485 1.7397499
0.27887103 0.75591296 1.742764
0.28412426 0.77015251 1.7356666
0.28935584 0.78433335 1.7284369
0.29983303 0.81273299 1.7470161
0.30509833 0.82700515 1.73939
0.30968115 0.83942747 1.7326163
0.31974721 0.86671275 1.7512769
0.32174152 0.87211853 1.725541
0.33462161 0.9070316 1.7622207
0.34263963 0.92876536 1.7722565
0.34626532 0.93859321 1.7548627
0.35744777 0.96890455 1.7708628
0.36034578 0.97675997 1.7543349
0.37168148 1.0074867 1.7696676
0.37336981 1.0120631 1.7432221
0.38231468 1.0363094 1.7506566
0.39507744 1.0709043 1.7745923
0.40042236 1.0853924 1.7645638
0.40573683 1.0997978 1.7544008
0.41491631 1.1246798 1.7606362
0.42152175 1.1425847 1.7596647
0.42815673 1.1605695 1.7584823
0.44218242 1.1985879 1.7787528
0.44753814 1.2131052 1.7675365
0.45079193 1.221925 1.7481664
0.45122617 1.2231021 1.7222126
0.45007172 1.2199728 1.6870097
0.45149773 1.2238382 1.6584541
0.45865321 1.2432339 1.6548132
0.45269918 1.2270949 1.6044319
0.45251629 1.2265991 1.5789819
0.4494091 1.2181767 1.5474098
0.45572591 1.2352991 1.5450728
0.45130387 1.2233126 1.5033067
0.44895551 1.2169471 1.4693804
0.45051983 1.2211875 1.4519756
0.44501993 1.2062793 1.4124261
0.44639459 1.2100054 1.3952128
0.44295844 1.2006915 1.3634617
0.44416508 1.2039621 1.3463999
0.44770643 1.2135614 1.3365731
0.44637784 1.2099601 1.3123808
0.4473846 1.212689 1.2954274
0.44833571 1.2152671 1.2784839
0.44721115 1.2122189 1.253207
0.44847387 1.2156416 1.2349845
0.44966075 1.2188588 1.2167943
0.44313189 1.2011616 1.1783229
0.45437533 1.2316382 1.1872281
0.44242039 1.1992329 1.1358716
0.45365599 1.2296884 1.1444049
0.44616583 1.2093854 1.1082973
0.44908521 1.2172987 1.0984107
0.44931313 1.2179165 1.08208
0.45256433 1.2267293 1.0707104
0.45578107 1.2354487 1.0592593
0.45043012 1.2209443 1.0305376
0.45664144 1.2377808 1.0238541
0.45421091 1.2311926 1.0001787
0.45167258 1.2243121 0.9767046
0.44902742 1.2171421 0.9534356
0.45189008 1.2249017 0.94207811
0.44906968 1.2172565 0.91908801
0.4518286 1.224735 0.90773076
0.45169428 1.2243708 0.89066726
0.44894588 1.2169211 0.86668956
0.45154652 1.2239704 0.85533744
0.45120183 1.2230361 0.83851045
0.45079008 1.2219199 0.82176638
0.45619819 1.2365793 0.81563157
0.449467 1.2183336 0.78996372
0.4518359 1.2247548 0.77860135
0.4511824 1.2229835 0.76213253
0.45046407 1.2210363 0.74575627
0.45269942 1.2270955 0.73437047
0.44856751 1.2158954 0.71469253
0.45017692 1.2202579 0.70619494
0.45202807 1.2252756 0.69625437
0.45385706 1.2302334 0.68625033
0.45565546 1.2351081 0.67622924
0.45743135 1.2399219 0.66614568
0.45272884 1.2271752 0.6485967
0.45467061 1.2324387 0.6371575
0.45657778 1.2376082 0.62566978
0.44902995 1.2171489 0.60151517
0.46051306 1.2482753 0.60111284
0.45259506 1.2268126 0.57878196
0.46341878 1.2561516 0.58217365
0.4585731 1.2430167 0.56410998
0.46005225 1.2470262 0.55396527
0.45208901 1.225441 0.53104621
0.45367578 1.2297421 0.51962757
0.45199943 1.225198 0.50456542
0.45655623 1.2375498 0.49812326
0.45136639 1.2234821 0.48110271
0.45587957 1.2357156 0.47453195
0.45076272 1.2218457 0.45640537
0.44868207 1.216206 0.44320127
0.45000365 1.2197882 0.43187192
0.44799682 1.2143486 0.41744027
0.45254385 1.2266738 0.40911543
0.44698864 1.2116157 0.39330456
0.44137895 1.1964099 0.37774041
0.44901535 1.2171093 0.37353709
0.44985193 1.2193769 0.36503839
0.44746533 1.2129078 0.35246181
0.45172891 1.2244648 0.34514791
0.4459233 1.208728 0.33019543
0.45014125 1.2201613 0.32276821
0.44749814 1.2129968 0.31190416
0.44493958 1.2060615 0.29974067
0.4457179 1.2081712 0.28992727
0.44647199 1.2102153 0.28007454
0.44381049 1.203001 0.26818076
0.44790027 1.2140868 0.26034307
0.44508287 1.2064499 0.24995978
0.44572976 1.2082034 0.2401447
0.44635215 1.2098904 0.23029312
0.4503589 1.2207513 0.22213347
0.44751734 1.2130488 0.21057276
0.44798476 1.2143158 0.20210588
0.44508153 1.2064463 0.19076084
0.44906878 1.2172542 0.1809129
0.44616607 1.209386 0.16828924
0.44665739 1.2107178 0.1570338
0.45044202 1.2209766 0.14972728
0.44738361 1.2126863 0.1387073
0.44429263 1.2043079 0.12785363
0.4480646 1.2145323 0.1189521
0.44840682 1.2154598 0.10765067
0.44522658 1.2068394 0.09701442
0.44550264 1.2075878 0.085785374
0.44920018 1.2176104 0.075127706
0.44595298 1.2088085 0.063308544
0.44958559 1.218655 0.052466054
0.44625196 1.2096188 0.042207617
0.44981048 1.2192646 0.03262376
0.44641417 1.2100586 0.023931803
0.44646445 1.2101948 0.014071438
0.44648859 1.2102603 0.0042327647
0.44302562 1.2008735 -0.0055850358
0.44645891 1.2101798 -0.015467261
0.44986543 1.2194136 -0.0255238
0.45323101 1.2285364 -0.037148714
0.44964275 1.21881 -0.048203669
0.44948003 1.2183689 -0.059538528
0.44928309 1.2178351 -0.07086885
0.44908294 1.2172925 -0.08076717
0.44540337 1.2073187 -0.089985847
0.44515288 1.2066396 -0.099798113
0.4448345 1.2057767 -0.11101781
0.44448224 1.2048218 -0.12222905
0.4476392 1.2133791 -0.13164406
0.44727781 1.2123996 -0.14152694
0.4502705 1.2205116 -0.153974
0.44985092 1.2193743 -0.16389164
0.44940415 1.2181633 -0.17382243
0.4489322 1.216884 -0.18372041
0.44843298 1.2155308 -0.19363032
0.44790879 1.2141099 -0.20350634
0.45085377 1.2220926 -0.21358986
0.45027545 1.220525 -0.22354135
0.44958311 1.2186483 -0.23488548
0.44885656 1.2166789 -0.24621172
0.44828919 1.2151411 -0.25469416
0.44760379 1.2132832 -0.26456523
0.45017242 1.2202457 -0.27793014
0.44931582 1.2179238 -0.2892696
0.44516486 1.2066721 -0.29693538
0.44761658 1.2133179 -0.31048232
0.44666174 1.2107296 -0.32175612
0.4456729 1.2080493 -0.3330054
0.45133659 1.2234014 -0.34940571
0.44692877 1.2114534 -0.35809943
0.44943717 1.2182528 -0.3692784
0.44830468 1.215183 -0.38059583
0.44382593 1.2030427 -0.38898146
0.44624072 1.2095884 -0.40033114
0.44517094 1.2066886 -0.41015282
0.44736215 1.2126281 -0.42308396
0.44295114 1.2006717 -0.42974639
0.42855075 1.1616377 -0.42783436
0.41435567 1.1231601 -0.4239347
0.40639418 1.1015797 -0.42879599
0.39552182 1.0721089 -0.42725301
0.38791716 1.0514954 -0.42880946
0.38016376 1.030479 -0.43126398
0.37242556 1.0095036 -0.43336079
0.36150497 0.97990215 -0.4312841
0.35700107 0.96769369 -0.43648499
0.35884473 0.97269118 -0.44944674
0.36063704 0.97754943 -0.46253437
0.36552846 0.99080825 -0.47988322
0.36092663 0.97833443 -0.48486468
0.36276042 0.98330516 -0.49710748
0.36455342 0.98816532 -0.50944102
0.3694033 1.0013115 -0.52632356
0.36181822 0.98075122 -0.52546608
0.36329612 0.98475724 -0.53913742
0.36185902 0.98086178 -0.54714555
0.3632451 0.98461896 -0.56096214
0.36153695 0.97998875 -0.57009912
0.3628248 0.98347962 -0.58405989
0.36104688 0.9786604 -0.59318542
0.36246607 0.98250723 -0.60613358
0.36062148 0.97750729 -0.61524922
0.35874945 0.97243291 -0.62431806
0.36003822 0.97592634 -0.63744825
0.36152574 0.97995836 -0.64952344
0.35980058 0.97528213 -0.65747112
0.36387244 0.98631942 -0.67621809
0.36207673 0.98145199 -0.68421668
0.36313784 0.98432821 -0.6977312
0.35581061 0.96446687 -0.69339919
0.3594076 0.97421694 -0.71367186
0.35723835 0.96833688 -0.72270632
0.35785967 0.97002107 -0.73749274
0.35841867 0.97153628 -0.75236511
0.35920668 0.97367227 -0.76618069
0.3599377 0.97565383 -0.7800926
0.35206676 0.9543187 -0.77699733
0.35820863 0.97096694 -0.80312502
0.35305342 0.95699316 -0.80592638
0.35330272 0.95766896 -0.82106477
0.35348725 0.95816916 -0.83627665
0.35658643 0.96656978 -0.85684824
0.35695824 0.96757764 -0.87113392
0.35989687 0.97554314 -0.89201444
0.36048064 0.97712553 -0.90536147
0.35514009 0.96264935 -0.90778947
0.36267328 0.98306894 -0.94347417
0.36491349 0.98914129 -0.96609402
0.36451295 0.98805559 -0.98207766
0.36693636 0.9946245 -1.0038326
0.36676461 0.99415892 -1.0188384
0.36406437 0.98683965 -1.0268908
0.36625284 0.99277174 -1.0489819
0.36347303 0.98523676 -1.0570222
0.36026657 0.97654527 -1.066146
0.36223292 0.9818753 -1.0884889
0.36368552 0.98581272 -1.1121179
0.36031264 0.97667015 -1.121245
0.35924506 0.97377634 -1.1376742
0.35117444 0.95189995 -1.1317964
0.35231814 0.9550001 -1.1556153
0.3420192 0.92708367 -1.14177
0.34216082 0.92746753 -1.1677457
0.2182558 0.59160829 -0.81441027
0.11725464 0.29615143 1.7614329
0.12222206 0.30869767 1.7487617
0.12927157 0.32650271 1.7654135
0.13347885 0.33712909 1.7528912
0.14065909 0.35526431 1.7692095
0.14472026 0.36552164 1.746296
0.14963031 0.37792301 1.7432398
0.15782622 0.3986235 1.7687821
0.1644007 0.41522875 1.7746711
0.16637754 0.42022172 1.7320024
0.17245254 0.43556538 1.7483257
0.17806238 0.44973424 1.7441711
0.18568805 0.46899447 1.7591089
0.19237757 0.48589024 1.7642283
0.19911402 0.50290459 1.7691638
0.20297238 0.51264971 1.7554466
0.20677656 0.52225798 1.741663
0.21397384 0.54043621 1.7563155
0.21938029 0.55409139 1.7619463
0.22382227 0.56531048 1.7472342
0.23314707 0.5888623 1.7701083
0.23501356 0.59357649 1.736357
0.24578436 0.62078041 1.7681408
0.2501246 0.63174266 1.752923
0.25640687 0.64760989 1.7569739
0.26204133 0.6618408 1.7508287
0.26694947 0.67423743 1.7453487
0.27543026 0.69565743 1.7573557
0.27959365 0.70617294 1.7415932
0.2904757 0.7336579 1.7722782
0.28852507 0.72873116 1.7198268
0.29783985 0.75225759 1.7301733
0.30428487 0.76853585 1.7329638
0.30984035 0.78256738 1.7256845
0.31701478 0.80068797 1.7272233
0.33090761 0.83577716 1.7641929
0.33146295 0.83717984 1.7296711
0.33286035 0.84070933 1.7050841
0.34533712 0.87222201 1.7323023
0.35445124 0.89524162 1.7415529
0.3636508 0.91847706 1.7505022
0.36926037 0.9326452 1.7418151
0.38603109 0.97500324 1.7847265
0.39174974 0.98944694 1.7755075
0.39743856 1.0038152 1.7661533
0.40699178 1.0279438 1.7736373
0.41464853 1.0472826 1.7723616
0.41432169 1.0464572 1.7372867
0.42932409 1.0843488 1.7703865
0.43704689 1.1038544 1.7684444
0.44686818 1.1286602 1.7745239
0.45044687 1.1376989 1.7556591
0.46530214 1.1752191 1.7761627
0.4774718 1.2059561 1.7893548
0.47954184 1.2111844 1.7604465
0.48960978 1.2366132 1.7649845
0.48922673 1.2356457 1.7280732
0.4924899 1.2438875 1.7085366
0.48715672 1.2304174 1.6562462
0.48947302 1.2362677 1.6383401
0.48768356 1.2317481 1.6035465
0.4880777 1.2327435 1.5766177
0.4835487 1.2213045 1.5345995
0.48846009 1.2337095 1.5230784
0.48112309 1.2151781 1.4740294
0.48525712 1.2256196 1.4639953
0.48438537 1.2234179 1.4391385
0.48842114 1.233611 1.4290377
0.47924209 1.2104274 1.3839048
0.4862152 1.2280394 1.3797152
0.48750904 1.2313073 1.3624307
0.4881981 1.2330477 1.3466091
0.49250543 1.2439268 1.3349849
0.49151838 1.2414337 1.3092563
0.48989227 1.2373266 1.285118
0.48764861 1.2316598 1.2625819
0.48849532 1.2337984 1.2455978
0.48928308 1.235788 1.2286294
0.48455185 1.2238383 1.1982609
0.48242763 1.2184731 1.1748136
0.48894569 1.2349359 1.1699426
0.4894354 1.2361728 1.1532259
0.4842687 1.2231231 1.1235452
0.48177439 1.2168232 1.1006064
0.48441583 1.2234948 1.0920174
0.48790544 1.2323085 1.0804925
0.48848444 1.2337708 1.0626346
0.48567867 1.2266843 1.0400778
0.48236257 1.2183088 1.0191418
0.49146897 1.2413089 1.019809
0.48923326 1.2356622 0.99468076
0.48944369 1.2361937 0.97712344
0.49256399 1.2440747 0.96548378
0.48963898 1.2366869 0.94220972
0.49264714 1.2442846 0.93056679
0.48953658 1.2364283 0.90757871
0.48973501 1.2369294 0.88891238
0.48949337 1.2363192 0.87178624
0.4922753 1.2433455 0.86014938
0.48912653 1.2353926 0.83633751
0.49179459 1.2421314 0.82471073
0.491276 1.2408216 0.80784267
0.48404396 1.2225555 0.78227842
0.48622629 1.2280674 0.77222699
0.4883852 1.2335203 0.76210743
0.48700693 1.2300391 0.74848384
0.48617318 1.2279333 0.73206252
0.48821443 1.233089 0.72196841
0.48669881 1.2292608 0.70854926
0.48867851 1.234261 0.69842178
0.49062526 1.2391779 0.68827677
0.49254781 1.2440338 0.67806834
0.49443728 1.248806 0.6678437
0.48968488 1.2368028 0.64878929
0.49481311 1.2497553 0.64293987
0.49352506 1.246502 0.62694955
0.49192849 1.2424695 0.61251593
0.49387744 1.2473921 0.60083121
0.49217895 1.2431021 0.58656377
0.49381521 1.2472348 0.57632601
0.495419 1.2512856 0.56607813
0.49336973 1.2461097 0.55344105
0.48126 1.215524 0.52819532
0.49642345 1.2538224 0.53290987
0.49790859 1.2575736 0.52258557
0.4959175 1.2525446 0.50872165
0.49733463 1.2561239 0.49840856
0.49852481 1.25913 0.48955572
0.48252773 1.2187259 0.46257341
0.4944413 1.2488161 0.46085364
0.4854261 1.2260464 0.43962681
0.48314801 1.2202926 0.42644346
0.50205386 1.2680434 0.43000931
0.48581418 1.2270266 0.40347296
0.4800325 1.2124237 0.38626087
0.4881781 1.2329972 0.38183793
0.4819994 1.2173915 0.36774239
0.49026772 1.2382749 0.36154214
0.48784956 1.2321674 0.34737083
0.48894688 1.2349389 0.33579296
0.49358368 1.2466501 0.32655582
0.48398584 1.2224087 0.30655295
0.48495218 1.2248495 0.2950682
0.48228249 1.2181065 0.28146055
0.4831683 1.2203438 0.27001712
0.48391238 1.2222232 0.25999871
0.4846299 1.2240354 0.24994221
0.48893934 1.2349198 0.24168435
0.48588517 1.2272059 0.23126043
0.48652178 1.2288138 0.22116379
0.49076387 1.2395281 0.21265253
0.48406872 1.222618 0.19945578
0.48461464 1.2239969 0.18942077
0.48506066 1.2251234 0.18080068
0.485623 1.2265437 0.16929525
0.4824931 1.2186385 0.15659063
0.4866367 1.229104 0.14624658
0.48708799 1.2302438 0.1347051
0.48378778 1.2219085 0.12364956
0.48407531 1.2226347 0.11504558
0.48809636 1.2327907 0.1043506
0.48474073 1.2243153 0.092078544
0.48131102 1.2156528 0.081411272
0.48523021 1.2255516 0.070532843
0.48543832 1.2260772 0.05902759
0.48557013 1.2264102 0.050395649
0.4893932 1.2360661 0.039177671
0.48581997 1.2270411 0.027367594
0.4822084 1.2179193 0.015729925
0.48960099 1.236591 0.0058032013
0.48591977 1.2272933 -0.0057595684
0.48588279 1.2271998 -0.017278267
0.48580876 1.2270129 -0.028795648
0.48569778 1.2267325 -0.040310837
0.48922819 1.2356493 -0.052215554
0.48539016 1.2259556 -0.061881348
0.48887759 1.2347639 -0.072504289
0.48498568 1.224934 -0.08200974
0.48474073 1.2243153 -0.092078544
0.4844681 1.2236267 -0.102119
0.48421168 1.2229791 -0.11073024
0.48383752 1.2220341 -0.12220445
0.48342651 1.220996 -0.13366936
0.49029657 1.2383478 -0.14732292
0.48986766 1.2372645 -0.15750012
0.48569122 1.226716 -0.16784462
0.48513356 1.2253075 -0.17935173
0.48453891 1.2238055 -0.19084519
0.49126703 1.2407988 -0.20389932
0.48340955 1.2209531 -0.21092322
0.48643339 1.2285905 -0.2225938
0.48941809 1.2361289 -0.23442504
0.48522174 1.2255301 -0.24132055
0.48442802 1.2235255 -0.25281373
0.48359743 1.2214277 -0.26428765
0.48273 1.2192369 -0.27574146
0.48182583 1.216953 -0.28717425
0.48806232 1.2327048 -0.3030417
0.47990742 1.2121078 -0.30997339
0.48617277 1.2279322 -0.32468212
0.48511124 1.2252511 -0.33619466
0.48757166 1.2314655 -0.35023808
0.48657182 1.2289401 -0.36035275
0.48569316 1.2267209 -0.36899588
0.48110548 1.2151337 -0.37628123
0.48709181 1.2302535 -0.39194119
0.48245564 1.2185438 -0.39910841
0.48131838 1.2156715 -0.40911543
0.4873344 1.2308662 -0.42376137
0.47546628 1.2008908 -0.42590278
0.46013647 1.1621721 -0.4243001
0.45180506 1.1411293 -0.42859784
0.44036052 1.1122237 -0.4265455
0.42860404 1.0825303 -0.42664608
0.42032653 1.0616237 -0.42974505
0.40862843 1.0320777 -0.42888057
0.39679816 1.0021977 -0.42866167
0.38858867 0.9814629 -0.43049899
0.39058733 0.98651093 -0.44355121
0.38594225 0.97477883 -0.44772181
0.38804829 0.98009807 -0.45970237
0.39346927 0.99378991 -0.47588187
0.38877022 0.98192149 -0.47988322
0.39408788 0.99535233 -0.49635521
0.39601061 1.0002086 -0.50878119
0.39456728 0.9965632 -0.51698983
0.38980085 0.98452455 -0.52073669
0.39183056 0.98965102 -0.5321275
0.39666262 1.0018554 -0.55049479
0.39487907 0.99735069 -0.55987692
0.39306545 0.99277002 -0.56921637
0.39445513 0.99627995 -0.58329356
0.38934857 0.98338223 -0.5877645
0.39088714 0.98726821 -0.60075676
0.3921304 0.99040836 -0.61500001
0.39356619 0.99403477 -0.6281724
0.38888264 0.98220539 -0.63003397
0.38998896 0.98499966 -0.64442557
0.3879039 0.97973341 -0.65364587
0.39201173 0.99010861 -0.67350698
0.38983321 0.98460627 -0.68277413
0.38790041 0.97972459 -0.69084948
0.38901252 0.98253345 -0.7044127
0.39006627 0.98519486 -0.71808034
0.38803875 0.98007405 -0.72614104
0.38598397 0.97488421 -0.73417783
0.39021003 0.98555809 -0.75260311
0.3880856 0.98019236 -0.76066577
0.3889024 0.98225534 -0.77461565
0.38966823 0.98418963 -0.78862506
0.38743758 0.97855562 -0.79669386
0.38843027 0.98106289 -0.80965269
0.38614574 0.9752928 -0.81767684
0.38671938 0.97674167 -0.83187973
0.39010936 0.98530376 -0.85240316
0.38484848 0.97201627 -0.8541522
0.38810486 0.98024094 -0.87487274
0.3909041 0.98731107 -0.8969453
0.38800782 0.97999591 -0.90617764
0.39062276 0.98660046 -0.92851138
0.39587241 0.99985957 -0.95768774
0.39589614 0.99991947 -0.97258794
0.39817399 1.0056727 -0.9954797
0.39267784 0.99179101 -0.99687248
0.39520162 0.99816531 -1.0187647
0.39498061 0.99760717 -1.0338619
0.39469093 0.99687552 -1.0490273
0.39130595 0.98832601 -1.0583436
0.3913393 0.98841029 -1.0723799
0.39558566 0.99913532 -1.1031049
0.38649806 0.97618264 -1.09913
0.39303014 0.99268079 -1.1374147
0.38889688 0.98224139 -1.1478506
0.38766387 0.97912717 -1.1644427
0.38099837 0.96229202 -1.1672336
0.38690683 0.97721511 -1.2063804
0.37726405 0.95286024 -1.2025511
0.32271093 0.81507474 -1.0657911
0.12201515 0.28814855 1.7522793
0.12719503 0.30038127 1.7600263
0.13392308 0.31627008 1.7669289
0.13989298 0.33036849 1.7536781
0.14430553 0.34078908 1.7411027
0.15275639 0.36074647 1.7670958
0.15788636 0.3728613 1.7538661
0.1656688 0.39124015 1.7697133
0.17168432 0.40544629 1.7659382
0.17671047 0.41731593 1.7523472
0.18292186 0.4319846 1.7585019
0.18786067 0.44364801 1.744702
0.19486091 0.46017966 1.7500468
0.20080841 0.47422513 1.7456192
0.2067406 0.48823452 1.7410587
0.21382551 0.50496608 1.745906
0.2197582 0.51897657 1.7410542
0.22617067 0.5341202 1.7461851
0.23009986 0.54339921 1.7322446
0.24114358 0.56947988 1.7647783
0.2437617 0.57566279 1.7411757
0.25027841 0.59105259 1.7457427
0.25684834 0.60656792 1.7501441
0.26344708 0.62215137 1.7544011
0.26797375 0.63284153 1.7391382
0.27241674 0.64333397 1.723807
0.28276026 0.66776103 1.7453487
0.29021588 0.68536806 1.7481549
0.297712 0.70307076 1.7507596
0.30292195 0.71537447 1.7448719
0.31046471 0.73318732 1.7471256
0.31729564 0.74931908 1.7500699
0.31748995 0.74977797 1.7166924
0.3276796 0.77384162 1.7374393
0.33112437 0.7819767 1.7219957
0.3422364 0.80821866 1.7413089
0.34636316 0.81796438 1.7246933
0.35403419 0.83608007 1.7257259
0.3691209 0.87170857 1.7617815
0.37510169 0.88583267 1.7534535
0.38295916 0.90438879 1.7537169
0.39665154 0.93672436 1.7798076
0.39409053 0.93067634 1.7374218
0.4119274 0.97279954 1.780134
0.41796902 0.98706728 1.7708473
0.42397878 1.0012599 1.7614257
0.43203336 1.0202814 1.7603332
0.44432423 1.0493072 1.7758464
0.44896889 1.060276 1.7562009
0.45709398 1.0794641 1.7544008
0.46962991 1.1090686 1.7689021
0.48305085 1.1407633 1.7816343
0.48458707 1.1443912 1.7544355
0.49814084 1.1763996 1.7664484
0.51107019 1.2069333 1.7793874
0.51944536 1.2267119 1.7758814
0.52546841 1.2409357 1.7641886
0.52499872 1.2398266 1.7272251
0.52358401 1.2364856 1.6919111
0.52513343 1.2401446 1.6630924
0.5233317 1.2358898 1.6281278
0.52702391 1.2446092 1.6072317
0.52673459 1.2439259 1.5816444
0.52953827 1.2505471 1.5622488
0.51610529 1.2188239 1.4993677
0.52836788 1.2477831 1.5115439
0.52759808 1.2459651 1.4863751
0.51816165 1.2236804 1.4407341
0.51977557 1.2274916 1.4232349
0.5219084 1.2325284 1.4043095
0.51852262 1.2245327 1.3710412
0.51711291 1.2212036 1.3466091
0.51835454 1.2241359 1.3293607
0.51951486 1.2268759 1.3121661
0.52620995 1.2426869 1.308905
0.52444804 1.2385261 1.2847596
0.52258211 1.2341195 1.2607367
0.5229308 1.234943 1.2451341
0.52374095 1.2368561 1.2281214
0.52159095 1.2317787 1.2044351
0.52224022 1.233312 1.1875633
0.52038121 1.228922 1.1626927
0.51791275 1.2230926 1.1394346
0.52177024 1.2322022 1.1278003
0.52859128 1.2483107 1.1224579
0.52029079 1.2287084 1.0853447
0.52045983 1.2291076 1.0688854
0.52146268 1.2314758 1.0495446
0.52765453 1.2460984 1.0454278
0.52410877 1.2377248 1.0244254
0.53069633 1.253282 1.018649
0.53414232 1.2614199 1.0067333
0.52848011 1.2480482 0.97569692
0.52859569 1.2483212 0.95806104
0.5290283 1.2493427 0.93902707
0.53542888 1.2644582 0.93277085
0.52598947 1.2421663 0.89708298
0.52864212 1.2484307 0.88676852
0.53492111 1.2632591 0.8803044
0.52836138 1.2477677 0.85082906
0.53455663 1.2623982 0.84421557
0.53073299 1.2533685 0.82188195
0.53049332 1.2528025 0.80340701
0.52983212 1.2512411 0.78649455
0.52942622 1.2502824 0.76818073
0.53201997 1.2564077 0.75630301
0.52771968 1.2462523 0.73482448
0.5302 1.2521098 0.72298622
0.52887803 1.2489878 0.70796716
0.52720499 1.2450368 0.69450569
0.52954811 1.2505703 0.68268049
0.52485287 1.2394822 0.66197687
0.53059936 1.2530528 0.65454024
0.53280634 1.2582649 0.64264059
0.53142989 1.2550143 0.62651521
0.53328192 1.259388 0.61607826
0.53153127 1.2552537 0.60159183
0.52997714 1.2515835 0.58571577
0.52835572 1.2477545 0.56995535
0.52643353 1.243215 0.55577374
0.52807105 1.2470821 0.54546046
0.5187977 1.2251823 0.52409673
0.53103578 1.2540835 0.52618963
0.52893734 1.249128 0.51225442
0.53432 1.2618395 0.50384837
0.52867144 1.2485 0.48513323
0.53398472 1.2610477 0.47656983
0.51711756 1.2212145 0.44858044
0.529549 1.2505724 0.44782424
0.51991171 1.2278131 0.42681003
0.5174433 1.2219838 0.41365218
0.5225637 1.2340761 0.40494859
0.52392173 1.2372832 0.39323828
0.52148819 1.231536 0.378773
0.52275717 1.234533 0.36708772
0.52006751 1.228181 0.35426134
0.51732981 1.2217158 0.34158513
0.5221163 1.2330196 0.3338522
0.523094 1.2353284 0.32362986
0.51644856 1.2196347 0.3088237
0.51747978 1.2220699 0.29725391
0.51453733 1.2151212 0.28501213
0.51548755 1.2173651 0.27348599
0.51639855 1.2195165 0.26193902
0.51727015 1.2215749 0.25037211
0.52194023 1.2326037 0.2405549
0.51879907 1.2251855 0.22862183
0.51570868 1.2178873 0.21539503
0.51642197 1.2195718 0.20384534
0.51709592 1.2211634 0.19228011
0.52151579 1.2316014 0.18351948
0.52204758 1.2328572 0.1732899
0.52254778 1.2340385 0.16307357
0.51920807 1.2261515 0.15025152
0.52357793 1.2364712 0.13966051
0.5201515 1.2283794 0.12698989
0.51667899 1.2201788 0.11448335
0.52089238 1.2301291 0.10513519
0.52123034 1.2309271 0.093473673
0.52152854 1.2316314 0.081805043
0.52178705 1.2322419 0.070130184
0.51811022 1.2235588 0.058013786
0.51824719 1.2238822 0.04931606
0.51837879 1.224193 0.039177671
0.52237874 1.2336394 0.029231945
0.51855159 1.2246011 0.018871438
0.51859272 1.2246983 0.0087047676
0.5186038 1.2247245 8.1439015e-17
0.51468956 1.2154807 -0.010067659
0.52244216 1.2337891 -0.020463191
0.51846784 1.2244034 -0.030452635
0.51836193 1.2241533 -0.040616222
0.52214378 1.2330843 -0.049686857
0.52198082 1.2326995 -0.059898585
0.52178705 1.2322419 -0.070130184
0.52545553 1.2409054 -0.080933847
0.5213086 1.231112 -0.090557151
0.51717776 1.2213567 -0.09856429
0.5168696 1.220629 -0.10867746
0.52041423 1.2289999 -0.11970071
0.51610661 1.2188271 -0.13036279
0.51564336 1.2177331 -0.14190824
0.52288735 1.2348404 -0.15575029
0.5224089 1.2337105 -0.16597347
0.52189893 1.2325062 -0.17621036
0.52135968 1.2312328 -0.18641362
0.52078879 1.2298845 -0.19662935
0.52027583 1.2286731 -0.20536657
0.51580071 1.2181047 -0.21394067
0.52283669 1.2347207 -0.22739057
0.5183059 1.224021 -0.23586355
0.51375371 1.2132707 -0.24419561
0.52077806 1.2298591 -0.25658706
0.5199998 1.2280211 -0.26676607
0.51918942 1.2261075 -0.27695277
0.51822728 1.2238352 -0.28856164
0.51735401 1.221773 -0.29868981
0.52011442 1.2282919 -0.31253806
0.51524258 1.2167866 -0.32180008
0.51790833 1.2230821 -0.33576977
0.5167461 1.2203373 -0.34734771
0.51569563 1.2178565 -0.35746828
0.51821476 1.2238058 -0.37168926
0.51318443 1.2119261 -0.38049537
0.51560646 1.217646 -0.39482695
0.5142433 1.2144269 -0.40635112
0.52063292 1.2295163 -0.42098811
0.51194626 1.209002 -0.42500007
0.49938318 1.1793334 -0.42695335
0.48315844 1.1410173 -0.42513207
0.4706623 1.1115067 -0.42594582
0.4580152 1.0816396 -0.42752519
0.44211507 1.0440902 -0.42250445
0.43355608 1.0238775 -0.42403311
0.42483458 1.0032809 -0.42643049
0.41613033 0.98272514 -0.42847034
0.41845131 0.98820633 -0.44039392
0.41712636 0.98507732 -0.44858471
0.41936445 0.99036276 -0.46066803
0.41817984 0.98756516 -0.4676972
0.42033568 0.99265635 -0.47994924
0.41889608 0.98925668 -0.48815706
0.41742876 0.98579144 -0.49635521
0.42299029 0.99892545 -0.51305664
0.42144862 0.99528468 -0.52133429
0.41965863 0.99105746 -0.5307464
0.42131862 0.99497771 -0.54461914
0.41944939 0.99056339 -0.55402744
0.41802651 0.98720312 -0.56105602
0.41978666 0.99135983 -0.57392061
0.41806364 0.9872908 -0.58213371
0.42314515 0.99929118 -0.59997106
0.4213444 0.99503857 -0.60824925
0.41978309 0.99135143 -0.61530846
0.41794097 0.98700112 -0.62350154
0.41942564 0.99050725 -0.63677114
0.42085984 0.99389428 -0.65011632
0.4189097 0.98928881 -0.6583482
0.42024863 0.99245083 -0.67181283
0.41823381 0.98769265 -0.68003207
0.41292208 0.97514862 -0.68277413
0.41413572 0.97801471 -0.6963324
0.41854182 0.98842007 -0.71550578
0.41670686 0.98408663 -0.7225157
0.4177545 0.98656076 -0.73632812
0.41555253 0.98136061 -0.74447799
0.40982652 0.96783811 -0.74795157
0.41673714 0.9841581 -0.77470183
0.41441572 0.97867596 -0.78284925
0.41207549 0.9731493 -0.79093248
0.41280967 0.97488314 -0.80504102
0.41040349 0.96920073 -0.81309217
0.41138974 0.97152978 -0.82612854
0.4119668 0.97289258 -0.84039474
0.40945548 0.96696198 -0.84842843
0.41294292 0.97519773 -0.86911881
0.41034615 0.96906531 -0.87717074
0.42001405 0.99189687 -0.90985096
0.42024922 0.9924522 -0.92456973
0.42336744 0.99981612 -0.94590044
0.4292967 1.0138185 -0.97405148
0.4263874 1.006948 -0.98242021
0.42098761 0.99419594 -0.98282439
0.42090905 0.99401045 -0.99783707
0.42077228 0.99368751 -1.0128849
0.42056337 0.9931941 -1.0280038
0.41749388 0.98594522 -1.0362002
0.41717416 0.98519015 -1.0513639
0.41633797 0.98321551 -1.0677313
0.41815501 0.98750657 -1.0912732
0.41984314 0.99149317 -1.1149766
0.41871727 0.98883438 -1.131584
0.42016947 0.99226385 -1.1555388
0.41358718 0.97671926 -1.1575254
0.40914017 0.96621728 -1.1678735
0.40564704 0.95796794 -1.1758605
0.40368524 0.95333505 -1.1935622
0.39101651 0.92341679 -1.1819084
0.23221076 0.54838431 -0.76567149
0.12804657 0.28359172 1.742435
0.13507353 0.2991547 1.7392992
0.1413351 0.31302255 1.7465513
0.14843097 0.32873818 1.7532824
0.1555859 0.34458455 1.759845
0.15841979 0.35086092 1.7276284
0.16662706 0.36903802 1.7538661
0.17387968 0.38510078 1.7599895
0.18019335 0.39908403 1.7562352
0.18623884 0.41247332 1.742177
0.19171396 0.42459935 1.7386665
0.1990501 0.4408471 1.7441711
0.20564854 0.45546103 1.7500468
0.212308 0.47021011 1.7557698
0.21621592 0.47886521 1.732062
0.2224277 0.49262273 1.727411
0.23241185 0.51473516 1.7511803
0.23998888 0.53151643 1.7556752
0.24628454 0.54545981 1.7505193
0.25256145 0.55936158 1.7452298
0.25742009 0.5701223 1.7304033
0.27013993 0.5982936 1.7616665
0.27792647 0.6155389 1.7652106
0.28354257 0.62797719 1.7491851
0.287487 0.63671315 1.734603
0.29606834 0.65571868 1.7477061
0.29753429 0.65896541 1.7137204
0.30857512 0.6834181 1.7348835
0.31645906 0.70087916 1.7374182
0.32268625 0.71467084 1.7306412
0.32715786 0.72457433 1.7146603
0.33859345 0.74990135 1.7347629
0.34402835 0.76193839 1.7284369
0.35569447 0.78777593 1.7479676
0.36381423 0.80575919 1.7492831
0.37008223 0.81964129 1.7415015
0.3766768 0.83424664 1.7444332
0.38797304 0.85926509 1.7638426
0.39823532 0.88199347 1.7731035
0.40659046 0.90049803 1.7733266
0.41090897 0.91006243 1.7559443
0.42418441 0.93946433 1.7719972
0.43263182 0.95817327 1.7715342
0.43336976 0.95980763 1.7354711
0.45257819 1.0023496 1.7772361
0.45973 1.0181891 1.7663633
0.47417796 1.0501878 1.7914131
0.48059306 1.0643955 1.7812895
0.49383026 1.0937128 1.7959744
0.49794495 1.1028259 1.7771679
0.50979286 1.1290661 1.7816343
0.51775771 1.1467062 1.7802786
0.52893966 1.1714715 1.7854627
0.53612101 1.1873765 1.7727695
0.54246682 1.2014308 1.761333
0.55206066 1.2226789 1.7562418
0.55582005 1.231005 1.7365745
0.55692565 1.2334536 1.7090424
0.55345231 1.2257609 1.6645721
0.55679482 1.2331638 1.6450491
0.55475605 1.2286484 1.6101766
0.5590809 1.238227 1.601319
0.55872965 1.2374489 1.5757352
0.56094909 1.2423645 1.5578082
0.55489933 1.2289658 1.5174419
0.55204678 1.222648 1.4833665
0.55946988 1.2390884 1.4804572
0.5528847 1.2245038 1.4407668
0.55016583 1.2184823 1.4057804
0.55457205 1.228241 1.3955193
0.55317372 1.225144 1.3709197
0.55516911 1.2295634 1.3520582
0.55120748 1.2207893 1.319183
0.5553413 1.2299446 1.308905
0.55348188 1.2258265 1.2847596
0.55750734 1.2347418 1.2744404
0.5524348 1.2235074 1.2436823
0.55329096 1.2254037 1.2266438
0.55712485 1.2338947 1.2163534
0.55115175 1.2206659 1.1875633
0.55797136 1.2357696 1.1838672
0.55855048 1.2370521 1.1669719
0.55592358 1.2312343 1.1436394
0.55368155 1.2262686 1.1190182
0.5571776 1.2340117 1.1087238
0.55424178 1.2275094 1.0857885
0.55489367 1.2289532 1.067786
0.55498344 1.229152 1.0513223
0.55500972 1.2292103 1.0348945
0.55495793 1.2290956 1.0185509
0.55528921 1.2298293 1.0007867
0.55886197 1.2377421 0.98897308
0.56283396 1.2465391 0.97558099
0.55957407 1.2393192 0.95213687
0.56339037 1.2477714 0.93875343
0.55991185 1.2400674 0.91560459
0.56015062 1.2405962 0.89668977
0.55643713 1.2323717 0.87392098
0.55645996 1.2324222 0.85527056
0.55639213 1.2322719 0.83668011
0.55900198 1.2380521 0.8263436
0.55841386 1.2367496 0.80933565
0.55774653 1.2352716 0.79241592
0.5534299 1.2257113 0.7706148
0.55617613 1.2317936 0.7588495
0.56248575 1.2457678 0.7518459
0.55429572 1.2276289 0.72566062
0.55656236 1.232649 0.71534258
0.56244355 1.2456744 0.70961428
0.56099284 1.2424614 0.69460547
0.56346583 1.2479385 0.68268263
0.56159776 1.2438011 0.66930306
0.56368214 1.2484175 0.65887493
0.56201637 1.2447283 0.64411879
0.56775695 1.2574422 0.63788021
0.56252563 1.2458562 0.61758173
0.56095719 1.2423825 0.60159183
0.55905592 1.2381716 0.58718616
0.56493479 1.2511919 0.57919574
0.55532545 1.2299095 0.55725789
0.55755192 1.2348406 0.54397106
0.55948412 1.23912 0.5321269
0.56113803 1.242783 0.52174199
0.56276292 1.2463818 0.51130277
0.56412798 1.249405 0.50234133
0.55406451 1.2271168 0.48176423
0.55966002 1.2395095 0.47328314
0.56133831 1.2432265 0.46139702
0.56297386 1.2468488 0.44947577
0.54888409 1.2156435 0.42536694
0.55413622 1.2272757 0.41812363
0.55561668 1.2305545 0.40635675
0.55310404 1.2249897 0.39176062
0.55827695 1.2364464 0.38422298
0.5477283 1.2130837 0.36444682
0.56095135 1.2423695 0.36048782
0.5542497 1.2275271 0.34363422
0.55146652 1.2213629 0.32948023
0.54848337 1.214756 0.3169131
0.55347276 1.2258062 0.30897725
0.55054265 1.2193168 0.29507476
0.55158138 1.2216173 0.28338876
0.54439169 1.2056938 0.26914671
0.54925925 1.2164744 0.260968
0.55399412 1.226961 0.25408131
0.55072773 1.2197268 0.24200322
0.55563152 1.2305875 0.23200881
0.55238193 1.2233903 0.21860988
0.55721319 1.2340904 0.20840904
0.55386782 1.2266812 0.19514997
0.55854118 1.2370316 0.1862383
0.555107 1.2294258 0.17311394
0.55570757 1.2307558 0.1613358
0.55217558 1.2229333 0.14844577
0.5485329 1.2148657 0.13716041
0.55298674 1.2247299 0.12939176
0.55747586 1.2346722 0.12002145
0.55373544 1.226388 0.10885569
0.55816513 1.2361987 0.099319875
0.55024856 1.2186655 0.087640196
0.55047286 1.2191622 0.078886874
0.55070442 1.2196751 0.068682112
0.54679316 1.2110126 0.058013786
0.55105001 1.2204405 0.049686857
0.55532098 1.2298996 0.038283028
0.55132294 1.221045 0.026309147
0.54728156 1.2120942 0.014507761
0.55554307 1.2303915 0.0029452408
0.55553252 1.230368 -0.0088356659
0.54725915 1.2120446 -0.018848227
0.54718387 1.2118779 -0.029013798
0.55119026 1.220751 -0.039448865
0.55516237 1.2295483 -0.050057653
0.55910009 1.2382694 -0.060792591
0.55475122 1.2286378 -0.072112337
0.55040073 1.2190025 -0.081805043
0.55012792 1.2183983 -0.0920038
0.54982245 1.2177217 -0.10222053
0.55363637 1.2261686 -0.11179108
0.55326939 1.2253559 -0.12204894
0.54877394 1.2153996 -0.13134296
0.54834574 1.2144512 -0.14151013
0.56008124 1.2404425 -0.15656127
0.55548793 1.2302693 -0.16574231
0.55487156 1.2289042 -0.17751563
0.55421299 1.2274456 -0.18927541
0.55351216 1.2258935 -0.20102079
0.55286515 1.2244605 -0.21127376
0.55208534 1.2227335 -0.22298972
0.55126357 1.2209134 -0.2346887
0.55455703 1.2282077 -0.24672325
0.54960865 1.2172483 -0.25658706
0.5486663 1.2151612 -0.26823226
0.55183649 1.2221823 -0.28044045
0.55509174 1.2293919 -0.29132217
0.55014342 1.2184327 -0.29943958
0.55319625 1.225194 -0.31188729
0.54805481 1.2138069 -0.3212615
0.55501395 1.2292197 -0.33627144
0.54980117 1.2176746 -0.3455244
0.55251437 1.2236837 -0.35975847
0.5512014 1.2207757 -0.37146133
0.54984647 1.2177749 -0.38313591
0.54862797 1.2150762 -0.39331564
0.54325795 1.2031831 -0.40202162
0.5535717 1.2260255 -0.42251632
0.53637284 1.187934 -0.42192036
0.51922154 1.1499482 -0.4206281
0.50990641 1.1293175 -0.42513207
0.49321613 1.0923526 -0.42000431
0.4878175 1.0803959 -0.42705807
0.47854683 1.0598637 -0.43044376
0.46544293 1.0308418 -0.42991632
0.44854641 0.99342018 -0.42523223
0.44298646 0.98110622 -0.43219617
0.43761221 0.96920359 -0.43776697
0.43582416 0.96524352 -0.44817656
0.43838695 0.97091943 -0.4590559
0.44446331 0.98437709 -0.47524109
0.44671267 0.98935884 -0.48756212
0.44516584 0.98593301 -0.49584621
0.45105201 0.9989695 -0.51255447
0.44222945 0.97942966 -0.51112688
0.4443112 0.98404026 -0.52369112
0.44610044 0.98800296 -0.53753561
0.44807309 0.99237186 -0.55029863
0.44632885 0.98850882 -0.55860615
0.44456261 0.98459703 -0.56686223
0.45365408 1.0047324 -0.58924592
0.44790861 0.99200761 -0.59405291
0.44216341 0.97928345 -0.59866142
0.44770482 0.99155629 -0.61552948
0.44932598 0.99514669 -0.6287998
0.44705078 0.99010772 -0.63830423
0.44474155 0.98499334 -0.64776003
0.44269082 0.98045152 -0.65600282
0.44381279 0.98293638 -0.67064619
0.44486302 0.98526239 -0.68538666
0.44238481 0.97977376 -0.6947943
0.43643638 0.96659946 -0.69864786
0.4407441 0.97613996 -0.71902394
0.44187355 0.97864145 -0.73280877
0.44293657 0.98099571 -0.74669576
0.44394329 0.98322541 -0.76064593
0.44153747 0.97789711 -0.76887053
0.44243804 0.9798916 -0.78291827
0.44363058 0.9825328 -0.79587764
0.45062327 0.99801993 -0.82328302
0.4411146 0.97696054 -0.8206498
0.44139633 0.97758448 -0.83612072
0.43515357 0.96375835 -0.83923256
0.4357045 0.96497852 -0.85356784
0.43580371 0.96519822 -0.86911881
0.44570738 0.98713243 -0.90278155
0.4487243 0.99381417 -0.92513776
0.45161411 1.0002143 -0.94768977
0.45437565 1.0063305 -0.97043371
0.45130959 0.99953991 -0.97884607
0.44473118 0.98497033 -0.98165554
0.44723269 0.99051064 -1.0046251
0.45260003 1.0023979 -1.0346264
0.44636378 0.98858619 -1.0360775
0.44852781 0.993379 -1.0594437
0.44470617 0.98491502 -1.0689148
0.44133058 0.97743893 -1.0771446
0.44130436 0.97738081 -1.0912732
0.44308594 0.98132658 -1.1149766
0.45039579 0.9975161 -1.1533452
0.44011226 0.97474062 -1.1493833
0.43596795 0.96556199 -1.1586725
0.43454072 0.96240097 -1.1753122
0.42976728 0.95182902 -1.1856313
0.41741422 0.92447007 -1.1720155
0.41478729 0.91865206 -1.1906426
0.19426624 0.43025205 -0.60831225
0.052411951 0.1160796 -0.17938371
0.13710785 0.28552645 1.7515924
0.14452665 0.30097607 1.7585862
0.15116416 0.31479865 1.7556057
0.15955319 0.33226874 1.7720723
0.16348569 0.34045818 1.7394713
0.17196096 0.35810789 1.7556162
0.17791411 0.3705053 1.7627174
0.18456596 0.38435775 1.7590635
0.1933165 0.40258071 1.7746711
0.19454809 0.4051455 1.7223264
0.2063875 0.42980099 1.7564383
0.21219367 0.4418923 1.7527422
0.21880654 0.45566356 1.7483977
0.22540273 0.46940014 1.7439201
0.23369393 0.4866665 1.7590176
0.24211118 0.50419539 1.7739135
0.24396138 0.50804842 1.7410542
0.2510801 0.52287316 1.7461851
0.25626636 0.53367347 1.7315947
0.26423371 0.55026549 1.7357962
0.27519548 0.5730933 1.7586163
0.28032103 0.58376724 1.7436272
0.28760752 0.59894133 1.7479849
0.29502857 0.61439562 1.7413719
0.30076918 0.6263504 1.736123
0.30814442 0.64170933 1.7400161
0.31972745 0.66583091 1.7614038
0.32382911 0.67437261 1.746527
0.33133379 0.69000101 1.7499191
0.33710155 0.70201236 1.7440301
0.34547609 0.71945232 1.746263
0.35022578 0.72934353 1.7301733
0.36048371 0.7507056 1.7410895
0.36704692 0.76437348 1.7337559
0.37084186 0.7722764 1.718274
0.38714448 0.80622655 1.7552829
0.39376029 0.82000393 1.7474114
0.4003461 0.83371884 1.7394067
0.41103241 0.85597306 1.7488461
0.4209832 0.87669551 1.759056
0.42548454 0.88606954 1.7417933
0.44284913 0.9222312 1.7764781
0.44734997 0.93160421 1.7588608
0.45035064 0.9378531 1.731478
0.47044462 0.97969872 1.7734915
0.47941992 0.99838972 1.7724205
0.48925209 1.0188652 1.7699001
0.49119619 1.0229137 1.7432079
0.50733477 1.0565223 1.7665707
0.51883757 1.0804768 1.7728444
0.52551472 1.0943819 1.7623174
0.53796637 1.1203125 1.7666613
0.55218357 1.1499197 1.7801342
0.55971527 1.1656044 1.7675365
0.5715431 1.1902359 1.7722238
0.58344859 1.215029 1.7765676
0.59543002 1.2399802 1.7805651
0.60213339 1.25394 1.7684937
0.60067374 1.2509001 1.7328703
0.59432131 1.2376714 1.6804321
0.6006465 1.2508435 1.6683868
0.59573835 1.2406223 1.6256852
0.60750788 1.2651323 1.6287647
0.59365845 1.2362909 1.5638268
0.59377837 1.2365407 1.5368782
0.58720726 1.2228564 1.4967331
0.5840342 1.2162485 1.4627862
0.58589858 1.220131 1.4451308
0.58766955 1.2238191 1.4275193
0.58099818 1.209926 1.3868742
0.59532708 1.2397659 1.3964835
0.59074819 1.2302303 1.3647161
0.58598423 1.2203095 1.3332169
0.58477712 1.2177956 1.307444
0.58908647 1.2267698 1.2970786
0.58703941 1.2225068 1.2729737
0.58805597 1.2246238 1.2557814
0.58578283 1.21989 1.23192
0.58661908 1.2216314 1.214864
0.59004837 1.228773 1.2059685
0.58748513 1.223435 1.1823993
0.58535224 1.2189933 1.1575052
0.58638948 1.2211534 1.1392243
0.5896045 1.2278485 1.1303338
0.58997548 1.2286211 1.1135614
0.59363478 1.2362416 1.1031339
0.59387422 1.2367402 1.08641
0.58720189 1.2228451 1.0574704
0.59068394 1.2300966 1.0470697
0.59066951 1.2300664 1.0306047
0.59106326 1.2308865 1.0127007
0.59836543 1.2460932 1.0066333
0.59158123 1.2319651 0.97708428
0.59879273 1.2469831 0.97086579
0.59842587 1.246219 0.95458078
0.59081793 1.2303755 0.92715174
0.59069592 1.2301214 0.90965909
0.59410959 1.2372305 0.89771628
0.59060788 1.229938 0.87340409
0.59388465 1.2367619 0.86146444
0.59343028 1.2358158 0.84421557
0.59698617 1.2432209 0.83072823
0.59264684 1.2341841 0.80849189
0.58818549 1.2248936 0.78649455
0.587008 1.2224414 0.77114111
0.58953691 1.2277077 0.76077586
0.59203714 1.2329146 0.75034249
0.5872227 1.2228886 0.72891229
0.59378469 1.2365538 0.72170252
0.5964883 1.242184 0.70970458
0.595281 1.2396699 0.69315159
0.59723204 1.2437329 0.68413621
0.5955807 1.240294 0.66921937
0.59417689 1.2373706 0.65289193
0.59692526 1.243094 0.63937283
0.59507787 1.2392468 0.62469959
0.59288239 1.2346748 0.61161137
0.5988549 1.2471125 0.60513073
0.5968563 1.2429504 0.59062409
0.59879327 1.2469841 0.58006644
0.60069096 1.2509362 0.56949914
0.59827626 1.2459075 0.55666858
0.60035628 1.2502391 0.54458636
0.60239059 1.2544756 0.53246272
0.60413498 1.2581083 0.52180898
0.60201544 1.2536943 0.50618982
0.59982419 1.249131 0.49069607
0.6055181 1.2609886 0.48337927
0.59889591 1.2471979 0.4662843
0.60041791 1.2503675 0.45571849
0.60603106 1.2620568 0.44815052
0.60336041 1.2564952 0.43448359
0.60457844 1.2590318 0.42535159
0.6059683 1.2619262 0.41466239
0.60335058 1.2564747 0.39967418
0.60483736 1.259571 0.38749564
0.60174346 1.2531279 0.37573308
0.60296643 1.2556747 0.36511973
0.60415703 1.2581542 0.35446075
0.60110617 1.2518008 0.34141794
0.58958441 1.2278068 0.32385281
0.59063649 1.2299978 0.31345516
0.58743036 1.223321 0.30085108
0.58431029 1.2168235 0.28691813
0.58948147 1.2275923 0.27861896
0.58613884 1.2206314 0.26627117
0.59113342 1.2310326 0.2592684
0.59197223 1.2327794 0.24884537
0.59277838 1.2344581 0.23838395
0.60208839 1.2538463 0.23121214
0.59000963 1.2286923 0.21587956
0.59508383 1.2392592 0.20545508
0.59145886 1.2317103 0.19356139
0.59645861 1.2421223 0.18294661
0.59712696 1.2435141 0.17091528
0.58907545 1.2267469 0.15805769
0.58951062 1.2276531 0.14914761
0.59435856 1.2377489 0.13825953
0.59054762 1.2298126 0.12535721
0.59099865 1.2307519 0.11344724
0.59135604 1.2314961 0.10303082
0.58740354 1.2232652 0.0904404
0.58772284 1.22393 0.078595139
0.59232086 1.2335054 0.067234658
0.58820099 1.2249259 0.056357991
0.59269625 1.2342871 0.046330702
0.59283221 1.2345703 0.03586242
0.59293336 1.234781 0.025415946
0.59300017 1.23492 0.014944085
0.59303403 1.2349906 0.002988874
0.58869797 1.2259607 -0.0074057444
0.59298462 1.2348877 -0.017932747
0.58859324 1.2257427 -0.026701821
0.5928151 1.2345346 -0.037344374
0.58834809 1.2252321 -0.047463316
0.59249908 1.2338766 -0.058253564
0.59228903 1.2334391 -0.068715312
0.59632808 1.2418505 -0.081241712
0.59172338 1.2322612 -0.091081545
0.58704031 1.2225087 -0.1022551
0.58663172 1.2216578 -0.1140857
0.58617842 1.2207137 -0.12590761
0.58574462 1.2198105 -0.13625577
0.58527774 1.2188382 -0.14657235
0.59767509 1.2446556 -0.1603651
0.58845598 1.2254568 -0.16992719
0.59208208 1.2330083 -0.18311065
0.5913679 1.2315208 -0.19503981
0.5906086 1.2299396 -0.20695412
