# .PCD v0.7 - Point Cloud Data file format
VERSION 0.7
FIELDS x y z
SIZE 4 4 4
TYPE F F F
COUNT 1 1 1
WIDTH 1504
HEIGHT 1
VIEWPOINT 0 0 0 1 0 0 0
POINTS 1504
DATA ascii
0.38511199 1.1248201 1.7793449
0.3943986 1.151944 1.7841173
0.39757749 1.1612289 1.7652137
0.40629673 1.1866956 1.7707559
0.41697261 1.2178773 1.7840708
0.41624516 1.2157526 1.7485952
0.42699468 1.2471495 1.761333
0.43454638 1.269206 1.7562418
0.44943747 1.3126994 1.7839357
0.4550837 1.3291907 1.7702403
0.46821311 1.3675386 1.7890261
0.47388467 1.3841039 1.7747365
0.48304743 1.4108661 1.7772231
0.48445806 1.4149863 1.7473164
0.48725098 1.4231436 1.7266582
0.48566625 1.418515 1.6910185
0.48233432 1.4087832 1.6465368
0.48258305 1.4095098 1.6187637
0.48770294 1.4244637 1.6040727
0.48439643 1.4148061 1.572445
0.48712265 1.4227688 1.5504968
0.48693606 1.4222238 1.52308
0.48433647 1.4146311 1.4887367
0.49315679 1.4403931 1.4896188
0.49267873 1.4389969 1.4624144
0.48922127 1.4288985 1.4301441
0.49037927 1.4322807 1.4117366
0.48957479 1.4299309 1.3849599
0.493471 1.4413108 1.3717177
0.49490359 1.4454951 1.3517449
0.48403788 1.413759 1.2989969
0.49015439 1.4316238 1.2924017
0.49627027 1.4494869 1.2855753
0.49194041 1.4368403 1.2547448
0.49000728 1.4311942 1.230478
0.49050459 1.4326466 1.2126536
0.49052337 1.4327015 1.1965171
0.48324442 1.4114414 1.1603482
0.48866898 1.4272853 1.1550149
0.48892778 1.4280412 1.1374304
0.4865202 1.4210092 1.1139708
0.48441359 1.4148563 1.0890478
0.49010852 1.4314898 1.0817719
0.49049637 1.4326227 1.062782
0.49044818 1.4324819 1.0454932
0.49338478 1.441059 1.0322405
0.48819223 1.4258928 1.0022964
0.49065423 1.4330837 0.99077219
0.49070996 1.4332465 0.97211534
0.4906978 1.433211 0.95353127
0.48478127 1.4159302 0.92613649
0.49014989 1.4316107 0.91822869
0.48715922 1.4228756 0.89476287
0.48966989 1.4302087 0.88160443
0.48651877 1.421005 0.85845453
0.48610064 1.4197838 0.84042853
0.48306435 1.4109155 0.81606764
0.49077767 1.4334443 0.8141098
0.48962975 1.4300915 0.79950052
0.48871589 1.4274223 0.78334045
0.48775518 1.4246163 0.76724392
0.4928042 1.4393634 0.75853628
0.4859345 1.4192985 0.73372978
0.48773715 1.4245636 0.72224027
0.48950726 1.4297338 0.7107349
0.48855454 1.4269511 0.69334346
0.49713433 1.4520105 0.68331754
0.49607641 1.4489206 0.66591096
0.4892191 1.4288921 0.6391651
0.49378011 1.4422137 0.63142765
0.49832767 1.4554961 0.62353891
0.48823309 1.4260122 0.593732
0.49291682 1.4396923 0.58413976
0.48867849 1.4273131 0.56220168
0.49024904 1.4319003 0.54901499
0.4919728 1.4369349 0.53411674
0.49346384 1.4412899 0.52084237
0.49201977 1.4370722 0.50273257
0.49033824 1.4321607 0.48639902
0.49186268 1.4366133 0.47150111
0.49301323 1.4399738 0.45990589
0.49118569 1.434636 0.44379747
0.49242145 1.4382454 0.43054771
0.49376804 1.4421785 0.41558933
0.49492398 1.4455546 0.40227109
0.49303788 1.4400458 0.38481382
0.49095967 1.4339759 0.36915007
0.49211091 1.4373384 0.35423896
0.49309349 1.4402083 0.34096771
0.49415308 1.4433031 0.32601985
0.49505582 1.4459398 0.31269467
0.49274188 1.4391813 0.29742676
0.49674815 1.4508826 0.28597385
0.49744174 1.4529084 0.27424219
0.49509495 1.4460541 0.25750458
0.49908996 1.4577224 0.24403776
0.49335358 1.4409679 0.22762649
0.4972612 1.4523811 0.21405724
0.4946354 1.4447118 0.19935803
0.49846193 1.4558882 0.18554066
0.49896741 1.4573646 0.17210473
0.4929345 1.4397439 0.15828191
0.50303692 1.4692507 0.14783898
0.50025576 1.4611274 0.13172238
0.49410769 1.4431704 0.11839183
0.49765506 1.4535315 0.10576253
0.50116843 1.4637932 0.092951052
0.49820498 1.4551376 0.077242032
0.49833381 1.455514 0.068865523
0.49523234 1.4464552 0.05841314
0.49860016 1.4562919 0.047029309
0.49546352 1.4471306 0.035058677
0.49877465 1.4568015 0.023517398
0.49882215 1.4569403 0.010079204
0.49883163 1.4569679 -0.0033597562
0.49879697 1.4568667 -0.018464793
0.49873668 1.4566905 -0.030235887
0.50510794 1.4752996 -0.044238165
0.50172675 1.4654238 -0.057473604
0.50475562 1.4742705 -0.0731325
0.50452965 1.4736105 -0.086728148
0.49783477 1.4540564 -0.097368017
0.49107903 1.4343245 -0.10933764
0.50043714 1.4616573 -0.12498245
0.49683857 1.4511467 -0.13756649
0.49965438 1.4593711 -0.15192656
0.50236797 1.4672967 -0.1681271
0.49865645 1.4564563 -0.18049036
0.50134099 1.4642972 -0.19516867
0.50077021 1.4626302 -0.20866768
0.50336748 1.4702162 -0.22357485
0.49943012 1.458716 -0.23731248
0.49874029 1.4567012 -0.25075841
0.49791959 1.4543041 -0.26584879
0.49724677 1.4523389 -0.27759194
0.4996255 1.4592867 -0.29284275
0.4987787 1.4568133 -0.30629182
0.4978939 1.4542291 -0.31971756
0.50001884 1.4604355 -0.33691132
0.49904746 1.4575983 -0.3503693
0.49803808 1.4546502 -0.36380062
0.50000077 1.4603828 -0.38128909
0.49576619 1.4480146 -0.39226225
0.4976258 1.453446 -0.40983331
0.49644837 1.4500071 -0.42322406
0.49523315 1.4464576 -0.43658257
0.497087 1.4518723 -0.45273742
0.49595141 1.4485556 -0.46445549
0.49461967 1.4446659 -0.47779903
0.49307784 1.4401625 -0.49275371
0.49781203 1.45399 -0.512344
0.49921998 1.4581023 -0.53067607
0.49426425 1.4436277 -0.54409736
0.49270743 1.4390806 -0.55739248
0.49414465 1.4432784 -0.57416755
0.49552435 1.4473082 -0.59106231
0.4940497 1.443001 -0.60271281
0.4897567 1.4304622 -0.60894662
0.49122983 1.434765 -0.62429374
0.48967323 1.4302185 -0.6358422
0.48808447 1.425578 -0.64737993
0.49240348 1.4381928 -0.66688842
0.49689451 1.4513102 -0.68497795
0.49223635 1.4377047 -0.69253772
0.49932268 1.4584022 -0.71675652
0.49727762 1.4524291 -0.73018128
0.49545503 1.4471058 -0.74189574
0.49070418 1.4332297 -0.7491076
0.49461997 1.4446666 -0.76966834
0.49530521 1.4466681 -0.78754312
0.4930602 1.440111 -0.80085695
0.4964844 1.4501122 -0.82357621
0.49697736 1.4515522 -0.84173036
0.4977113 1.4536958 -0.85828441
0.49838725 1.45567 -0.87494856
0.49621117 1.4493142 -0.88665819
0.49711359 1.45195 -0.90173137
0.49486622 1.4453859 -0.91343689
0.49812993 1.4549185 -0.93545651
0.49546674 1.4471399 -0.9488408
0.49550337 1.4472469 -0.96749818
0.49547207 1.4471555 -0.9862293
0.49301553 1.4399805 -0.99789369
0.49286932 1.4395535 -1.0166935
0.49533162 1.4467453 -1.0411891
0.48438528 1.4147736 -1.0373942
0.48672494 1.4216073 -1.0619471
0.48633346 1.4204638 -1.0808619
0.50194925 1.4660738 -1.1336113
0.51472527 1.5033896 -1.1812187
0.51179212 1.4948224 -1.1933042
0.51696724 1.5099378 -1.2218564
0.51392663 1.5010568 -1.2340211
0.51295823 1.4982284 -1.2540276
0.51741719 1.5112519 -1.2848724
0.51422048 1.5019152 -1.2970459
0.51598656 1.5070733 -1.321888
0.51765186 1.5119373 -1.3469158
0.51677001 1.5093616 -1.365568
0.517775 1.5122969 -1.3925756
0.52016443 1.5192759 -1.4145068
0.52389753 1.5301795 -1.4467143
0.52166057 1.5236458 -1.4692767
0.5222351 1.5253239 -1.4968826
0.52504742 1.5335381 -1.5314981
0.52715397 1.5396907 -1.5681394
0.52038842 1.5199302 -1.5752803
0.50618768 1.4784533 -1.562706
0.49721041 1.4522328 -1.5620185
0.49671888 1.4507972 -1.5914012
0.48997444 1.4310982 -1.5974613
0.39450487 1.1522545 -1.3117833
0.35148537 1.0266048 -1.1893867
0.33905134 0.9902879 -1.1701598
0.35283804 1.0305556 -1.2393388
0.43345252 1.2660112 -1.5530082
0.40392759 1.179776 -1.4861262
0.065165386 0.19033253 -0.26158556
0.10769758 0.29192707 1.742435
0.11292863 0.30610645 1.7498417
0.11821562 0.32043746 1.7571126
0.12351831 0.33481103 1.7540653
0.1288116 0.34915909 1.7508842
0.13559332 0.36754179 1.7670958
0.14014691 0.37988484 1.7538661
0.14771768 0.4004063 1.7692524
0.15071993 0.40854424 1.7465323
0.15618904 0.4233689 1.7528445
0.16236952 0.44012186 1.7585019
0.16701756 0.45272091 1.7548643
0.17164527 0.46526486 1.751133
0.17724209 0.48043567 1.7568913
0.18187484 0.49299332 1.7529345
0.1854884 0.50278831 1.7393097
0.19216324 0.52088124 1.7542394
0.1978687 0.53634655 1.7594546
0.20317543 0.55073106 1.7543987
0.20959352 0.56812811 1.7586646
0.21489742 0.58250493 1.7533132
0.21951963 0.595034 1.7485267
0.22841822 0.61915469 1.7710371
0.23063086 0.62515229 1.7472533
0.23649457 0.64104658 1.7514365
0.24306165 0.65884745 1.7546911
0.24967198 0.6767655 1.7469265
0.25628778 0.69469845 1.7497745
0.26228321 0.71094972 1.7532421
0.27037048 0.73287123 1.7648511
0.27436262 0.74369246 1.7597008
0.27821812 0.75414324 1.7436349
0.28347403 0.76838994 1.7365539
0.28805 0.78079367 1.7302568
0.29871586 0.80970478 1.7597576
0.29716179 0.80549228 1.717346
0.30641103 0.83056343 1.7374628
0.31193185 0.84552824 1.7405115
0.3204135 0.86851883 1.75026
0.3256878 0.88281542 1.7421149
0.33595148 0.91063637 1.7601074
0.34058812 0.92320448 1.7526532
0.34931037 0.94684714 1.7613525
0.35985768 0.97543699 1.7783772
0.35812384 0.97073716 1.7348824
0.37168148 1.0074867 1.7696676
0.38247639 1.0367476 1.7857397
0.38785547 1.0513283 1.7760284
0.39507744 1.0709043 1.7745923
0.4029839 1.0923357 1.7716678
0.41217178 1.1172405 1.7780573
0.42337972 1.1476209 1.7923771
0.42945507 1.164089 1.7802712
0.44082713 1.1949142 1.7938371
0.4387705 1.1893394 1.7488717
0.45225897 1.2259016 1.769923
0.45966756 1.2459835 1.7664459
0.47340149 1.2832109 1.78655
0.47665164 1.2920208 1.7666594
0.49487942 1.3414294 1.801572
0.5046525 1.3679204 1.804583
0.50856388 1.3785228 1.7824528
0.51837784 1.4051245 1.7848835
0.51766032 1.4031798 1.7473164
0.51837111 1.4051064 1.7191182
0.51959455 1.4084227 1.6893688
0.51771259 1.4033214 1.6539537
0.51626283 1.3993915 1.6171505
0.51402128 1.3933157 1.582199
0.51520926 1.3965358 1.5651988
0.51751012 1.4027725 1.5449635
0.5178768 1.4037665 1.5159627
0.5224359 1.4161245 1.502848
0.52255964 1.4164599 1.4739989
0.51646441 1.3999381 1.4346908
0.52023679 1.4101634 1.4232683
0.52198189 1.4148939 1.4032855
0.51802403 1.4041656 1.3714482
0.52162939 1.4139383 1.3599931
0.52262527 1.4166378 1.34179
0.52094275 1.4120771 1.3170637
0.52179027 1.4143744 1.2989919
0.52208489 1.4151731 1.2826194
0.52014804 1.4099228 1.2582382
0.5185824 1.4056791 1.2323712
0.51420832 1.3938227 1.200395
0.52052552 1.4109461 1.1936014
0.5218277 1.4144758 1.172627
0.51709807 1.4016556 1.1412148
0.52243638 1.4161258 1.1374304
0.51750517 1.4027591 1.1063703
0.52082711 1.4117637 1.0932806
0.52088249 1.4119138 1.0759559
0.52330869 1.4184903 1.0660832
0.51189482 1.3875517 1.0259942
0.51458842 1.3948529 1.0146842
0.51763356 1.4031072 1.0016714
0.51159757 1.3867459 0.97370607
0.51742601 1.4025445 0.96619833
0.51740146 1.402478 0.94776124
0.51695108 1.4012573 0.93104225
0.51644826 1.3998944 0.9143725
0.51884705 1.4063965 0.90296549
0.51228583 1.3886114 0.87619716
0.5142597 1.3939619 0.86649126
0.51352906 1.3919814 0.85016215
0.51274729 1.3898624 0.83389008
0.51221561 1.3884212 0.81610161
0.51435512 1.3942205 0.80479068
0.51676631 1.4007564 0.7917918
0.52528179 1.4238386 0.78794837
0.51809949 1.4043702 0.76270401
0.51728594 1.4021648 0.74515033
0.51951689 1.4082121 0.7320798
0.52170825 1.4141521 0.71895355
0.52072304 1.4114816 0.70154631
0.52018809 1.4100316 0.68096662
0.52222508 1.415553 0.66782534
0.52104521 1.4123548 0.65066576
0.52299064 1.417628 0.63750404
0.52169561 1.4141179 0.62048709
0.52033794 1.4104377 0.60358429
0.52191615 1.4147156 0.59210062
0.52045202 1.4107471 0.57534558
0.51892674 1.4066124 0.55870974
0.52384818 1.4199526 0.54901499
0.52222258 1.4155463 0.5324586
0.52381098 1.4198518 0.51927173
0.52555168 1.4245702 0.50437599
0.51717281 1.4018583 0.48189795
0.52208829 1.4151822 0.47019455
0.52348858 1.418978 0.45701343
0.52501762 1.4231225 0.44212985
0.52283931 1.417218 0.42782274
0.52744991 1.4297155 0.41726521
0.52534395 1.4240072 0.40139422
0.52318263 1.4181485 0.38566142
0.52768862 1.4303626 0.37484345
0.52206439 1.4151174 0.35691935
0.51974756 1.4088374 0.34152541
0.52414089 1.420746 0.33054069
0.51822591 1.4047128 0.31483912
0.52255034 1.4164346 0.30373359
0.51993865 1.4093554 0.29031238
0.5241996 1.4209052 0.27900401
0.52843159 1.4323765 0.26750273
0.52580512 1.4252571 0.25252959
0.52654785 1.4272703 0.23926301
0.53076041 1.438689 0.22575961
0.52448493 1.4216785 0.21129522
0.53196722 1.4419602 0.20065257
0.53255302 1.4435481 0.18723261
0.52621961 1.4263806 0.17155583
0.53016031 1.4370624 0.15931644
0.52717572 1.4289724 0.14499591
0.52409595 1.4206243 0.13247673
0.52438486 1.4214073 0.12256344
0.52469313 1.422243 0.11100456
0.52842528 1.4323593 0.10006679
0.52521867 1.4236676 0.087841623
0.52543575 1.424256 0.076238886
0.52557164 1.4246243 0.067971162
0.52921587 1.4345024 0.055077497
0.52936208 1.4348986 0.041732453
0.52598482 1.4257443 0.031514198
0.52952093 1.4353293 0.018371593
0.52609509 1.4260432 0.0049874438
0.52609515 1.4260433 -0.0049609151
0.5260601 1.4259483 -0.01822499
0.52944547 1.4351248 -0.031694833
0.52586991 1.4254327 -0.044747964
0.53263199 1.4437623 -0.058768068
0.53243423 1.4432261 -0.072194904
0.53219593 1.4425801 -0.085616246
0.5284996 1.4325608 -0.096735753
0.52477634 1.4224685 -0.10767057
0.52447617 1.4216548 -0.11925782
0.52414608 1.42076 -0.13081168
0.52717662 1.4289747 -0.14496933
0.53016126 1.437065 -0.15928969
0.53309929 1.4450289 -0.17377152
0.53255415 1.4435512 -0.18720576
0.53196841 1.4419636 -0.20062575
0.53134221 1.4402661 -0.21403044
0.53058863 1.4382235 -0.22910459
0.52987647 1.436293 -0.24247342
0.52580661 1.4252613 -0.25250307
0.5284332 1.4323808 -0.26747608
0.53111464 1.4396492 -0.28094035
0.52684683 1.4280808 -0.2924338
0.53272986 1.4440275 -0.30965048
0.52826667 1.4319295 -0.3226642
0.53065193 1.438395 -0.3381246
0.5294764 1.4352086 -0.35317317
0.52502394 1.4231397 -0.36417475
0.53047723 1.4379215 -0.38389531
0.52929753 1.4347237 -0.39725545
0.52792096 1.4309922 -0.41226268
0.52665561 1.4275626 -0.42555729
0.5286752 1.4330369 -0.44159681
0.52715063 1.4289043 -0.45655766
0.52905816 1.4340749 -0.47278607
0.52742469 1.4296472 -0.48778287
0.53250545 1.4434192 -0.50732535
0.5274812 1.4298004 -0.51916695
0.52875364 1.4332495 -0.53908765
0.52689469 1.4282106 -0.55407262
0.52520114 1.42362 -0.56733596
0.52346754 1.4189209 -0.58055609
0.52469039 1.4222355 -0.59903777
0.52629918 1.4265964 -0.61435479
0.52146292 1.4134872 -0.62211776
0.52299064 1.417628 -0.63750404
0.52471536 1.4223032 -0.65132737
0.53223228 1.4426787 -0.67661446
0.52701259 1.4285301 -0.68590051
0.52806407 1.4313803 -0.70334834
0.53218049 1.4425384 -0.72516686
0.52685249 1.4280961 -0.73421246
0.52771902 1.430445 -0.75189078
0.52851868 1.4326125 -0.76966834
0.5264715 1.4270635 -0.78129238
0.52775872 1.4305526 -0.79585809
0.52563757 1.4248029 -0.80749106
0.53230381 1.4428725 -0.83502781
0.52976137 1.4359812 -0.84841686
0.53019112 1.4371459 -0.86666548
0.5245558 1.4218707 -0.875
0.52819902 1.4317461 -0.89666545
0.52878177 1.4333258 -0.91343689
0.52635509 1.4267479 -0.92506254
0.5238921 1.4200717 -0.93666077
0.52433348 1.4212681 -0.95350486
0.52471036 1.4222896 -0.97044897
0.52503401 1.4231669 -0.98743868
0.52529222 1.4238669 -1.0045253
0.52262515 1.4166375 -1.0160714
0.51992148 1.4093089 -1.0275846
0.51473868 1.3952603 -1.0316942
0.5120002 1.3878373 -1.0430069
0.51203901 1.3879424 -1.0601094
0.51482147 1.3954847 -1.083135
0.52863431 1.4329259 -1.1301633
0.54267532 1.4709858 -1.1761396
0.55056602 1.4923744 -1.21231
0.55555242 1.5058907 -1.2428011
0.54409409 1.4748315 -1.2364601
0.54351068 1.4732502 -1.2546833
0.5514161 1.4946789 -1.2901068
0.55066752 1.4926497 -1.3085725
0.54718912 1.4832211 -1.3206966
0.54896528 1.4880356 -1.345655
0.54852974 1.4868549 -1.3625261
0.55273032 1.4982411 -1.3943324
0.54644364 1.4812002 -1.3998375
0.55152029 1.4949611 -1.4284666
0.54974169 1.49014 -1.4490572
0.55295342 1.4988459 -1.4832746
0.5579443 1.5123742 -1.5263755
0.55580521 1.5065759 -1.5473233
0.55792201 1.5123138 -1.5840549
0.54577404 1.4793853 -1.5768481
0.53613859 1.4532672 -1.5762835
0.52955478 1.4354211 -1.5808662
0.52177024 1.4143202 -1.5885699
0.50987071 1.3820651 -1.579724
0.38582495 1.0458243 -1.2165076
0.36824006 0.99815834 -1.1816002
0.36192027 0.98102778 -1.1844822
0.38327581 1.0389146 -1.2766582
0.42882919 1.1623924 -1.4667479
0.15680514 0.42503893 -0.58511031
0.11384006 0.28752717 1.7427762
0.1208173 0.30514964 1.7494819
0.12856372 0.32471487 1.7759875
0.13133292 0.33170909 1.743881
0.13769932 0.34778881 1.7504804
0.14251676 0.35995623 1.737389
0.15058856 0.38034329 1.7631682
0.15452044 0.39027405 1.7400889
0.16030329 0.40487993 1.7465323
0.16775127 0.42369133 1.7620287
0.17174476 0.43377775 1.7488397
0.17833614 0.45042568 1.7543411
0.18497589 0.46719578 1.7596625
0.18958004 0.4788245 1.7456192
0.19518054 0.49296975 1.7410587
0.20076616 0.50707746 1.7363656
0.20747024 0.52401 1.7410542
0.21468461 0.54223144 1.7556752
0.21723363 0.54866952 1.7322446
0.22574303 0.57016182 1.7560055
0.23137552 0.58438784 1.7505873
0.23699039 0.59856939 1.7450359
0.24519567 0.61929357 1.7580541
0.24949978 0.6301645 1.7428547
0.25578085 0.6460287 1.736123
0.26344976 0.66539812 1.738459
0.27331737 0.69032091 1.7597883
0.2789602 0.70457304 1.7532421
0.28607175 0.72253472 1.7557068
0.28575987 0.72174704 1.7232302
0.29366487 0.74171281 1.7354317
0.30236197 0.76367915 1.7465026
0.30636537 0.77379054 1.7302568
0.31191206 0.78779995 1.7229284
0.32170069 0.81252325 1.7432196
0.32993537 0.83332163 1.7543141
0.32976314 0.83288664 1.720801
0.34737626 0.87737226 1.7747246
0.35482079 0.89617503 1.7752106
0.36051005 0.91054446 1.7667319
0.37269685 0.94132477 1.794047
0.37477171 0.94656527 1.7678123
0.37601268 0.94969964 1.7427235
0.38915315 0.9828887 1.7680751
0.40056798 1.0117192 1.7843962
0.40628502 1.0261588 1.7748326
0.4159134 1.0504774 1.7820251
0.42633101 1.0767893 1.7876428
0.4320575 1.0912527 1.7774684
0.44258317 1.1178374 1.7824308
0.44829229 1.1322571 1.7718713
0.4504391 1.1376793 1.7434708
0.46458656 1.1734117 1.7652661
0.47529003 1.2004455 1.7689346
0.47875839 1.2092057 1.7495748
0.4910261 1.2401904 1.7620786
0.50411654 1.2732531 1.7726514
0.51434362 1.2990837 1.7763536
0.52765673 1.3327088 1.7859355
0.53570306 1.3530314 1.7811031
0.54210848 1.3692096 1.7667437
0.54300022 1.371462 1.7385749
0.54307097 1.3716407 1.7120968
0.54126871 1.3670887 1.6766027
0.55153662 1.3930225 1.678629
0.55261505 1.3957464 1.649063
0.55168116 1.3933876 1.6106269
0.54039854 1.3648909 1.5571263
0.54159594 1.3679152 1.5402539
0.54200369 1.3689451 1.5113971
0.54046172 1.3650504 1.487494
0.54462242 1.3755592 1.4762532
0.54350954 1.3727485 1.4508822
0.55021262 1.3896785 1.4465337
0.54683614 1.3811504 1.4127611
0.54597467 1.3789746 1.3860883
0.54985934 1.3887861 1.3747101
0.55425459 1.3998873 1.3616232
0.55035233 1.3900313 1.3285049
0.55182612 1.3937538 1.308831
0.54711074 1.381844 1.2778016
0.53664243 1.355404 1.2340968
0.55140257 1.392684 1.2485538
0.54636312 1.3799558 1.2180351
0.55263048 1.3957852 1.2129647
0.54690576 1.3813262 1.1844121
0.54153508 1.3677615 1.1544991
0.54476082 1.3759089 1.1432457
0.53917128 1.3617913 1.1137409
0.54228264 1.3696496 1.1025376
0.54240555 1.36996 1.0853138
0.54203063 1.3690131 1.0697691
0.54202384 1.3689959 1.0526919
0.54497039 1.376438 1.0414056
0.54526585 1.3771843 1.0227652
0.54507649 1.376706 1.0058192
0.54828686 1.3848145 0.9928596
0.54529399 1.3772554 0.96887666
0.54838568 1.3850641 0.95591336
0.54208928 1.3691612 0.92689633
0.54781216 1.3836156 0.92087436
0.54130816 1.3671883 0.89229
0.54415399 1.3743761 0.8794241
0.54059839 1.3653957 0.85641575
0.543329 1.3722924 0.84356803
0.54956263 1.3880367 0.83392739
0.54543847 1.3776202 0.81287104
0.54738528 1.3825374 0.8031562
0.55319864 1.3972203 0.79482508
0.54919291 1.387103 0.77248478
0.54806399 1.3842516 0.75655353
0.55706602 1.4069881 0.75243723
0.54924113 1.3872248 0.72769612
0.5551666 1.4021908 0.71732205
0.5507738 1.3910959 0.69570154
0.55380929 1.3987626 0.6776861
0.55259573 1.3956976 0.66050458
0.55131423 1.3924608 0.6434325
0.55021465 1.3896836 0.62485474
0.54879236 1.3860912 0.60801142
0.55096519 1.3915792 0.59333366
0.54598254 1.3789945 0.57304209
0.54457873 1.3754488 0.55495459
0.54979861 1.3886328 0.54545456
0.54827499 1.3847845 0.52741486
0.54994839 1.389011 0.51439768
0.55177933 1.3936355 0.49971968
0.54986131 1.3887912 0.48354065
0.55120599 1.3921875 0.4721081
0.55622202 1.4048564 0.46194729
0.55062556 1.3907213 0.44306394
0.55202788 1.3942633 0.42999429
0.55338818 1.3976991 0.41689187
0.55486691 1.4014338 0.40212691
0.55613756 1.4046432 0.38895828
0.55379307 1.3987216 0.37335128
0.54781044 1.3836112 0.35556132
0.5450694 1.3766881 0.3435539
0.54974538 1.3884983 0.33279485
0.55066586 1.3908231 0.32136914
0.54446578 1.3751636 0.30427304
0.55252683 1.3955234 0.29686421
0.55357397 1.3981682 0.28210175
0.5543499 1.4001281 0.27062428
0.55882692 1.4114357 0.25915572
0.54873616 1.3859493 0.2411084
0.5494898 1.3878528 0.22809123
0.55020159 1.3896506 0.21505666
0.5617336 1.4187771 0.20767044
0.55507571 1.4019612 0.19182244
0.5556708 1.4034642 0.17865685
0.55622357 1.4048603 0.16547765
0.55673397 1.4061495 0.15228586
0.55353618 1.3980727 0.13816744
0.55395895 1.3991406 0.1250404
0.55062306 1.3907151 0.11280747
0.55831069 1.4101319 0.10108045
0.55126399 1.3923339 0.086685814
0.55152148 1.3929842 0.073614582
0.55536491 1.4026917 0.064232811
0.5555501 1.4031594 0.051065229
0.55567759 1.4034814 0.039527193
0.55576092 1.4036919 0.029646875
0.55584127 1.4038947 0.014837328
0.55586773 1.4039617 0.0016603314
0.55585617 1.4039325 -0.0098828562
0.55948406 1.4130955 -0.023211977
0.55938822 1.4128534 -0.036473881
0.55924976 1.4125036 -0.049733005
0.55541557 1.4028196 -0.060915004
0.55522794 1.4023457 -0.072446972
0.5623247 1.4202701 -0.086739965
0.55835128 1.4102343 -0.099412754
0.55066842 1.3908297 -0.11116274
0.55767816 1.4085343 -0.12420281
0.55359179 1.3982131 -0.13651399
0.54946899 1.3878003 -0.14864096
0.55994999 1.4142723 -0.1648939
0.56671137 1.4313495 -0.18049036
0.55515301 1.4021565 -0.19016436
0.56181729 1.4189885 -0.20599246
0.56122118 1.417483 -0.21765313
0.55686104 1.4064704 -0.22944914
0.55256528 1.3956206 -0.2394048
0.55903536 1.4119622 -0.25581676
0.55819231 1.4098328 -0.26905915
0.56081021 1.416445 -0.28578934
0.55625874 1.4049492 -0.29714319
0.56236893 1.4203817 -0.31600156
0.55773407 1.4086754 -0.32720968
0.56011403 1.4146866 -0.34428799
0.55898672 1.4118392 -0.35755262
0.55766875 1.4085104 -0.37242949
0.55645114 1.4054351 -0.38563505
0.55534965 1.4026531 -0.39717904
0.55405259 1.399377 -0.41032869
0.55979937 1.4138918 -0.42887592
0.55133194 1.3925055 -0.43653327
0.56030095 1.4151586 -0.45987934
0.55528778 1.4024968 -0.47016823
0.55726105 1.4074807 -0.48637259
0.55896837 1.4117929 -0.50437599
0.55732679 1.4076468 -0.51760733
0.55478489 1.4012268 -0.53738016
0.55325997 1.3973752 -0.54885888
0.55492246 1.4015741 -0.56546539
0.55308479 1.3969327 -0.57859856
0.55462861 1.4008321 -0.59536266
0.54928327 1.3873311 -0.60473162
0.55411863 1.399544 -0.62540317
0.54870147 1.3858616 -0.63459772
0.55001628 1.3891824 -0.65157813
0.55798626 1.4093124 -0.67682344
0.55579072 1.4037671 -0.69002491
0.55355293 1.398115 -0.70317388
0.55459386 1.4007441 -0.72058421
0.55585849 1.4039383 -0.73646355
0.56036711 1.4153258 -0.756863
0.55791438 1.4091309 -0.77011788
0.55573088 1.4036161 -0.781681
0.55677605 1.4062557 -0.79783791
0.55451453 1.4005438 -0.80937666
0.55255258 1.3955885 -0.8192181
0.55667192 1.4059927 -0.84035748
0.56069875 1.4161634 -0.86174124
0.55826294 1.4100113 -0.87333304
0.55861008 1.4108881 -0.89159954
0.55292511 1.3965294 -0.8980419
0.55667776 1.4060075 -0.91986555
0.55720323 1.4073348 -0.93666077
0.55728638 1.4075447 -0.95516998
0.55419672 1.3997412 -0.96834433
0.5545426 1.4006147 -0.98527205
0.55135632 1.3925672 -0.99838018
0.55117327 1.3921047 -1.0170312
0.55132437 1.3924863 -1.0341291
0.54278994 1.3709309 -1.0324376
0.54287469 1.371145 -1.0494515
0.54288846 1.3711798 -1.0665543
0.53944153 1.3624738 -1.0793831
0.56245673 1.4206036 -1.146136
0.57386172 1.4494092 -1.1880637
0.57632303 1.4556259 -1.2121903
0.5729028 1.4469874 -1.2240956
0.56944132 1.4382447 -1.2359567
0.572173 1.4451441 -1.2586408
0.57999498 1.4649 -1.2958679
0.57915646 1.4627821 -1.3142854
0.57825655 1.4605093 -1.332716
0.57673943 1.4566776 -1.3529088
0.57790148 1.4596125 -1.3797323
0.58726013 1.4832498 -1.4113806
0.57996809 1.4648322 -1.4185569
0.58353126 1.4738318 -1.4525189
0.58153516 1.4687902 -1.4731165
0.5847916 1.4770149 -1.5074965
0.58257461 1.4714155 -1.5282484
0.58026868 1.4655913 -1.5490094
0.58244824 1.4710964 -1.5856322
0.55929065 1.412607 -1.5493984
0.55429202 1.3999819 -1.5625976
0.55684447 1.4064286 -1.5974613
0.53915304 1.3617451 -1.5739962
0.47253254 1.193481 -1.4008269
0.39165422 0.9892056 -1.1816002
0.38493258 0.97222877 -1.1844822
0.37387651 0.94430429 -1.1708995
0.35678115 0.90112633 -1.1448487
0.20763676 0.52443057 -0.72681463
0.1235465 0.29176497 1.7414101
0.13018829 0.30745006 1.7585862
0.13541451 0.31979221 1.7559886
0.13985905 0.33028838 1.7434876
0.14666976 0.3463724 1.7602596
0.14863957 0.35102427 1.7284641
0.15639399 0.36933693 1.7547454
0.16160803 0.3816503 1.7516352
0.16682456 0.39396957 1.7484157
0.17223461 0.40674582 1.7552757
0.17744976 0.41906184 1.7518559
0.18543063 0.43790931 1.7671307
0.18934442 0.44715202 1.7436467
0.19850688 0.46878991 1.7681717
0.20266417 0.47860768 1.7546401
0.20787655 0.49091712 1.7506249
0.21308872 0.5032261 1.7464985
0.22261399 0.52572078 1.7702149
0.22617067 0.5341202 1.7461851
0.23210384 0.54813182 1.7410569
0.23801933 0.56210172 1.7357962
0.2478936 0.58542061 1.7586163
0.25115305 0.59311807 1.7342529
0.26195398 0.61862534 1.7558709
0.26791877 0.63271159 1.7499416
0.27457994 0.64844251 1.7539179
0.28276026 0.66776103 1.7453487
0.29021588 0.68536806 1.7481549
0.29386345 0.69398206 1.7332436
0.30375573 0.71734345 1.7548649
0.30897772 0.72967565 1.7488586
0.31744242 0.74966568 1.7609178
0.32342222 0.76378751 1.7537465
0.3259818 0.76983207 1.7284369
0.33012235 0.7796104 1.7121118
0.34472975 0.81410694 1.7492831
0.35066894 0.82813281 1.7415015
0.3576653 0.84465528 1.7434256
0.36358407 0.85863292 1.7353548
0.3788527 0.89469099 1.770988
0.38486445 0.90888822 1.762442
0.38891199 0.91844684 1.7450796
0.40072826 0.94635189 1.7622244
0.41391739 0.97749907 1.7887336
0.41520602 0.98054224 1.7634457
0.42732453 1.0091611 1.7796313
0.42846495 1.0118543 1.7542715
0.4399668 1.0390168 1.771122
0.44810036 1.0582249 1.7695949
0.45840904 1.0825697 1.7761768
0.46879631 1.1071 1.7824308
0.47484356 1.1213812 1.7718713
0.48532772 1.1461403 1.77756
0.48909345 1.1550335 1.7584895
0.49964237 1.1799455 1.7636571
0.51565474 1.2177601 1.7831323
0.52170265 1.2320426 1.7715241
0.5308454 1.253634 1.7662121
0.54405713 1.2848345 1.7778645
0.55814254 1.3180983 1.7875104
0.56913126 1.344049 1.790453
0.57845712 1.3660729 1.7837131
0.57190752 1.3506054 1.7325377
0.57595783 1.3601706 1.7104995
0.5740338 1.3556268 1.6750107
0.57641345 1.3612466 1.6562474
0.58202726 1.374504 1.6432842
0.57436258 1.3564032 1.5934799
0.56841046 1.3423468 1.5530339
0.57504886 1.358024 1.5507063
0.57216847 1.3512217 1.51622
0.57393825 1.3554012 1.497826
0.5817703 1.3738972 1.4919953
0.57785606 1.3646533 1.4595217
0.57999849 1.3697128 1.4395792
0.58204937 1.3745563 1.4196526
0.57772624 1.3643469 1.3876923
0.58529526 1.3822217 1.381482
0.5812977 1.372781 1.3482081
0.58237845 1.3753333 1.330148
0.58101356 1.3721101 1.3038931
0.5795148 1.3685707 1.2778016
0.58086193 1.371752 1.2583305
0.58212095 1.3747253 1.238897
0.57422543 1.3560795 1.2005472
0.57524508 1.3584874 1.1813997
0.58230793 1.3751669 1.1746632
0.57605177 1.3603925 1.1464714
0.57635367 1.3611053 1.1290742
0.57969475 1.3689957 1.1177678
0.57092828 1.3482928 1.0809937
0.57774192 1.3643838 1.0740443
0.57502073 1.3579576 1.0494772
0.57856995 1.3663392 1.0365684
0.57521582 1.3584182 1.0138671
0.57821429 1.3654994 1.0025864
0.57793909 1.3648494 0.9856838
0.58085364 1.3717325 0.97435057
0.58005071 1.3698362 0.9591611
0.57999694 1.3697093 0.94079763
0.58317614 1.3772172 0.92778158
0.57593727 1.360122 0.9007023
0.5748812 1.3576281 0.88586551
0.57749903 1.3638103 0.87459499
0.57334393 1.3539976 0.85320991
0.57925212 1.3679503 0.84692323
0.57155341 1.3497691 0.82088369
0.57432485 1.3563142 0.80806112
0.58014411 1.3700569 0.80154669
0.58596325 1.3837992 0.79482508
0.57825762 1.3656018 0.76788664
0.58084852 1.3717203 0.75491607
0.58339518 1.3777344 0.74188799
0.58971477 1.3926587 0.73153144
0.57778573 1.3644874 0.70280713
0.57632333 1.3610338 0.68726879
0.58631915 1.3846397 0.67933989
0.58147383 1.373197 0.65811718
0.58754992 1.3875462 0.64737993
0.5789426 1.3672194 0.62260467
0.58077741 1.3715523 0.61126238
0.57921517 1.3678629 0.59452558
0.5812161 1.3725884 0.58154017
0.5831728 1.3772093 0.56851047
0.58508503 1.3817252 0.55543751
0.58328432 1.3774726 0.53893274
0.58141607 1.3730607 0.52255106
0.57969779 1.3690028 0.50465995
0.58139294 1.3730061 0.49166718
0.58655059 1.3851862 0.48333991
0.5844503 1.3802263 0.46721864
0.58209455 1.3746629 0.45284408
0.58379853 1.378687 0.43817979
0.589019 1.3910155 0.42782274
0.59045231 1.3944005 0.41462427
0.58824164 1.3891798 0.39717904
0.58201218 1.3744683 0.37907606
0.58312261 1.3770907 0.36768085
0.58814597 1.3889539 0.35691935
0.5817337 1.3738108 0.33930773
0.57891947 1.3671647 0.3257499
0.57618999 1.3607188 0.3107236
0.57709736 1.3628616 0.29944423
0.57414544 1.3558904 0.28621349
0.58264631 1.375966 0.27864116
0.57950717 1.3685526 0.26708668
0.58423758 1.3797239 0.25579005
0.58123648 1.3726364 0.2411084
0.58588928 1.3836246 0.22960176
0.58664823 1.3854169 0.21648088
0.58341271 1.3777759 0.2036249
0.58408338 1.3793597 0.19056045
0.58463311 1.380658 0.17913018
0.58507776 1.381708 0.16931328
0.58944327 1.3920175 0.15888326
0.58601773 1.3839278 0.14637968
0.59037757 1.3942239 0.13414161
0.58303767 1.3768902 0.11933283
0.58342153 1.3777968 0.10627996
0.59154445 1.3969797 0.094461933
0.58405596 1.3792949 0.080150962
0.58817297 1.3890176 0.069156289
0.58438909 1.3800818 0.062159549
0.58847558 1.3897322 0.049405813
0.58470732 1.3808333 0.037642799
0.58871192 1.3902904 0.024719391
0.58487445 1.3812279 0.011466702
0.58879083 1.3904767 9.2460833e-17
0.58877367 1.3904362 -0.011516793
0.5887121 1.3902907 -0.02469304
0.58470756 1.3808339 -0.037616629
0.58457839 1.3805287 -0.049078625
0.58831149 1.3893448 -0.060915004
0.58811277 1.3888754 -0.072446972
0.58788019 1.3883262 -0.083948396
0.58376163 1.3785998 -0.093192883
0.5834223 1.3777984 -0.10625385
0.58303851 1.3768922 -0.11930673
0.58649439 1.3850535 -0.13323285
0.58601874 1.3839302 -0.14635345
0.58556533 1.3828595 -0.15783799
0.58888018 1.3906877 -0.17206888
0.58827227 1.3892521 -0.1852414
0.59140086 1.3966405 -0.20134641
0.59069318 1.3949693 -0.21457423
0.58617991 1.3843108 -0.22467031
0.5854947 1.3826926 -0.23612949
0.5885154 1.3898263 -0.25086343
0.59148014 1.3968278 -0.26575044
0.59055334 1.3946391 -0.27897757
0.58587527 1.3835914 -0.28866047
0.59251612 1.3992743 -0.30570588
0.59131843 1.3964458 -0.32059586
0.59020501 1.3938164 -0.33381727
0.58509815 1.3817562 -0.34642461
0.58768862 1.3878738 -0.36184031
0.59400189 1.4027832 -0.37981737
0.58530277 1.3822393 -0.38643876
0.58773309 1.3879787 -0.40210059
0.59010106 1.3935709 -0.41790047
0.5886566 1.3901597 -0.43109095
0.59071517 1.3950212 -0.44874424
0.58916575 1.3913621 -0.46194729
0.58757144 1.387597 -0.47511515
0.58201891 1.3744842 -0.48677215
0.58403683 1.3792497 -0.50296241
0.58944964 1.3920326 -0.52420831
0.58695644 1.3861448 -0.54229593
0.58532286 1.3822868 -0.55378729
0.59435523 1.4036175 -0.57749438
0.58146507 1.3731763 -0.57990086
0.57946968 1.3684641 -0.59289187
0.58103913 1.3721704 -0.60962427
0.57867956 1.3665982 -0.62421095
0.57680202 1.3621643 -0.63553762
0.58532465 1.3822911 -0.66050458
0.58661008 1.3853267 -0.6776861
0.58782285 1.3881909 -0.69497514
0.58221036 1.3749365 -0.70219707
0.58361602 1.3782561 -0.71791548
0.58496678 1.3814459 -0.73370361
0.58593565 1.383734 -0.75123882
0.58715349 1.38661 -0.76724392
0.58797914 1.3885598 -0.78497267
0.58872855 1.3903297 -0.80279636
0.58940119 1.3919182 -0.82071304
0.5872941 1.386942 -0.83058858
0.58480686 1.3810682 -0.84205192
0.58566511 1.3830951 -0.85845453
0.58309507 1.3770257 -0.86988527
0.58719587 1.3867102 -0.89147961
0.58490819 1.3813076 -0.90131664
0.58886451 1.3906507 -0.92316246
0.58609557 1.3841116 -0.9346801
0.58659428 1.3852894 -0.95146227
0.58374101 1.3785512 -0.96293455
0.58127105 1.3727182 -0.97271204
0.58161056 1.3735199 -0.98958182
0.58145142 1.3731441 -1.0081614
0.5812099 1.3725737 -1.0268089
0.57769382 1.3642702 -1.0397772
0.57140315 1.3494142 -1.0452653
0.5678246 1.3409634 -1.0580134
0.56733733 1.3398126 -1.0766293
0.58017367 1.3701266 -1.1161325
0.60734046 1.4342831 -1.1897771
0.60942465 1.4392051 -1.2156029
0.60526508 1.429382 -1.2291955
0.60053474 1.4182109 -1.2443616
0.60531217 1.4294932 -1.2768111
0.60148859 1.4204634 -1.2886409
0.60302186 1.4240845 -1.3150088
0.61031789 1.4413146 -1.3546307
0.61212921 1.4455922 -1.3797323
0.61387724 1.4497203 -1.3897718
0.60912484 1.4384972 -1.4034574
0.61295933 1.4475526 -1.4372796
0.61660933 1.4561723 -1.4713786
0.61441058 1.4509798 -1.4919977
0.61773396 1.4588283 -1.5265074
0.61251616 1.446506 -1.540274
0.60658514 1.4324994 -1.555635
0.5985356 1.4134898 -1.5620185
0.56404352 1.332034 -1.4946371
0.51802844 1.2233657 -1.3999726
0.48077455 1.1353877 -1.3250852
0.44783327 1.0575942 -1.2533715
0.41224182 0.97354209 -1.1741688
0.4030633 0.95186627 -1.168371
0.39091039 0.92316622 -1.1557912
0.39050952 0.92221951 -1.1830103
0.22949696 0.54197544 -0.75841528
0.065364517 0.15436354 -0.23664187
0.12876999 0.28519392 1.7522793
0.13354018 0.29575872 1.7298248
0.1413351 0.31302255 1.7465513
0.14760175 0.32690164 1.7434876
0.1529928 0.3388415 1.7305143
0.1610003 0.35657614 1.7467204
0.1672668 0.37045491 1.7432398
0.17352058 0.38430548 1.7396264
0.18176964 0.40257511 1.7552757
0.18702704 0.41421896 1.7416784
0.19542193 0.43281162 1.7569531
0.20283225 0.44922367 1.7623726
0.20494209 0.4538964 1.7297331
0.21466501 0.47543031 1.7540767
0.21854109 0.48401484 1.730338
0.2264529 0.50153756 1.745302
0.23192416 0.51365507 1.7410542
0.23739441 0.52577037 1.7366949
0.24495327 0.54251134 1.7410569
0.25392663 0.5623852 1.7546636
0.25742009 0.5701223 1.7304033
0.2664898 0.59020948 1.7436272
0.27409619 0.60705578 1.7580541
0.27811882 0.61596495 1.7435989
0.28741106 0.63654494 1.756219
0.29450184 0.65224922 1.738459
0.30393288 0.67313671 1.7505747
0.31020778 0.68703407 1.7440629
0.3147935 0.69719028 1.7282739
0.3243846 0.71843225 1.7397499
0.32983559 0.73050487 1.7336872
0.33780828 0.74816239 1.7356666
0.34223655 0.75796992 1.7194347
0.35673597 0.79008257 1.7578706
0.35933062 0.79582912 1.7323792
0.37119073 0.82209635 1.7513638
0.3774659 0.8359943 1.7434256
0.39345124 0.87139791 1.7793993
0.39784691 0.8811332 1.7622207
0.4053731 0.89780188 1.7635262
0.41417471 0.91729528 1.7744375
0.41357192 0.91596031 1.7407111
0.4302502 0.95289856 1.7749561
0.4373939 0.96872014 1.7646155
0.44508243 0.98574829 1.7649652
0.4601264 1.019067 1.7893815
0.46653473 1.0332599 1.7795559
0.47290751 1.047374 1.7695949
0.48912758 1.0832975 1.7915694
0.49323779 1.0924006 1.7728444
0.50739729 1.1237605 1.7856681
0.51615816 1.1431636 1.7830193
0.52092969 1.1537313 1.7625085
0.52966887 1.1730864 1.7594656
0.54414433 1.2051462 1.7707709
0.5571481 1.2339463 1.7845342
0.57108271 1.2648079 1.7963923
0.57496786 1.2734126 1.7763536
0.58904171 1.3045828 1.7875104
0.60405219 1.3378273 1.7965909
0.59995538 1.3287539 1.7529594
0.60356867 1.3367565 1.7325377
0.60708123 1.3445358 1.7120968
0.61124605 1.3537599 1.6900332
0.6090613 1.3489212 1.6546468
0.61294901 1.3575315 1.6326364
0.60407227 1.3378718 1.5845491
0.61045033 1.3519976 1.5700487
0.60543233 1.340884 1.5402539
0.6045298 1.3388852 1.5146056
0.60705519 1.3444781 1.4946111
0.60656697 1.3433969 1.4675698
0.60887265 1.3485034 1.4476577
0.61108172 1.3533959 1.42776
0.61618567 1.3647 1.4147471
0.60794437 1.3464475 1.3776367
0.59406489 1.3157079 1.325745
0.6104266 1.351945 1.3415006
0.60540003 1.3408124 1.3101957
0.60331613 1.336197 1.2857243
0.60733396 1.3450956 1.274505
0.60448951 1.3387958 1.251846
0.59895277 1.3265333 1.2212964
0.60276854 1.3349843 1.2101599
0.60070091 1.3304051 1.1847281
0.60441029 1.3386204 1.1735346
0.59888983 1.326394 1.1421515
0.59970933 1.3282089 1.1233031
0.59666079 1.3214571 1.1000668
0.6005885 1.3301561 1.0873721
0.60447049 1.3387538 1.0745947
0.60162175 1.3324445 1.050068
0.60536975 1.3407454 1.0372701
0.60230416 1.3339559 1.013011
0.60591906 1.341962 1.0002
0.60606372 1.3422823 0.98176622
0.60612237 1.3424122 0.96340281
0.60567433 1.3414201 0.94670534
0.60167235 1.3325565 0.92476135
0.61155307 1.3544399 0.92411876
0.60350269 1.3366103 0.89869756
0.60630584 1.3428186 0.88748604
0.59922796 1.3271428 0.85773981
0.60228539 1.3339143 0.84500003
0.59813368 1.3247192 0.82234734
0.5974648 1.3232379 0.80478394
0.60394859 1.3375978 0.79685515
0.60678715 1.3438846 0.7840175
0.60923028 1.3492955 0.77274853
0.61198205 1.3553901 0.75979978
0.60699683 1.344349 0.73944616
0.61332387 1.3583618 0.7309494
0.61221504 1.355906 0.71359068
0.61102849 1.3532782 0.69633502
0.6106739 1.3524928 0.6743446
0.61307228 1.3578047 0.66136903
0.61164838 1.354651 0.64436549
0.61043286 1.351959 0.62584239
0.61265707 1.3568851 0.61287373
0.60337812 1.3363343 0.58868098
0.60572523 1.3415327 0.5742709
0.60751408 1.3454945 0.56300193
0.60589808 1.3419156 0.54502308
0.61170381 1.3547738 0.5355432
0.60972011 1.3503804 0.51924378
0.6074419 1.3453346 0.50466716
0.60923105 1.3492973 0.49176657
0.61097383 1.3531572 0.47882855
0.60874277 1.3482157 0.46286783
0.61038178 1.3518457 0.44994125
0.61592251 1.3641171 0.43979964
0.61747843 1.3675631 0.42672169
0.61483312 1.3617045 0.41260299
0.6162914 1.3649342 0.39954919
0.61371762 1.3592337 0.38397163
0.6110791 1.3533902 0.36853385
0.60821915 1.3470562 0.35483694
0.60931516 1.3494835 0.3435539
0.60636246 1.342944 0.33003926
0.60723841 1.3448839 0.32038829
0.6082263 1.347072 0.30912441
0.60514665 1.3402513 0.29584441
0.60201722 1.3333204 0.28272253
0.60693526 1.3442127 0.27335328
0.61599904 1.3642867 0.26394522
0.60880601 1.3483559 0.24757141
0.60956538 1.3500376 0.23628059
0.60622221 1.3426334 0.22345047
0.6070016 1.3443595 0.21058646
0.61181349 1.3550166 0.19903332
0.60433817 1.3384607 0.18357098
0.60489678 1.3396978 0.17236483
0.6136027 1.3589793 0.16330031
0.61409736 1.3600749 0.15192305
0.61449343 1.360952 0.14215286
0.61492264 1.3619027 0.13073361
0.61536872 1.3628906 0.11768864
0.60751057 1.3454868 0.1048629
0.61607838 1.3644624 0.093219012
0.61228043 1.3560508 0.079616621
0.61254305 1.3566325 0.066629626
0.61270934 1.3570008 0.056885999
0.6087572 1.3482478 0.045196999
0.61299539 1.3576343 0.03414211
0.61308491 1.3578326 0.022753846
0.6131385 1.3579512 0.011390257
0.61315638 1.3579909 9.1236189e-17
0.61314327 1.3579618 -0.0097519578
0.61720955 1.3669677 -0.021257399
0.61712462 1.3667796 -0.032722328
0.62111735 1.3756224 -0.044453569
0.61684704 1.3661648 -0.055619616
0.61257279 1.3566984 -0.06499289
0.61646074 1.3653092 -0.076856814
0.620269 1.3737435 -0.090526007
0.61586034 1.3639796 -0.10136995
0.60731733 1.3450587 -0.11127761
0.61099523 1.3532044 -0.12499095
0.61468202 1.3613698 -0.13725244
0.61416572 1.3602264 -0.1502821
0.62178403 1.377099 -0.16547765
0.62116611 1.3757305 -0.17865685
0.62050092 1.3742572 -0.19182244
0.61580265 1.3638517 -0.20197962
0.61514926 1.3624046 -0.21341313
0.61435944 1.3606553 -0.2264498
0.61769462 1.3680419 -0.2394048
0.62086934 1.3750732 -0.25415561
0.61599904 1.3642867 -0.26394522
0.61515272 1.3624122 -0.2753545
0.61818087 1.3691188 -0.29028618
0.62114829 1.3756909 -0.30536711
0.6160019 1.364293 -0.31645915
0.61900789 1.3709506 -0.3300361
0.61779916 1.3682734 -0.34315014
0.61253983 1.3566253 -0.35392484
0.61923563 1.371455 -0.37169692
0.61805099 1.3688313 -0.38316303
0.61682761 1.3661216 -0.39463302
0.61917412 1.3713186 -0.41195709
0.61371171 1.3592207 -0.42234674
0.61592251 1.3641171 -0.43979964
0.61431974 1.3605673 -0.45284408
0.61638838 1.3651489 -0.47046143
0.61837 1.3695377 -0.48824686
0.61659312 1.3656024 -0.50134134
0.61842936 1.3696692 -0.5192799
0.61194575 1.3553096 -0.53390843
0.61386591 1.3595624 -0.55032611
0.61956275 1.3721793 -0.57040858
0.60598469 1.3421073 -0.5726521
0.60772735 1.3459669 -0.58918631
0.61348134 1.3587105 -0.60798544
0.61099327 1.3532002 -0.62260467
0.60873419 1.3481967 -0.63553762
0.62119901 1.3758034 -0.66616589
0.61878312 1.3704526 -0.67931366
0.61258477 1.3567249 -0.68821323
0.61009002 1.3511996 -0.70117742
0.61866248 1.3701855 -0.7271508
0.61602765 1.3643501 -0.74024242
0.61735576 1.3672915 -0.75616539
0.61461675 1.3612252 -0.76922816
0.61183101 1.3550555 -0.7822324
0.61661232 1.3656449 -0.80299634
0.61443639 1.3608258 -0.81278604
0.61905992 1.3710657 -0.83387256
0.61642474 1.3652294 -0.84532195
0.61017919 1.351397 -0.85176712
0.60709715 1.3445712 -0.86467409
0.6145649 1.3611103 -0.89291024
0.61526024 1.3626504 -0.90947163
0.61588061 1.3640243 -0.92613649
0.61643857 1.3652601 -0.94285113
0.61735421 1.3672881 -0.95801723
0.61389041 1.3596165 -0.97107232
0.61380893 1.359436 -0.98958182
0.61113048 1.3535041 -0.99932295
0.61136544 1.3540243 -1.0162925
0.60815787 1.3469204 -1.027594
0.60154688 1.3322787 -1.0330899
0.60162932 1.3324612 -1.0500425
0.59878832 1.3261691 -1.0595887
0.59496045 1.3176913 -1.0722461
0.61079013 1.3527502 -1.1209828
0.63063049 1.3966917 -1.1732253
0.63288444 1.4016837 -1.1988496
0.63822526 1.4135122 -1.2308744
0.62737894 1.3894902 -1.2317923
0.63041568 1.396216 -1.254415
0.63537008 1.4071888 -1.2869439
0.63444388 1.4051374 -1.3051704
0.63969028 1.416757 -1.336449
0.63856721 1.4142697 -1.3548702
0.64045441 1.4184494 -1.3799347
0.64843345 1.4361209 -1.4032786
0.6403203 1.4181523 -1.4102602
0.6443063 1.4269803 -1.4441249
0.6480971 1.435376 -1.4782645
0.64573961 1.4301547 -1.4988588
0.63670003 1.4101343 -1.5072274
0.61665064 1.3657297 -1.485471
0.5787915 1.2818811 -1.4218936
0.52548593 1.1638224 -1.3108325
0.50368458 1.1155376 -1.2785842
0.48441759 1.072866 -1.2540727
0.47710556 1.0566716 -1.2569468
0.45543858 1.0086846 -1.2237773
0.42915857 0.95048088 -1.173588
0.41899452 0.92796999 -1.168681
0.40838519 0.90447295 -1.1644957
0.3805488 0.84282219 -1.1168408
0.13386296 0.27876899 1.7427762
0.13885425 0.28916332 1.72035
0.14700866 0.30614483 1.7371136
0.15192696 0.31638721 1.7348537
0.1576633 0.32833308 1.73212
0.16337736 0.34023258 1.7292917
0.17005029 0.35412893 1.7361094
0.17957836 0.3739711 1.7618165
0.18416899 0.38353106 1.7387023
0.19072989 0.39719409 1.7349234
0.19948047 0.41541713 1.7503531
0.2063875 0.42980099 1.7564383
0.21184413 0.4411644 1.7425832
0.22083211 0.45988181 1.7574532
0.22664121 0.47197926 1.753502
0.23198177 0.48310095 1.7393097
0.23985381 0.49949443 1.7440974
0.24643297 0.51319551 1.7391956
0.25299335 0.5268575 1.7341614
0.26237091 0.54638624 1.7478912
0.26605585 0.55406004 1.7236971
0.27851447 0.58000505 1.7558256
0.28126261 0.58572805 1.7321415
0.29008871 0.60410839 1.7457954
0.29584408 0.61609387 1.7406334
0.30559435 0.63639879 1.7639753
0.31060106 0.64682525 1.7376835
0.32052726 0.6674965 1.7497745
0.32802546 0.68311149 1.7532421
0.33288378 0.6932289 1.7374182
0.34122065 0.71059042 1.7397499
0.34960037 0.72804111 1.7418771
0.35534105 0.73999608 1.7356666
0.36107412 0.75193518 1.7293407
0.37059364 0.77175951 1.7408755
0.37715563 0.78542489 1.7333382
0.38682759 0.80556667 1.7444273
0.39457855 0.82170802 1.746426
0.40560198 0.84466422 1.7669265
0.40937984 0.85253161 1.7509135
0.42224932 0.87933224 1.7688642
0.42807698 0.89146835 1.7613728
0.433893 0.90358013 1.7537616
0.44922408 0.93550706 1.7795012
0.45897529 0.95581383 1.777825
0.46567351 0.96976286 1.7685045
0.47545907 0.99014127 1.7663405
0.48590451 1.0118939 1.7748148
0.49493602 1.0307019 1.7733561
0.5135026 1.0693668 1.8050954
0.51307535 1.068477 1.7697487
0.51813406 1.0790118 1.749763
0.53462446 1.113353 1.7720671
0.54212272 1.128968 1.7598677
0.55721509 1.1603979 1.7717472
0.56903625 1.1850153 1.7765237
0.58176947 1.2115321 1.7795039
0.59027612 1.2292473 1.7771115
0.60496175 1.25983 1.7887844
0.61708522 1.285077 1.7921727
0.62655574 1.3047994 1.7874358
0.6341148 1.3205411 1.7731524
0.63243061 1.3170338 1.7373409
0.63978976 1.3323591 1.7229011
0.62919146 1.3102883 1.664741
0.63335061 1.3189497 1.642936
0.63953263 1.3318237 1.6301054
0.63468194 1.3217221 1.5861366
0.6347174 1.3217961 1.5587139
0.63241595 1.3170033 1.5362136
0.63217419 1.3164998 1.5090342
0.63785046 1.3283206 1.4962323
0.63428563 1.3208969 1.4621263
0.63978463 1.3323485 1.4492837
0.6421178 1.3372073 1.4293919
0.63426924 1.3208628 1.3904762
0.63884151 1.3303844 1.3792603
0.63701671 1.3265843 1.3543942
0.63122767 1.3145286 1.3245627
0.62590349 1.303441 1.2934011
0.63990998 1.3326095 1.3021395
0.6343804 1.3210942 1.2711694
0.63856828 1.3298154 1.2599292
0.62888443 1.3096489 1.2244689
0.63348591 1.3192314 1.2117442
0.63132292 1.3147269 1.186307
0.6357801 1.3240091 1.1735346
0.63678366 1.3260989 1.1544991
0.63083518 1.3137113 1.1233031
0.63505435 1.3224977 1.1105429
0.63471866 1.3217987 1.094934
0.63133907 1.3147606 1.0718749
0.63837504 1.3294131 1.0665543
0.63482416 1.3220184 1.043679
0.64180511 1.3365561 1.0381733
0.63404644 1.3203988 1.0114011
0.6337865 1.3198574 0.99458092
0.63345993 1.3191773 0.97780359
0.64028716 1.333395 0.97210604
0.63984972 1.332484 0.95534217
0.64298517 1.3390137 0.94404054
0.63830912 1.3292757 0.9236815
0.6376611 1.3279263 0.90713847
0.64106351 1.3350117 0.8942489
0.63324225 1.318724 0.86600882
0.62485796 1.3012638 0.83974099
0.63137668 1.314839 0.83364373
0.63033617 1.3126721 0.81759912
0.63302326 1.3182679 0.80644357
0.63186091 1.3158474 0.79050446
0.63828033 1.3292159 0.7840175
0.63701284 1.3265762 0.76812124
0.63989013 1.3325682 0.7552501
0.64271867 1.3384587 0.74232143
0.64584506 1.3449694 0.72769612
0.64075524 1.3343698 0.70603818
0.6551674 1.364383 0.70577252
0.64694893 1.3472681 0.67522269
0.64947492 1.3525286 0.66215473
0.64797616 1.3494073 0.64507884
0.64639819 1.3461212 0.6281141
0.64474165 1.3426714 0.61126238
0.63898849 1.3306906 0.59080982
0.63743621 1.3274579 0.5726521
0.63930833 1.3313565 0.56140411
0.63734514 1.3272682 0.54502308
0.63937968 1.3315052 0.53215367
0.64136553 1.3356407 0.51924378
0.64330256 1.3396746 0.50629437
0.64131397 1.3355334 0.48853552
0.63466585 1.3216887 0.47110346
0.64033741 1.3334997 0.46286783
0.64184695 1.3366433 0.45157191
0.63917202 1.3310728 0.43738362
0.64496094 1.3431281 0.4272379
0.63801271 1.3286585 0.41049561
0.64371902 1.3405418 0.4002167
0.64101666 1.3349142 0.38470992
0.63824648 1.3291453 0.36934274
0.63945001 1.3316517 0.3580606
0.63656259 1.3256387 0.34288517
0.64205766 1.3370821 0.33222494
0.63905603 1.3308312 0.31716824
0.64022982 1.3332756 0.30427304
0.63696927 1.3264855 0.29104334
0.63791376 1.3284523 0.27978605
0.64307773 1.3392063 0.27032843
0.64395344 1.3410301 0.25896385
0.6447897 1.3427715 0.24761017
0.6413148 1.335535 0.2346517
0.64624566 1.3458035 0.2264498
0.64279115 1.3386096 0.2119998
0.6435675 1.3402263 0.19903332
0.65270585 1.3592569 0.19182244
0.64480817 1.3428099 0.1763061
0.64544958 1.3441458 0.16330031
0.64173496 1.33641 0.14928021
0.64214414 1.3372622 0.13957413
0.64689893 1.3471639 0.12911656
0.64304626 1.3391409 0.11529662
0.64340901 1.3398962 0.10393715
0.64373344 1.3405719 0.092597552
0.64402103 1.3411708 0.08122661
0.6442374 1.3416213 0.071487412
0.64439631 1.3419523 0.063382052
0.64458722 1.3423499 0.052000251
0.64908636 1.3517193 0.039265424
0.6448819 1.3429636 0.026004085
0.64494175 1.3430883 0.016253056
0.64064795 1.3341464 0.0048561953
0.64497399 1.3431554 -0.006501331
0.64060539 1.3340577 -0.017745385
0.6448558 1.3429092 -0.029254202
0.64904773 1.3516389 -0.042536698
0.64886236 1.3512528 -0.055619616
0.64865983 1.350831 -0.067050651
0.6440593 1.3412505 -0.079590656
0.65237486 1.3585676 -0.093814172
0.64335996 1.339794 -0.10554549
0.64730728 1.3480144 -0.11768864
0.64252579 1.3380569 -0.12986206
0.64201081 1.3369844 -0.14281017
0.64575189 1.3447753 -0.1567927
0.64943594 1.3524473 -0.17093685
0.64446902 1.3421037 -0.18280402
0.65243137 1.3586853 -0.19674267
0.64747334 1.3483602 -0.20688863
0.65105474 1.3558184 -0.21973643
0.64603025 1.3453549 -0.22970632
0.64963955 1.3528713 -0.24105512
0.64455622 1.3422853 -0.2508333
0.64358419 1.340261 -0.26381776
0.65107387 1.3558583 -0.28044808
0.6457414 1.3447534 -0.2916441
0.64051563 1.3338708 -0.30104557
0.65205646 1.3579044 -0.32018399
0.64659601 1.3465332 -0.33115262
0.64532048 1.3438768 -0.3441751
0.64399576 1.3411182 -0.35717142
0.6508463 1.3553843 -0.37660617
