# .PCD v0.7 - Point Cloud Data file format
VERSION 0.7
FIELDS x y z
SIZE 4 4 4
TYPE F F F
COUNT 1 1 1
WIDTH 1491
HEIGHT 1
VIEWPOINT 0 0 0 1 0 0 0
POINTS 1491
DATA ascii
1.0630208 0.81127185 -0.24784032
1.0690644 0.81588417 -0.26140833
1.0747628 0.82023305 -0.27659091
1.0650293 0.81280464 -0.28628895
1.0704988 0.81697887 -0.30162528
1.0680954 0.81514466 -0.31481937
1.0658709 0.81344694 -0.32653242
1.0632688 0.81146109 -0.33969155
1.0762467 0.82136559 -0.35644272
1.0737331 0.81944722 -0.36824369
1.0711377 0.81746644 -0.38001662
1.0684607 0.81542343 -0.39176062
1.0733144 0.81912774 -0.40635675
1.0704547 0.8169452 -0.41812363
1.0826554 0.82625645 -0.43595594
1.0720403 0.81815529 -0.44469261
1.0689147 0.81576985 -0.45644405
1.0657074 0.81332225 -0.46816072
1.0699011 0.81652266 -0.48322091
1.0665082 0.81393331 -0.4949474
1.0709132 0.81729507 -0.50869811
1.0608251 0.80959618 -0.51391047
1.0650675 0.81283379 -0.52776176
1.0618366 0.81036812 -0.53796512
1.0658875 0.81345952 -0.55196702
1.0625098 0.81088185 -0.56217754
1.0663663 0.81382501 -0.57632601
1.0623276 0.81074286 -0.58801019
1.0732348 0.81906688 -0.60637981
1.0695186 0.81623071 -0.61668265
1.0729494 0.81884915 -0.63116211
1.0768214 0.82180411 -0.64427757
1.0728748 0.8187921 -0.65461385
1.0688746 0.81573927 -0.66488838
1.0790002 0.82346696 -0.68414962
1.081892 0.82567388 -0.69905108
1.0782318 0.82288045 -0.7079435
1.0809171 0.82492983 -0.72298622
1.0765021 0.82156044 -0.73333591
1.0720142 0.81813538 -0.74366653
1.0744058 0.81996059 -0.7588259
1.0773407 0.82220048 -0.77260804
1.1001172 0.83958286 -0.80302107
1.0739826 0.81963766 -0.7997846
1.0615885 0.81017876 -0.80637479
1.0702156 0.81676269 -0.82700503
1.0644377 0.81235325 -0.83872187
1.0600512 0.80900556 -0.84746766
1.0615467 0.81014681 -0.86306477
1.056283 0.80612969 -0.87322462
1.0839942 0.8272782 -0.9111352
1.0784384 0.82303816 -0.92150897
1.0605279 0.80936933 -0.91902226
1.0418885 0.79514414 -0.91772228
1.0233403 0.78098863 -0.91609573
1.0048605 0.76688528 -0.9141894
0.987261 0.75345379 -0.91061687
0.96896172 0.73948818 -0.90811366
0.94440007 0.72074336 -0.89929837
0.93261862 0.71175206 -0.90223694
0.92084432 0.70276618 -0.90502238
0.9098838 0.69440138 -0.90637642
0.89197338 0.68073261 -0.9025445
0.87415069 0.66713071 -0.89844155
0.86788481 0.66234875 -0.90800339
0.85548556 0.65288591 -0.91103482
0.84390908 0.64405107 -0.9126969
0.8323499 0.63522935 -0.91420853
0.83352935 0.6361295 -0.92766809
0.82196718 0.62730551 -0.9289552
0.79868007 0.60953331 -0.91661292
0.79811662 0.60910338 -0.93214959
0.78006333 0.59532553 -0.92714006
0.75721002 0.57788444 -0.91382849
0.74594045 0.56928372 -0.91410547
0.74037647 0.56503749 -0.92123574
0.72914773 0.55646795 -0.92124212
0.72354096 0.55218905 -0.92821103
0.7115584 0.54304421 -0.92891747
0.70042056 0.53454411 -0.92847919
0.69014066 0.52669871 -0.92692739
0.67372102 0.51416767 -0.91882074
0.65664428 0.50113505 -0.91136265
0.65477419 0.49970788 -0.92691034
0.63263404 0.48281106 -0.91146457
0.60998851 0.46552852 -0.89643586
0.52563077 0.40114871 -0.78974175
0.11114721 0.084824868 -0.18262267
0.36343312 0.26404962 2.4999588
0.37590015 0.27310744 2.4767945
0.39427653 0.28645867 2.4928071
0.4096818 0.29765126 2.4890087
0.42168134 0.30636942 2.4655066
0.44255626 0.32153594 2.4803948
0.461862 0.33556238 2.4852729
0.48283303 0.35079873 2.5100224
0.49830678 0.36204109 2.5053976
0.51354492 0.3731122 2.5110075
0.53110194 0.38586813 2.5157576
0.5466097 0.39713517 2.5106776
0.56214362 0.40842125 2.4950523
0.58421379 0.42445618 2.5081131
0.6020059 0.43738288 2.5121076
0.61513221 0.44691971 2.496793
0.63297158 0.4598808 2.5004513
0.64838195 0.47107705 2.4944112
0.66632324 0.48411217 2.4977088
0.68653196 0.49879467 2.4998956
0.69661963 0.50612378 2.4744616
0.71133715 0.51681668 2.4574378
0.72586757 0.52737367 2.4402854
0.75164199 0.5460999 2.4604287
0.75808936 0.55078417 2.4252706
0.75905466 0.55148548 2.3818691
0.76164007 0.55336392 2.3375399
0.75759637 0.55042601 2.274792
0.7590642 0.55149239 2.2307124
0.76197755 0.55360913 2.1857052
0.73818386 0.53632194 2.0676179
0.70612222 0.51302785 1.9319922
0.70955014 0.51551837 1.8970712
0.72471285 0.52653474 1.8993558
0.73991823 0.5375821 1.9014801
0.75165635 0.54611027 1.894433
0.76694149 0.55721563 1.8962362
0.78063053 0.56716126 1.898906
0.79400694 0.5768798 1.8904134
0.81111306 0.58930814 1.8906114
0.83047146 0.60337281 1.900489
0.84997195 0.61754078 1.9101286
0.88718891 0.64458048 1.9532056
1.0658497 0.77438509 2.2993026
1.0841142 0.78765506 2.2978024
1.0817457 0.78593427 2.2531164
1.0914667 0.79299694 2.2342687
1.0755793 0.78145409 2.1642687
1.0822288 0.78628522 2.1356349
1.0823644 0.78638381 2.1000447
1.0839307 0.78752178 2.0631297
1.0805939 0.78509742 2.0180037
1.0767038 0.78227109 1.9731094
1.0768459 0.78237432 1.9366965
1.0719165 0.77879286 1.8922412
1.0741796 0.78043717 1.8657856
1.060367 0.77040172 1.8165085
1.076354 0.78201693 1.8145003
1.0633518 0.77257031 1.7642047
1.0595828 0.76983196 1.7301859
1.060364 0.77039957 1.7042924
1.0623804 0.77186459 1.6770428
1.0576123 0.76840031 1.6434771
1.0575536 0.76835769 1.6179019
1.0675287 0.77560502 1.6078618
1.0632793 0.77251756 1.5732622
1.067722 0.77574545 1.555567
1.0653874 0.77404928 1.5317302
1.0695083 0.77704328 1.5140858
1.0680852 0.77600932 1.4889941
1.0718493 0.7787441 1.4714267
1.0699792 0.77738541 1.4465187
1.078894 0.78386235 1.4363661
1.0723252 0.77908993 1.4028676
1.074136 0.78040546 1.3869388
1.0782415 0.78338832 1.3681368
1.0764681 0.7820999 1.3422503
1.0744123 0.78060621 1.3165076
1.0767156 0.78227967 1.2993544
1.0730563 0.77962106 1.2752807
1.0750197 0.78104752 1.2582517
1.0768532 0.78237963 1.241237
1.0774497 0.78281301 1.2257267
1.0740615 0.78035134 1.2006431
1.0764495 0.78208637 1.1823694
1.084756 0.78812134 1.1707131
1.0858136 0.78888977 1.153933
1.080569 0.78507936 1.1307169
1.0813003 0.78561062 1.1140941
1.0746799 0.78080064 1.0926178
1.0823528 0.78637528 1.080984
1.0836064 0.78728604 1.0630512
1.0783091 0.78343737 1.0390263
1.0791798 0.78406996 1.0212764
1.0781085 0.7832917 1.006497
1.0843017 0.78779131 0.99628043
1.0904176 0.79223478 0.98602921
1.0833523 0.78710151 0.96401197
1.0826675 0.78660399 0.94799018
1.0810318 0.78541553 0.9334842
1.0867733 0.78958702 0.92324215
1.0857364 0.78883368 0.90736872
1.0845797 0.78799331 0.89154541
1.0840573 0.78761375 0.87434787
1.0901889 0.7920686 0.86262131
1.0817864 0.78596383 0.84166449
1.0876873 0.79025108 0.82996362
1.0796635 0.78442144 0.80784267
1.0783684 0.78348053 0.79106236
1.0769192 0.78242767 0.77437192
1.074653 0.78078115 0.75921124
1.0793064 0.78416198 0.74905789
1.0839074 0.78750485 0.73883754
1.0819641 0.78609294 0.72236532
1.0792426 0.78411561 0.70745891
1.0841961 0.78771454 0.69579065
1.0818547 0.78601342 0.67953908
1.0721228 0.77894282 0.65893912
1.083438 0.78716385 0.65317303
1.0801387 0.78476667 0.63862485
1.076732 0.78229159 0.62415391
1.080552 0.78506696 0.61398488
1.0848454 0.78818637 0.60230601
1.08061 0.7851091 0.58947921
1.0847305 0.78810287 0.57780069
1.0813111 0.78561848 0.56220084
1.0852391 0.78847229 0.55051583
1.0811043 0.78546828 0.53651941
1.0843834 0.78785068 0.52631164
1.0800539 0.7847051 0.51246619
1.0831846 0.78697968 0.50226903
1.078663 0.78369457 0.48857859
1.0888412 0.79108942 0.48322091
1.0765214 0.78213853 0.46632722
1.079374 0.78421104 0.45614147
1.0825531 0.7865209 0.44448131
1.0775673 0.78289849 0.43118274
1.0798273 0.78454047 0.422456
1.074677 0.78079855 0.40929571
1.0849206 0.78824103 0.40202388
1.0873753 0.7900244 0.39176062
1.089761 0.7917577 0.38149798
1.0924128 0.79368436 0.36972865
1.0868485 0.78964162 0.35682845
1.0814893 0.785748 0.34260878
1.0917211 0.79318178 0.33332822
1.0780088 0.78321922 0.31837845
1.0802155 0.78482246 0.30673829
1.0744395 0.780626 0.29292092
1.0846332 0.78803217 0.28191477
1.0704823 0.77775085 0.26771504
1.0802747 0.78486556 0.25805545
1.0900117 0.79193985 0.24820487
1.0915149 0.79303199 0.23789801
1.0933502 0.79436541 0.22465293
1.0869026 0.78968102 0.2112972
1.0803504 0.78492051 0.1980978
1.0897205 0.79172826 0.18781796
1.091005 0.79266149 0.17605644
1.0843198 0.78780448 0.16159993
1.0934596 0.79444492 0.15100802
1.0865567 0.78942966 0.13673073
1.0955361 0.79595357 0.12593125
1.0883218 0.79071206 0.11327032
1.0810127 0.78540176 0.10077468
1.0817617 0.78594583 0.087640196
1.0903476 0.79218394 0.078017235
1.0827764 0.78668314 0.065762363
1.0831995 0.78699052 0.054080393
1.0835401 0.78723794 0.042394303
1.0838248 0.78744483 0.029231945
1.0920794 0.79344213 0.017670954
1.092167 0.79350585 0.0044296379
1.0921495 0.79349309 -0.0088356659
1.0839564 0.78754038 -0.020463191
1.0918294 0.79326051 -0.033854965
1.0835023 0.78721052 -0.043843571
1.099268 0.79866499 -0.057828356
1.0826588 0.78659767 -0.068658754
1.0902085 0.79208285 -0.080933847
1.0895956 0.79163754 -0.092690393
1.0808338 0.7852717 -0.10366626
1.0881209 0.79056609 -0.11618143
1.0872593 0.78994006 -0.12791412
1.0863148 0.78925389 -0.13963707
1.0931904 0.79424936 -0.15395637
1.0841777 0.78770125 -0.16305017
1.1068921 0.80420423 -0.18012615
1.0895554 0.79160833 -0.18927541
1.0881777 0.79060733 -0.20102079
1.086717 0.78954613 -0.21275087
1.0851736 0.78842479 -0.22446474
1.0992718 0.79866767 -0.24110496
1.0895746 0.79162228 -0.25112018
1.103402 0.80166852 -0.26820067
1.0932982 0.79432768 -0.27953985
1.0994471 0.7987951 -0.2919628
1.097344 0.79726714 -0.30381098
1.0872786 0.78995413 -0.31336525
1.1007499 0.79974157 -0.32979268
1.0983796 0.79801953 -0.34165344
1.0880977 0.79054928 -0.35096329
1.093068 0.79416037 -0.36675832
1.098559 0.79814988 -0.37976947
1.0961838 0.79642409 -0.39011511
1.1014961 0.80028373 -0.40330178
1.0989755 0.79845244 -0.41367441
1.0886641 0.79096067 -0.42106041
1.0941162 0.79492199 -0.43290731
1.0910183 0.7926712 -0.44469261
1.0954981 0.79592592 -0.45965844
1.0922112 0.79353791 -0.47145763
1.0892704 0.79140127 -0.48174074
1.093421 0.7944169 -0.49692276
1.0907664 0.79248822 -0.50575787
1.0951595 0.79567999 -0.51963353
1.0994518 0.7987985 -0.53359783
1.0956428 0.79603112 -0.54543686
1.0917504 0.79320306 -0.55723435
1.0952252 0.79572773 -0.57288653
1.0980375 0.79777092 -0.59014863
1.10122 0.80008316 -0.60603762
1.1042612 0.8022927 -0.62203985
1.1003909 0.79948074 -0.63243222
1.1031899 0.80151439 -0.64857274
1.1131196 0.80872875 -0.66919541
1.1017004 0.80043221 -0.67525136
1.1053258 0.80306619 -0.68865061
1.1082407 0.80518401 -0.70362002
1.1110247 0.80720669 -0.71870816
1.1065577 0.80396122 -0.72916144
1.1020159 0.80066139 -0.73959607
1.1122448 0.80809319 -0.75815356
1.1075344 0.80467087 -0.76861721
1.1097724 0.80629683 -0.78402209
1.1118954 0.80783933 -0.79948992
1.1355035 0.82499158 -0.82880682
1.1164753 0.81116676 -0.82921129
1.1044236 0.80241072 -0.83449715
1.0992304 0.79863763 -0.84490854
1.093985 0.79482663 -0.85524696
1.0954679 0.79590404 -0.87096888
1.096043 0.79632181 -0.88823503
1.1099105 0.8063972 -0.91669089
1.0967093 0.79680592 -0.9230001
1.0768566 0.78238219 -0.92339474
1.0587103 0.76919812 -0.92057949
1.0390188 0.75489128 -0.92031479
1.0194124 0.74064648 -0.91969621
0.99421352 0.72233838 -0.9114092
0.98208672 0.7135278 -0.91475886
0.95714241 0.69540471 -0.90575421
0.94593453 0.6872617 -0.90734732
0.9275887 0.67393267 -0.90387714
0.90935457 0.66068476 -0.90009439
0.91003746 0.66118091 -0.91497082
0.89893067 0.65311134 -0.91595262
0.88084644 0.63997239 -0.91156179
0.87518317 0.63585776 -0.91985834
0.8694818 0.63171554 -0.92808235
0.85763419 0.62310767 -0.92967761
0.84664571 0.61512411 -0.9299534
0.83404773 0.60597116 -0.93234295
0.81552821 0.59251595 -0.92776
0.80894727 0.58773458 -0.93652147
0.79059219 0.57439888 -0.93141288
0.77900851 0.56598282 -0.93188471
0.76168191 0.55339426 -0.92520022
0.76249975 0.55398852 -0.93839806
0.7509979 0.54563195 -0.93844974
0.73388165 0.53319621 -0.93119252
0.71691275 0.52086759 -0.92365205
0.71117944 0.51670212 -0.93039924
0.70541781 0.51251608 -0.93707681
0.6941362 0.50431949 -0.93634224
0.67831051 0.49282143 -0.92710406
0.6671896 0.48474163 -0.92600411
0.65447527 0.4755041 -0.92653006
0.62157136 0.45159802 -0.89560497
0.5876295 0.42693782 -0.86563021
0.1819673 0.13220698 -0.29378429
0.3644352 0.25187665 2.4807549
0.38752905 0.26783782 2.5264568
0.39712703 0.2744714 2.4835167
0.41596022 0.2874878 2.4993656
0.43277615 0.29911 2.515579
0.44509217 0.30762213 2.4919393
0.46432781 0.32091671 2.507252
0.48194951 0.33309579 2.5126026
0.4977003 0.34398183 2.5080612
0.51968378 0.35917556 2.5220869
0.53776956 0.3716754 2.5164781
0.55581439 0.38414696 2.5106776
0.57378531 0.39656743 2.5150754
0.59181869 0.40903106 2.508893
0.61214346 0.42307836 2.5121076
0.63015407 0.43552625 2.5055184
0.65059042 0.4496507 2.5082755
0.66630912 0.46051458 2.5021708
0.68461818 0.47316873 2.5053961
0.70031786 0.48401946 2.4989758
0.71823084 0.49639988 2.4914517
0.73330092 0.50681543 2.4743297
0.74883968 0.51755494 2.4674432
0.76652443 0.52977765 2.4594057
0.7811693 0.53989929 2.4418607
0.7773307 0.53724629 2.3684645
0.78807402 0.54467148 2.3416176
0.78370565 0.54165232 2.2788854
0.78832138 0.54484248 2.2439466
0.78593546 0.54319346 2.1907411
0.75132078 0.51926976 2.0453548
0.72322416 0.49985096 1.9291179
0.73009211 0.50459772 1.9032464
0.74372733 0.51402158 1.8954291
0.76451838 0.52839118 1.9054434
0.77645141 0.53663862 1.8982998
0.7958039 0.5500139 1.908869
0.80775756 0.55827558 1.9014353
0.81797785 0.56533927 1.894968
0.83762652 0.57891929 1.9049499
0.85348749 0.58988148 1.9059116
0.87741286 0.60641736 1.9241633
0.90967512 0.62871516 1.9595174
1.0612913 0.73350358 2.2458258
1.114803 0.77048773 2.3237176
1.1167552 0.77183706 2.2875152
1.1140988 0.77000105 2.2428291
1.1152209 0.77077663 2.2068725
1.10727 0.76528138 2.1540422
1.1226913 0.77593964 2.1422143
1.1111445 0.76795924 2.0799031
1.1105634 0.76755756 2.0445058
1.1160129 0.77132398 2.0160542
1.1071831 0.76522136 1.9629014
1.1070991 0.76516324 1.9264883
1.1079376 0.76574278 1.9013186
1.1102494 0.7673406 1.874736
1.1122656 0.7687341 1.848246
1.0993178 0.75978529 1.7977282
1.1006495 0.76070571 1.7715241
1.096734 0.75799954 1.7374438
1.0990357 0.75959033 1.7099833
1.0907853 0.75388807 1.6669554
1.0908725 0.75394839 1.641237
1.0921618 0.75483942 1.6141561
1.0931461 0.75551975 1.5871741
1.0991627 0.75967813 1.5679064
1.0995963 0.7599777 1.5410782
1.0997291 0.76006949 1.5143614
1.1064124 0.76468867 1.4937211
1.1059781 0.7643885 1.4671819
1.0983402 0.75910956 1.4349222
1.1016821 0.76141936 1.4174051
1.1004121 0.76054168 1.3912474
1.1046046 0.76343924 1.3723736
1.1061785 0.76452702 1.356454
1.1029853 0.76232004 1.332063
1.0995698 0.75995946 1.3077873
1.1018195 0.76151437 1.290616
1.1050693 0.76376039 1.2720031
1.1141586 0.77004248 1.2602321
1.117092 0.77206981 1.2416173
1.1198435 0.77397144 1.2230366
1.1213408 0.77500635 1.2059685
1.1113299 0.76808733 1.1743456
1.1124163 0.76883817 1.1575052
1.1123401 0.7687856 1.142177
1.1068407 0.76498473 1.1190182
1.1201943 0.77421397 1.1150594
1.1143651 0.77018511 1.0920647
1.114741 0.77044493 1.0754846
1.1075538 0.76547754 1.0542622
1.1141514 0.77003735 1.0439392
1.1150441 0.77065438 1.0260451
1.1157652 0.77115279 1.008212
1.1163157 0.77153331 0.9904421
1.1100098 0.76717502 0.96691298
1.1160443 0.77134562 0.95659351
1.1152681 0.77080923 0.94049466
1.1143419 0.77016902 0.92449009
1.1064631 0.76472366 0.9029603
1.1189611 0.77336156 0.89818591
1.1168787 0.77192241 0.88380861
1.1154757 0.77095264 0.86801273
1.1139274 0.76988256 0.85231847
1.1122594 0.76872975 0.83668011
1.1104485 0.76747817 0.82114649
1.1148459 0.77051735 0.81229419
1.1057452 0.76422757 0.79175985
1.1106808 0.76763874 0.78148502
1.1090932 0.76654148 0.76473939
1.1073503 0.76533687 0.74808735
1.1126785 0.76901942 0.73631215
1.1100214 0.76718301 0.721237
1.1224453 0.77576971 0.71407133
1.1202072 0.77422279 0.69757795
1.116593 0.77172494 0.68414962
1.1214619 0.77508998 0.67227882
1.1108361 0.76774615 0.65315306
1.1074784 0.76542544 0.63852602
1.1120201 0.7685644 0.62675363
1.1164771 0.77164483 0.61493349
1.112784 0.76909238 0.60050684
1.1084529 0.76609898 0.58764309
1.1121161 0.76863068 0.57732546
1.1081161 0.76586622 0.56314069
1.1116252 0.76829147 0.552827
1.1069437 0.76505595 0.54024523
1.1103013 0.76737642 0.52996659
1.1059215 0.7643494 0.51604986
1.1091273 0.76656502 0.50578141
1.1122755 0.76874089 0.49545997
1.1239713 0.77682441 0.48552257
1.1118635 0.76845616 0.46704888
1.1143544 0.77017766 0.45819288
1.1097858 0.76702017 0.44323304
1.1129254 0.76919007 0.4314436
1.1159803 0.77130145 0.41962132
1.1107092 0.76765835 0.40635675
1.113584 0.76964527 0.39455891
1.1084565 0.76610148 0.38001662
1.1190791 0.77344316 0.37087402
1.121052 0.77480674 0.36196268
1.115639 0.77106553 0.34757414
1.1183898 0.77296674 0.33425531
1.1047361 0.76353014 0.31777334
1.1069753 0.76507771 0.30604225
1.1093956 0.76675051 0.29280519
1.1112006 0.76799798 0.28251103
1.0970532 0.75822014 0.26678935
1.1150873 0.7706843 0.25889379
1.1249969 0.77753323 0.24884537
1.1267405 0.77873826 0.23690198
1.1123621 0.7688008 0.22021732
1.1139008 0.76986414 0.20840904
1.1153544 0.7708689 0.1965849
1.116887 0.77192813 0.18327673
1.1263219 0.778449 0.17267311
1.1110362 0.76788431 0.15985087
1.1203189 0.77430004 0.14914761
1.1131619 0.76935357 0.13625577
1.1140977 0.77000028 0.1244422
1.1150482 0.77065724 0.11115249
1.1158037 0.77117938 0.099319875
1.1165527 0.77169704 0.085987337
1.1171274 0.77209431 0.074139722
1.117672 0.77247059 0.060816307
1.126287 0.77842486 0.049317759
1.1265982 0.77863991 0.037368275
1.1185986 0.77311105 0.025230428
1.1351891 0.78457749 0.013559943
1.1187911 0.77324414 8.3275985e-17
1.1187485 0.7732147 -0.011868089
1.1185989 0.77311128 -0.025206696
1.1183412 0.77293313 -0.038566604
1.1180217 0.77271235 -0.050428454
1.117561 0.77239394 -0.06375654
1.1252744 0.77772504 -0.076165102
1.1246848 0.77731752 -0.088099062
1.1158051 0.77118039 -0.099296197
1.1150498 0.77065837 -0.11112883
1.1142095 0.77007765 -0.12295301
1.1132845 0.76943827 -0.1347678
1.1204531 0.77439284 -0.14765009
1.1275209 0.77927768 -0.16069464
1.1261675 0.77834231 -0.17415458
1.1165581 0.7717008 -0.18621461
1.1233188 0.77637339 -0.19949755
1.1218438 0.77535403 -0.21140607
1.1284015 0.77988625 -0.22491661
1.1186378 0.77313817 -0.23517391
1.116907 0.7719419 -0.24703142
1.1150911 0.77068686 -0.25887012
1.1212568 0.77494824 -0.2726506
1.1270491 0.77895159 -0.28808808
1.1169028 0.77193904 -0.29788971
1.1147218 0.77043164 -0.30972645
1.1284624 0.77992839 -0.32616603
1.1263832 0.77849132 -0.33661896
1.1322067 0.78251618 -0.34953767
1.1299806 0.78097767 -0.36002463
1.1276835 0.77939004 -0.37051457
1.1246396 0.77728629 -0.38394246
1.130095 0.78105676 -0.3971594
1.1200448 0.77411062 -0.40330178
1.1253514 0.77777821 -0.41658762
1.1226988 0.77594483 -0.42703289
1.1199868 0.7740705 -0.43742943
1.1328285 0.78294593 -0.45408753
1.1299464 0.780954 -0.4645772
1.1192194 0.7735402 -0.47178745
1.1244099 0.7771275 -0.48401994
1.1213403 0.77500594 -0.49443069
1.1254568 0.77785105 -0.50979877
1.1217542 0.77529204 -0.52171814
1.1179662 0.77267396 -0.53359783
1.1145779 0.77033216 -0.54397106
1.1182375 0.77286148 -0.55958039
1.114694 0.77041239 -0.56993175
1.1191634 0.7735014 -0.58272535
1.1230031 0.77615517 -0.59711576
1.1267354 0.7787348 -0.61158741
1.1303422 0.78122759 -0.62618679
1.1344098 0.78403884 -0.63937283
1.1303651 0.78124344 -0.64987177
1.1262453 0.77839601 -0.66035682
1.1368333 0.78571391 -0.67960548
1.1325264 0.78273714 -0.69014978
1.1287862 0.78015214 -0.69914538
1.1316679 0.78214377 -0.71419817
1.1337653 0.78359348 -0.73086065
1.1284755 0.77993745 -0.74285978
1.123771 0.77668589 -0.75332451
1.1254889 0.77787328 -0.77012199
1.1270508 0.77895272 -0.78701293
1.1298954 0.78091884 -0.8010006
1.1311721 0.7818011 -0.81806892
1.1393219 0.78743386 -0.84041268
1.148016 0.79344267 -0.86145687
1.1216645 0.77523005 -0.85614675
1.1162602 0.77149487 -0.86652118
1.118475 0.77302557 -0.88082081
1.1266426 0.77867061 -0.90219092
1.1414545 0.78890771 -0.9293043
1.1083776 0.76604688 -0.91737205
1.0898757 0.75325948 -0.9148066
1.0639036 0.735309 -0.90765077
1.0447701 0.72208506 -0.9058966
1.0323952 0.71353227 -0.90968776
1.0133973 0.70040202 -0.90739346
0.99530721 0.68789917 -0.90347016
0.98223525 0.67886454 -0.90794098
0.95616633 0.66084719 -0.89995939
0.94320893 0.65189183 -0.90387714
0.92385298 0.6385141 -0.90132982
0.91097689 0.62961489 -0.90476865
0.90527362 0.62567312 -0.91318834
0.89950442 0.62168574 -0.921574
0.8874464 0.61335194 -0.92338413
0.88161367 0.6093207 -0.93160385
0.87040579 0.60157448 -0.93198818
0.85227001 0.58904004 -0.92669713
0.83423877 0.5765779 -0.92114252
0.82320839 0.56895429 -0.92098802
0.81740588 0.56494397 -0.92859352
0.79960793 0.55264306 -0.92239511
0.77602571 0.53634441 -0.90896577
0.77616692 0.53644198 -0.92314404
0.7703523 0.53242326 -0.93031329
0.7636444 0.52778715 -0.93844974
0.75114447 0.51914787 -0.93934417
0.73869026 0.51054025 -0.94004536
0.72148389 0.4986482 -0.93231481
0.72034758 0.49786288 -0.94727606
0.70245755 0.48549828 -0.94007701
0.69568217 0.48081553 -0.94749284
0.67258167 0.4648498 -0.93228137
0.62748498 0.43368155 -0.88717693
0.59985828 0.41458759 -0.86324227
0.25110725 0.17355089 -0.39601168
0.089930087 0.062154509 -0.15540077
0.37703341 0.24766466 2.479296
0.39523771 0.25962263 2.50577
0.4080109 0.26801306 2.4824576
0.42778587 0.28100279 2.4878981
0.44767115 0.29406497 2.4931138
0.47175968 0.30988818 2.507252
0.48966339 0.32164872 2.5126026
0.50797093 0.33367452 2.5073946
0.52012068 0.34165543 2.4729023
0.53797108 0.35338095 2.4777629
0.55582237 0.36510706 2.4928215
0.5783816 0.3799257 2.5165911
0.59212989 0.38895664 2.5016184
0.60809618 0.39944455 2.4961295
0.6286878 0.41297072 2.4992611
0.64937127 0.42655721 2.5021522
0.66530287 0.43702233 2.4961538
0.68123215 0.44748586 2.4899957
0.69974595 0.45964718 2.4931867
0.71336949 0.46859616 2.4876537
0.73201579 0.4808445 2.4904902
0.74220496 0.48753753 2.4649217
0.76082528 0.49976879 2.4674432
0.77653241 0.51008648 2.4604287
0.79223013 0.52039796 2.4532545
0.79950672 0.52517778 2.4283898
0.80871886 0.53122902 2.4024715
0.80707097 0.53014654 2.3384783
0.80780989 0.5306319 2.2839162
0.80705589 0.53013664 2.2408071
0.80451858 0.52846992 2.1875944
0.77734721 0.51062167 2.0707238
0.74528092 0.48955804 1.9453764
0.74703902 0.49071294 1.9113433
0.75563115 0.49635687 1.8954291
0.76963109 0.50555313 1.8984689
0.78716165 0.51706856 1.89932
0.80301642 0.52748317 1.9010066
0.81896597 0.53796011 1.9024967
0.83495355 0.54846197 1.903823
0.85103321 0.55902433 1.9049499
0.86714804 0.56960982 1.9059116
0.87755543 0.57644618 1.8990804
0.89786321 0.58978587 1.9084271
0.97648704 0.64143211 2.0390041
1.1284355 0.74124354 2.3150792
1.1431606 0.75091612 2.3047144
1.1448916 0.75205326 2.2685103
1.1485424 0.75445133 2.2424436
1.1495401 0.75510669 2.2064388
1.1457025 0.75258583 2.1620779
1.1413354 0.74971718 2.1179419
1.1365035 0.74654323 2.0739896
1.1357839 0.74607056 2.0385959
1.1375488 0.74722987 2.0130897
1.1314416 0.74321818 1.9696616
1.1361766 0.74632853 1.9413904
1.1357325 0.74603689 1.9050304
1.1397586 0.74868143 1.8769194
1.1434617 0.75111395 1.8488708
1.1317532 0.74342293 1.79693
1.1295521 0.7419771 1.7612444
1.126918 0.74024671 1.7257435
1.1222988 0.73721248 1.6919111
1.1225847 0.73740029 1.6660266
1.1225821 0.73739856 1.64026
1.127685 0.74075055 1.6222563
1.1311486 0.74302572 1.6057446
1.1196119 0.73544747 1.5649877
1.1186115 0.73479038 1.5396075
1.1283935 0.741216 1.529355
1.1283336 0.74117661 1.5026379
1.1336106 0.74464297 1.4834197
1.1216131 0.73676211 1.4422432
1.1193151 0.73525262 1.4174051
1.1283182 0.74116647 1.4071498
1.1197793 0.73555756 1.3752997
1.1238835 0.73825347 1.356454
1.1337343 0.74472421 1.3446681
1.1303122 0.74247634 1.3203118
1.1314919 0.74325126 1.3044935
1.133731 0.74472207 1.2872231
1.1430764 0.75086087 1.275337
1.1338482 0.74479902 1.243086
1.1417395 0.74998266 1.2327031
1.1433345 0.75103039 1.215582
1.1384704 0.74783534 1.1919427
1.1460528 0.75281602 1.1814952
1.1408048 0.74936873 1.1580634
1.1407069 0.74930435 1.1426858
1.1415253 0.74984193 1.1258584
1.1421794 0.75027162 1.1091071
1.1427027 0.75061536 1.0923859
1.1496332 0.75516784 1.0819266
1.142321 0.7503646 1.0606394
1.1424223 0.75043118 1.0440902
1.1490449 0.75478142 1.0336348
1.1488968 0.75468415 1.0171469
1.1418346 0.75004512 0.99485981
1.1404638 0.74914473 0.9800635
1.1398669 0.74875259 0.96383244
1.1459779 0.75276679 0.95340276
1.1451375 0.75221479 0.93724751
1.15193 0.75667655 0.9252556
1.151655 0.75649589 0.90769207
1.1574076 0.76027477 0.89715648
1.1497992 0.75527692 0.87431026
1.1553519 0.75892437 0.8637684
1.1544815 0.75835264 0.84644765
1.1455247 0.75246912 0.82556844
1.1428287 0.75069815 0.81147689
1.1407601 0.74933934 0.79596287
1.1385491 0.74788696 0.78055823
1.1435031 0.75114107 0.77012199
1.1410645 0.74953932 0.75482613
1.145854 0.75268543 0.74436766
1.1364801 0.74652791 0.72298622
1.1491238 0.75483322 0.71571034
1.1468531 0.75334167 0.69914538
1.1512766 0.7562474 0.68865961
1.147519 0.75377911 0.67521644
1.1442715 0.75164592 0.66035682
1.1484479 0.75438923 0.64989573
1.144984 0.75211388 0.63516641
1.1489997 0.75475174 0.62469959
1.1447606 0.75196719 0.61161137
1.1486349 0.75451213 0.60112327
1.1447506 0.75196064 0.58668661
1.1489862 0.75474286 0.5747121
1.1371531 0.74697 0.55661345
1.1406683 0.74927902 0.54622036
1.1363418 0.74643701 0.5321269
1.1397009 0.74864358 0.52174199
1.1503562 0.75564271 0.5163185
1.1300782 0.74232256 0.49545997
1.1410731 0.74954498 0.4885022
1.1524864 0.75704211 0.47985652
1.1396897 0.74863619 0.46287283
1.1430223 0.75082535 0.45095587
1.1542282 0.75818616 0.44205323
1.1414442 0.74978864 0.42405444
1.1524971 0.75704908 0.41500261
1.1394317 0.74846679 0.3973572
1.1419317 0.7501089 0.38694796
1.1604885 0.76229846 0.38179502
1.1548129 0.75857037 0.36861634
1.1571344 0.76009524 0.3580434
1.1509629 0.75604129 0.34653422
1.1612592 0.76280469 0.33838758
1.1474078 0.75370604 0.32168722
1.1497104 0.75521857 0.30969507
1.135586 0.74594063 0.29345691
1.1458679 0.75269455 0.28361508
1.1396937 0.74863881 0.26970017
1.1334044 0.74450749 0.25593594
1.1516805 0.7565127 0.24763004
1.1449916 0.75211895 0.2353958
1.138211 0.74766493 0.22332226
1.1478627 0.75400484 0.21444821
1.1409287 0.74945009 0.20249997
1.1421893 0.75027806 0.19205888
1.1516657 0.75650293 0.18294661
1.1529561 0.75735068 0.17091528
1.1543041 0.75823611 0.15735246
1.1470957 0.753501 0.14424928
1.1481041 0.75416338 0.13226713
1.1573514 0.76023775 0.12114649
1.1496584 0.75518441 0.1112747
1.1587627 0.76116478 0.099986389
1.1511065 0.75613558 0.087251857
1.1517664 0.75656909 0.073738888
1.1523163 0.75693035 0.060194753
1.1443585 0.75170308 0.047812309
1.153019 0.75739187 0.036124188
1.1449026 0.75206047 0.022427525
1.1533895 0.75763524 0.0090320148
1.1534114 0.75764966 -0.0030106907
1.1533313 0.75759703 -0.016546372
1.161523 0.76297796 -0.028794652
1.1612687 0.76281095 -0.040920835
1.1525741 0.75709963 -0.052662294
1.1604949 0.7623027 -0.065162934
1.1599754 0.76196146 -0.077276997
1.1510268 0.75608331 -0.088742122
1.1503358 0.75562936 -0.10075644
1.1494528 0.75504935 -0.11427533
1.1320431 0.74361336 -0.12295301
1.1477371 0.7539224 -0.13674968
1.1550055 0.75869673 -0.14980556
1.1455675 0.75249726 -0.16069464
1.144352 0.75169873 -0.17264922
1.1514995 0.75639379 -0.18443754
1.1583847 0.76091647 -0.19786647
1.1568973 0.75993949 -0.20995346
1.155322 0.7589047 -0.22202446
1.1454182 0.75239909 -0.23240654
1.1601353 0.76206642 -0.24787275
1.1500684 0.75545377 -0.25813231
1.1481419 0.75418824 -0.27013016
1.154575 0.75841397 -0.28260377
1.1527356 0.75720572 -0.29315549
1.1508332 0.75595617 -0.30366606
1.1491475 0.75484878 -0.31267133
1.1471162 0.75351447 -0.32317254
1.1450226 0.75213927 -0.33363095
1.1509629 0.75604129 -0.34653422
1.1487204 0.75456822 -0.35702705
1.1460726 0.75282896 -0.36900705
1.1513891 0.75632131 -0.38364178
1.1569387 0.75996661 -0.39691779
1.1543747 0.75828248 -0.4074637
1.1597358 0.76180404 -0.42091277
1.1494263 0.75503194 -0.42701986
1.1546338 0.75845259 -0.4405345
1.1593171 0.76152903 -0.45569429
1.1559494 0.7593168 -0.46778119
1.1524935 0.7570467 -0.47983244
1.1489497 0.75471896 -0.49184719
1.1453186 0.75233376 -0.50382447
1.1577109 0.76047391 -0.52133006
1.1538644 0.75794721 -0.53339767
1.1421602 0.75025898 -0.5417394
1.1464196 0.75305694 -0.5559023
1.1505561 0.75577408 -0.5701983
1.1540471 0.75806725 -0.5860967
1.1573932 0.76026523 -0.6021111
1.160593 0.76236707 -0.6182397
1.1566181 0.75975609 -0.62881249
1.167732 0.76705658 -0.6477856
1.1635686 0.76432168 -0.65842271
1.1599419 0.76193941 -0.66752011
1.1631472 0.76404488 -0.682513
1.1655966 0.76565391 -0.69911271
1.167892 0.76716161 -0.71581525
1.1558853 0.75927472 -0.72182477
1.1586193 0.76107067 -0.73707038
1.1612366 0.76278991 -0.75238359
1.1557047 0.75915611 -0.76447928
1.1573639 0.76024598 -0.78143138
1.1668321 0.76646543 -0.80195618
1.1616858 0.76308501 -0.81258059
1.1636431 0.76437062 -0.82829481
1.166242 0.76607782 -0.84255826
1.1679587 0.76720548 -0.8584103
1.1687365 0.76771641 -0.87588042
1.1975249 0.78662682 -0.91496027
1.1846343 0.77815926 -0.92043996
1.1709061 0.76914155 -0.92725414
1.1571692 0.76011813 -0.93385214
1.1236093 0.73807335 -0.92176455
1.103973 0.72517478 -0.9205786
1.0844319 0.71233863 -0.91906536
1.0725925 0.70456159 -0.92170399
1.05317 0.69180334 -0.91969621
1.0204233 0.67029279 -0.90545231
1.0146083 0.66647303 -0.91475886
1.0012667 0.6577093 -0.91922975
0.98135155 0.64462745 -0.91733557
0.96320754 0.63270909 -0.91258448
0.95000786 0.62403852 -0.91633022
0.93682736 0.61538053 -0.91987026
0.91809571 0.60307616 -0.91558695
0.90500939 0.59448004 -0.91866827
0.89194858 0.58590072 -0.92154658
0.88519311 0.58146322 -0.93082416
0.87214071 0.57288933 -0.93336403
0.8459096 0.55565876 -0.92335278
0.8399989 0.55177611 -0.93104511
0.82793784 0.54385352 -0.93184888
0.81072229 0.53254497 -0.92451352
0.80480516 0.52865821 -0.93188471
0.78094339 0.51298392 -0.91819113
0.77506745 0.50912416 -0.92529076
0.76913285 0.50522584 -0.93235266
0.76316696 0.50130701 -0.93934417
0.74558347 0.48975682 -0.93184954
0.74047005 0.48639789 -0.93766797
0.72877753 0.47871736 -0.93707681
0.72276896 0.47477049 -0.94371498
0.69433415 0.4560923 -0.92058671
0.68204814 0.44802189 -0.92031884
0.6698193 0.43998906 -0.91986507
0.67308867 0.44213662 -0.9429034
0.60171622 0.39525366 -0.85796976
0.22896327 0.15040076 -0.35700899
0.37589565 0.23442981 2.4807549
0.3966051 0.2473454 2.5067956
0.41051796 0.25602224 2.5036829
0.42674589 0.2661429 2.4999111
0.44873244 0.27985495 2.5149992
0.46137682 0.28774071 2.4913523
0.4816882 0.30040804 2.4962635
0.50601476 0.31557944 2.5204084
0.51831478 0.32325044 2.4963491
0.53861427 0.33591035 2.5110075
0.55718666 0.34749314 2.5053725
0.57793945 0.36043575 2.5091975
0.59648365 0.37200096 2.5135479
0.61273295 0.38213494 2.5081131
0.62898368 0.39226985 2.5025196
0.64516073 0.40235874 2.496793
0.66658753 0.41572174 2.5204041
0.68291646 0.42590535 2.5143249
0.69885069 0.43584284 2.4977088
0.72004592 0.44906139 2.4998956
0.73852915 0.46058857 2.4923949
0.7569561 0.47208065 2.4847047
0.77008599 0.48026922 2.4684427
0.79133183 0.49351934 2.469784
0.80652273 0.50299323 2.4522274
0.81700546 0.50953084 2.4366536
0.82769442 0.51619709 2.3992836
0.82366401 0.5136835 2.3363662
0.83216375 0.51898444 2.3104672
0.82346791 0.51356119 2.2386951
0.82766211 0.51617694 2.2037778
0.79997969 0.4989126 2.086916
0.76731205 0.47853923 1.9615892
0.76377827 0.47633538 1.9194133
0.77429199 0.4828923 1.9024687
0.79208571 0.49398947 1.9034113
0.80995202 0.50513196 1.9041322
0.82963741 0.51740885 1.9035729
0.84589487 0.52754796 1.9049029
0.86218965 0.53771031 1.9060683
0.87679702 0.54682022 1.9081705
0.893246 0.55707878 1.9089721
0.90972817 0.56735796 1.9096072
0.93892986 0.5855698 1.9360833
1.0666279 0.66520953 2.1609724
1.1713853 0.73054212 2.3320088
1.1755705 0.73315233 2.3057799
1.177182 0.73415726 2.2695496
1.1694652 0.72934473 2.2164178
1.174704 0.73261184 2.1889381
1.1796875 0.73571986 2.1614702
1.1750633 0.73283595 2.1173279
1.1633421 0.72552598 2.0665545
1.1624782 0.72498721 2.031142
1.1563958 0.72119391 1.9876438
1.164403 0.72618765 1.9689635
1.1740258 0.73218888 1.9487593
1.1635486 0.72565478 1.896096
1.1657361 0.72701901 1.8694659
1.17445 0.73245353 1.8493996
1.1520963 0.71851248 1.7815763
1.1600422 0.72346801 1.7617594
1.1572622 0.72173423 1.7262224
1.1524923 0.71875948 1.6923493
1.1473269 0.71553808 1.6586881
1.1472294 0.71547723 1.6328983
1.1413802 0.71182925 1.5995783
1.1502389 0.71735406 1.59074
1.1438652 0.71337909 1.5576465
1.1483109 0.71615165 1.539808
1.1526151 0.71883601 1.521957
1.1510347 0.71785039 1.4967331
1.1549634 0.72030056 1.4789613
1.1529139 0.71902239 1.4539244
1.1551296 0.72040421 1.437739
1.1585406 0.72253156 1.4200816
1.1571435 0.7216602 1.3938169
1.1661301 0.7272647 1.3833752
1.1702964 0.72986311 1.3642969
1.1608779 0.72398919 1.3327798
1.1645731 0.72629368 1.3138748
1.1618968 0.72462463 1.288144
1.1701994 0.72980255 1.2776626
1.1670662 0.72784853 1.2521154
1.169969 0.7296589 1.233398
1.1663107 0.72737736 1.208115
1.1752118 0.73292857 1.196074
1.1710832 0.73035383 1.1710026
1.1656209 0.72694719 1.1475955
1.1664606 0.72747093 1.1307323
1.173761 0.73202378 1.1201903
1.1733278 0.73175365 1.1048703
1.180444 0.73619169 1.0942916
1.1740893 0.73222858 1.0713803
1.1742402 0.73232263 1.0547339
1.1810473 0.73656797 1.044124
1.17507 0.73284018 1.0200763
1.1807098 0.73635745 1.0109906
1.1803157 0.7361117 0.99453217
1.1728523 0.73145705 0.9723621
1.1721339 0.73100907 0.95610029
1.1783013 0.73485541 0.94551229
1.1711473 0.73039377 0.92224658
1.1770817 0.7340948 0.91169268
1.1687084 0.72887272 0.8902052
1.1752554 0.73295581 0.87815166
1.1745075 0.73248935 0.86075062
1.1735919 0.73191828 0.84343219
1.1717381 0.73076224 0.82771748
1.1778225 0.73455673 0.81563514
1.183817 0.73829532 0.80349076
1.1749423 0.73276049 0.78145552
1.1799768 0.73590028 0.77084732
1.1774787 0.73434234 0.75543714
1.1823443 0.73737687 0.74480683
1.172103 0.73098981 0.7248643
1.1761035 0.73348469 0.7158078
1.1731435 0.73163867 0.7006706
1.1700461 0.729707 0.68565285
1.1744593 0.73245931 0.67509156
1.1787941 0.73516273 0.66451508
1.1747808 0.73265988 0.65115237
1.1795577 0.73563892 0.63904548
1.1687642 0.72890753 0.61869532
1.1733009 0.7317369 0.60665154
1.1699486 0.72964615 0.59062409
1.1664488 0.72746348 0.5747121
1.1779958 0.73466492 0.5679729
1.1658821 0.72711009 0.54993618
1.1699097 0.72962195 0.53792465
1.1738483 0.73207825 0.52587223
1.1697401 0.72951609 0.51030821
1.173016 0.73155916 0.49975479
1.1686672 0.72884697 0.48435432
1.1717677 0.73078066 0.47383544
1.1671821 0.72792083 0.4586035
1.1539831 0.71968919 0.44189429
1.172586 0.731291 0.43903938
1.167287 0.72798628 0.42553148
1.161888 0.72461909 0.41212067
1.1645212 0.72626138 0.40166479
1.1667269 0.72763699 0.39267373
1.1610634 0.72410488 0.37947848
1.171679 0.73072535 0.3716298
1.1740553 0.73220736 0.36106294
1.1763579 0.73364335 0.35049921
1.1617997 0.72456408 0.33664286
1.1639494 0.7259047 0.32616603
1.1660264 0.72720003 0.31569415
1.1597559 0.72328949 0.30301547
1.169981 0.72966635 0.2946718
1.1715924 0.73067135 0.2856409
1.1734109 0.7318055 0.27507734
1.175157 0.73289442 0.2645219
1.1770709 0.73408806 0.25242588
1.1788952 0.7352258 0.24031064
1.163464 0.72560203 0.22793254
1.1651075 0.72662693 0.21595818
1.1664742 0.72747934 0.20545508
1.1761711 0.73352689 0.19636662
1.1775804 0.73440576 0.18426277
1.1620585 0.72472543 0.16968568
1.1631252 0.72539067 0.1592114
1.1726964 0.73135984 0.14831011
1.1821941 0.73728323 0.137224
1.1831652 0.73788881 0.12506045
1.1841491 0.73850244 0.1113773
1.1679108 0.72837526 0.099267058
1.1685193 0.7287547 0.088766158
1.1775323 0.73437577 0.078802973
1.1780709 0.73471171 0.066689596
1.1869985 0.74027944 0.054963741
1.1788791 0.73521572 0.042448532
1.1791757 0.73540068 0.028818905
1.1793442 0.73550576 0.016690532
1.1794264 0.73555708 0.0030325071
1.1794039 0.73554307 -0.0090974635
1.1877555 0.74075156 -0.022894209
1.170607 0.73005676 -0.033114444
1.1618778 0.72461271 -0.043319531
1.1785198 0.73499173 -0.054571144
1.1781324 0.73475009 -0.065162934
1.1776754 0.734465 -0.075775154
1.1770694 0.73408711 -0.087884121
1.1679108 0.72837526 -0.099267058
1.1840461 0.73843825 -0.11288738
1.1663772 0.72741884 -0.12176248
1.1738763 0.73209572 -0.13472272
1.1729681 0.73152936 -0.14529456
1.188857 0.74143851 -0.15807602
1.187797 0.74077737 -0.16878216
1.178254 0.73482585 -0.17818129
1.1770638 0.73408359 -0.1887913
1.1924156 0.74365789 -0.20375952
1.1824751 0.73745841 -0.21449398
1.1810526 0.73657125 -0.22511667
1.1793407 0.73550367 -0.23725468
1.1775391 0.73438001 -0.24937461
1.1756477 0.73320049 -0.26147556
1.1819907 0.73715633 -0.27549672
1.1796367 0.73568821 -0.28917128
1.177731 0.73449975 -0.2997663
1.1843231 0.73861086 -0.31101918
1.182271 0.73733115 -0.32168001
1.1801548 0.73601139 -0.33229774
1.1862024 0.73978299 -0.34531844
1.1674896 0.72811264 -0.35102677
1.1815896 0.73690617 -0.3666268
1.1873714 0.74051201 -0.37985682
1.1852365 0.73918051 -0.38900739
1.1826786 0.73758531 -0.39967418
1.1800576 0.73595071 -0.41029331
1.1773618 0.73426944 -0.42091277
1.1746036 0.73254925 -0.43148351
1.1798517 0.73582226 -0.44510189
1.1769369 0.73400444 -0.45569429
1.1815556 0.73688495 -0.47098514
1.1780231 0.7346819 -0.48311898
1.1828473 0.73769051 -0.49707663
1.1795959 0.73566282 -0.50769442
1.1842161 0.73854423 -0.52180898
1.1728798 0.73147428 -0.52886498
1.1778226 0.73455685 -0.54153508
1.1816455 0.73694104 -0.55734342
1.1774737 0.73433924 -0.56947488
1.1732122 0.73168147 -0.581563
1.177757 0.73451596 -0.59453738
1.1816401 0.7369377 -0.60913825
1.1854115 0.7392897 -0.62381917
1.1890516 0.74155986 -0.63862759
1.1854795 0.73933214 -0.6477856
1.1889234 0.74147987 -0.66269815
1.1845901 0.7387774 -0.67339015
1.1801977 0.73603809 -0.68401849
1.1833117 0.73798019 -0.69911271
1.186309 0.73984945 -0.7142784
1.1884971 0.74121404 -0.73107892
1.1905261 0.74247944 -0.74797851
1.1930965 0.74408251 -0.76345402
1.1888311 0.74142236 -0.77264053
1.1985937 0.74751091 -0.79309547
1.1934144 0.74428076 -0.80387074
1.1947464 0.74511147 -0.82115155
1.1959128 0.74583894 -0.83852065
1.1904514 0.74243289 -0.84924597
1.1849082 0.73897576 -0.85994631
1.1864994 0.73996812 -0.87588042
1.188771 0.74138492 -0.8903774
1.211466 0.75553876 -0.92277366
1.1983681 0.74737012 -0.9281444
1.1711473 0.73039377 -0.92224658
1.164274 0.72610712 -0.9342562
1.1503401 0.71741718 -0.94049466
1.1095468 0.69197619 -0.92199504
1.0897398 0.67962343 -0.92031479
1.0631746 0.66305584 -0.91242355
1.0572252 0.65934545 -0.92197531
1.0308814 0.64291602 -0.91342348
1.0122895 0.63132101 -0.9092325
1.0063623 0.62762445 -0.9183259
0.98619717 0.61504841 -0.91625905
0.96699238 0.60307115 -0.91259575
0.95446211 0.59525663 -0.91497082
0.9419716 0.58746678 -0.91715449
0.93599498 0.58373946 -0.92561418
0.91706121 0.5719313 -0.92102838
0.9055047 0.56472397 -0.92154658
0.89950067 0.56097955 -0.92967761
0.88797581 0.553792 -0.9299534
0.88105613 0.5494765 -0.93905044
0.86158264 0.5373317 -0.93453199
0.84224409 0.52527106 -0.92968553
0.82304388 0.51329672 -0.92451352
0.81093955 0.5057478 -0.92493039
0.80405998 0.50145733 -0.93323529
0.80311257 0.50086647 -0.94854784
0.78504187 0.48959655 -0.94149059
0.76625216 0.47787821 -0.93514174
0.75433046 0.47044319 -0.93475598
0.74244487 0.46303064 -0.93422604
0.73062438 0.45565873 -0.93352193
0.70743251 0.44119498 -0.91787046
0.71190929 0.44398695 -0.9400323
0.68254322 0.42567259 -0.91724455
0.66934466 0.41744122 -0.91750777
0.61324668 0.38245535 -0.85560292
0.5221405 0.32563639 -0.74982011
0.091649987 0.057158116 -0.14399038
0.38362479 0.22687508 2.4802742
0.40628174 0.24027435 2.5161088
0.42609093 0.25198948 2.532064
0.43759111 0.25879067 2.4988079
0.4539828 0.26848468 2.4948578
0.46802786 0.27679092 2.4913523
0.4863067 0.28760099 2.4968762
0.50857514 0.30077049 2.5217035
0.52312523 0.30937541 2.5073946
0.54193908 0.32050189 2.5019953
0.55618453 0.32892662 2.4874418
0.57932079 0.34260935 2.5010211
0.60270303 0.35643759 2.5143192
0.61918443 0.36618462 2.4985034
0.64283496 0.38017154 2.511301
0.66185689 0.39142108 2.5150814
0.6783489 0.4011744 2.5091436
0.69748098 0.41248912 2.512563
0.7139554 0.42223206 2.5063095
0.73042583 0.43197265 2.4998956
0.74731344 0.44195992 2.503736
0.76372844 0.45166776 2.4970412
0.7742486 0.45788935 2.4713917
0.79045051 0.46747112 2.4644592
0.81277752 0.48067528 2.4760542
0.82588059 0.48842442 2.4594638
0.83884996 0.4960945 2.4427691
0.83860993 0.49595255 2.3889673
0.8443709 0.49935955 2.3537583
0.84293967 0.49851313 2.3002038
0.8511858 0.50338989 2.2743089
0.85773355 0.50726223 2.2381864
0.84595704 0.50029761 2.1566081
0.78929633 0.46678853 1.9777563
0.77649653 0.45921877 1.9074253
0.79276401 0.46883935 1.9094802
0.80907494 0.47848561 1.9113736
0.82548541 0.48819071 1.9130718
0.8398236 0.49667031 1.9046298
0.85628563 0.50640589 1.9059979
0.87284285 0.5161978 1.9071668
0.89353538 0.52843535 1.9169639
0.91859227 0.54325396 1.9352424
0.92705631 0.54825962 1.9183269
0.94210631 0.55716014 1.919924
0.9892714 0.5850535 1.9806955
1.1510507 0.68072951 2.2646389
1.2013835 0.71049619 2.3229234
1.2031304 0.71152931 2.2866139
1.204505 0.71234226 2.2503858
1.1987846 0.70895922 2.2073495
1.2060062 0.71323007 2.1782911
1.1940057 0.70613301 2.115804
1.1907246 0.70419258 2.0703592
1.1946087 0.70648962 2.0432041
1.1865616 0.70173061 2.0011361
1.1898203 0.70365775 1.9741564
1.1877738 0.70244747 1.9391134
1.1921905 0.70505953 1.9108043
1.1860486 0.70142722 1.8664641
1.1931301 0.70561516 1.8478765
1.1912898 0.70452678 1.8118694
1.194285 0.70629817 1.7839357
1.1952894 0.70689213 1.7576083
1.1798815 0.69777995 1.707947
1.1747437 0.69474149 1.6741898
1.1747465 0.6947431 1.648303
1.1744535 0.69456983 1.6225387
1.177986 0.69665897 1.6059624
1.1716204 0.69289434 1.5727693
1.176229 0.69561994 1.5548306
1.1749623 0.69487077 1.5294176
1.1849686 0.70078844 1.5189618
1.1774418 0.69633716 1.4863194
1.181288 0.6986118 1.4685367
1.1776996 0.69648957 1.4450003
1.1752417 0.69503605 1.4200816
1.1832166 0.69975233 1.4111148
1.1877111 0.7024104 1.3919634
1.1907085 0.70418304 1.3743507
1.1935644 0.705872 1.3567419
1.1838422 0.7001223 1.32531
1.192528 0.70525908 1.3147572
1.1873447 0.70219368 1.2919894
1.1894649 0.70344758 1.2746508
1.1914459 0.70461917 1.2573259
1.1932502 0.70568615 1.240065
1.1949158 0.70667124 1.2228214
1.1952828 0.70688832 1.2071487
1.1912143 0.7044822 1.1819954
1.2000473 0.70970601 1.1698735
1.2021471 0.71094787 1.1513016
1.20406 0.71207905 1.1327767
1.1990502 0.70911634 1.1080761
1.212038 0.71679729 1.1051087
1.2056347 0.71301043 1.0821096
1.2058681 0.71314847 1.0653174
1.2059357 0.71318841 1.0486093
1.20587 0.71314949 1.0319377
1.204694 0.71245408 1.0168685
1.2113346 0.71638131 1.0061642
1.2108797 0.71611226 0.98962295
1.2102637 0.71574795 0.9731735
1.2104074 0.71583289 0.95524722
1.2032125 0.71157783 0.9318459
1.1957593 0.70717007 0.90866399
1.2017033 0.71068531 0.89801764
1.1930147 0.70554698 0.87665236
1.1987482 0.7089377 0.86603129
1.1962622 0.7074675 0.85167265
1.1944455 0.70639306 0.83588803
1.2006786 0.71007937 0.82374644
1.1993707 0.70930588 0.80653262
1.1971604 0.70799869 0.79091394
1.1955365 0.70703834 0.77387935
1.1937485 0.70598084 0.75693834
1.1993886 0.70931643 0.74480683
1.2042433 0.71218747 0.73415744
1.2007055 0.71009529 0.72039634
1.1977328 0.70833725 0.70519108
1.2023275 0.7110545 0.69455749
1.2223351 0.72288698 0.69262642
1.203552 0.7117787 0.6688301
1.2072941 0.71399176 0.65966415
1.2115993 0.71653783 0.64892262
1.2158242 0.71903646 0.63816774
1.2121168 0.7168439 0.62330365
1.2077088 0.71423697 0.61008608
1.2037593 0.71190131 0.59544945
1.2076422 0.71419758 0.58474112
1.2119883 0.71676791 0.57247531
1.2002391 0.70981938 0.55279529
1.2038332 0.71194494 0.54214394
1.1998072 0.70956397 0.52638561
1.2037153 0.71187526 0.51420146
1.1908613 0.7042734 0.49673757
1.2022108 0.71098548 0.48947823
1.2049425 0.71260101 0.48032632
1.1999052 0.70962197 0.46643785
1.1947492 0.70657271 0.45269132
1.2058963 0.7131651 0.44509509
1.1923372 0.70514625 0.42848656
1.202965 0.71143156 0.42230353
1.2057086 0.71305406 0.41160735
1.2000991 0.70973665 0.39816567
1.2026839 0.71126533 0.38749564
1.1965319 0.707627 0.37573308
1.1906376 0.70414114 0.36258414
1.1929886 0.70553148 0.35199922
1.1952648 0.70687759 0.34141794
1.1891024 0.70323318 0.32847926
1.1825405 0.69935256 0.31718099
1.1845884 0.70056367 0.30669329
1.1781565 0.69675976 0.29406324
1.1803204 0.69803953 0.28210744
1.1992857 0.70925564 0.27398917
1.1925915 0.70529664 0.26149973
1.1860386 0.70142126 0.24763004
1.2045995 0.71239817 0.2404763
1.1976492 0.70828778 0.2281771
1.1993176 0.70927441 0.21602617
1.2008945 0.71020705 0.20385881
1.2023801 0.71108556 0.19167592
1.203774 0.71190995 0.17947842
1.2049197 0.71258754 0.16878216
1.2059927 0.71322209 0.15810049
1.2155581 0.71887904 0.14843042
1.2079302 0.71436793 0.13668567
1.2001022 0.70973849 0.1265936
1.209478 0.71528327 0.11675958
1.2016263 0.71063977 0.10528697
1.202284 0.71102875 0.09461195
1.1941998 0.70624781 0.084857471
1.2033173 0.71163988 0.074807562
1.2038333 0.71194506 0.062605023
1.1956559 0.70710897 0.050037723
1.2131581 0.71745974 0.039984494
1.2133574 0.71757758 0.030758988
1.2135422 0.71768689 0.018456331
1.1964201 0.70756084 0.0060649998
1.205021 0.71264744 -0.0076235607
1.2135243 0.71767634 -0.019981954
1.2047521 0.71248841 -0.030540839
1.2045165 0.71234912 -0.04121523
1.2042102 0.71216792 -0.051911641
1.2124331 0.71703094 -0.063027613
1.2033874 0.71168131 -0.073270336
1.2114633 0.71645743 -0.084530905
1.2108717 0.71610755 -0.095287748
1.2102109 0.71571672 -0.10601448
1.2007915 0.71014607 -0.11744116
1.2084341 0.71466589 -0.13053657
1.1904116 0.70400745 -0.13926141
1.2064327 0.71348232 -0.1535023
1.2137816 0.71782839 -0.16690311
1.2124817 0.71705967 -0.17920254
1.20274 0.71129841 -0.18860348
1.2099848 0.71558303 -0.20069315
1.2001206 0.70974934 -0.20992015
1.2072057 0.71393949 -0.22213694
1.2144209 0.71820652 -0.23294052
1.212625 0.71714443 -0.24524392
1.2107368 0.71602768 -0.25752866
1.2090108 0.71500701 -0.26824948
1.2069499 0.71378815 -0.28049669
1.2132221 0.71749759 -0.29476953
1.2028358 0.71135509 -0.30341408
1.2089061 0.71494508 -0.31780431
1.2148513 0.71846104 -0.33234057
1.2123086 0.71695733 -0.34464455
1.2096738 0.71539909 -0.35692227
1.2152705 0.71870899 -0.37171885
1.2124321 0.71703041 -0.38402557
1.2177857 0.72019649 -0.39901745
1.2064787 0.7135095 -0.40855035
1.2198484 0.72141635 -0.42653048
1.2170129 0.71973938 -0.43732712
1.222303 0.72286803 -0.4511508
1.2193058 0.72109544 -0.46196848
1.2162304 0.71927667 -0.47278392
1.2130913 0.71742016 -0.48354718
1.2179941 0.72031969 -0.49762431
1.2151647 0.71864635 -0.5068751
1.2113111 0.71636736 -0.51917559
1.2154144 0.71879405 -0.53497946
1.2038413 0.71194977 -0.54211956
1.2087666 0.71486259 -0.55493683
1.2130605 0.71740198 -0.56940204
1.217243 0.71987551 -0.58395106
1.2133651 0.71758211 -0.59474462
1.2088516 0.71491283 -0.60702354
1.2127061 0.71719235 -0.62175483
1.2079897 0.71440309 -0.63402605
1.2109942 0.71617997 -0.6504454
1.2060624 0.71326333 -0.66269815
1.216536 0.71945739 -0.68360883
1.211355 0.71639329 -0.69591653
1.2137636 0.71781778 -0.71268189
1.2083642 0.71462464 -0.72496033
1.2264111 0.72529751 -0.74963939
1.2214541 0.72236598 -0.76048476
1.2164146 0.71938556 -0.77131057
1.2113156 0.71637005 -0.78206676
1.2068839 0.71374911 -0.79126066
1.2083535 0.71461827 -0.8084569
1.2096561 0.71538866 -0.82574278
1.2123709 0.71699417 -0.84004533
1.2068081 0.71370429 -0.85078812
1.2158363 0.71904355 -0.87196249
1.2100633 0.71562946 -0.88273513
1.2259963 0.72505218 -0.90957814
1.2280699 0.72627848 -0.92431813
1.2138975 0.71789694 -0.93122339
1.1711507 0.69261658 -0.91558081
1.1801869 0.69796056 -0.93574041
1.1457062 0.67756873 -0.92339474
1.1325762 0.66980374 -0.9277575
1.0984526 0.64962304 -0.91448998
1.0723866 0.63420767 -0.90518928
1.0594882 0.62657958 -0.90872598
1.0465924 0.61895299 -0.9121083
1.0268823 0.60729653 -0.9092325
1.0140638 0.59971565 -0.91220373
0.99536085 0.58865476 -0.90754741
0.97591311 0.57715338 -0.90387362
0.96993721 0.57361925 -0.91251457
0.95062298 0.56219685 -0.90837801
0.93801242 0.554739 -0.91038305
